ply
format ascii 1.0
element vertex 1072
property float32 x
property float32 y
property float32 z
property uchar red
property uchar green
property uchar blue
element face 0
property list uint8 int32 vertex_indices
end_header
0.13126917 -0.1426134 1.6206069 166 177 168
0.13288978 -0.1426134 1.6206069 191 200 192
0.13398391 -0.14205524 1.614264 155 163 154
0.13559817 -0.14205524 1.614264 172 181 170
0.13721246 -0.14205524 1.614264 170 178 169
0.13882671 -0.14205524 1.614264 148 155 146
0.14044097 -0.14205524 1.614264 162 162 151
0.1426134 -0.1426134 1.6206069 125 127 115
0.144234 -0.1426134 1.6206069 142 143 132
0.1458546 -0.1426134 1.6206069 121 121 115
0.14689803 -0.14205524 1.614264 135 137 129
0.15188082 -0.14527729 1.6508784 179 181 168
0.1629915 -0.15422851 1.7525969 196 192 171
0.18850784 -0.17647544 2.0054026 217 200 176
0.2137212 -0.19797333 2.249697 226 204 178
0.21441156 -0.19654393 2.2334538 227 205 178
0.22002079 -0.19960648 2.2682555 229 204 182
0.22331247 -0.20052548 2.2786987 226 204 182
0.22559117 -0.20052548 2.2786987 227 202 179
0.22871228 -0.2012668 2.2871227 227 203 179
0.2320718 -0.20220119 2.2977407 227 205 178
0.23436955 -0.20220119 2.2977407 227 206 180
0.23666729 -0.20220119 2.2977407 227 205 179
0.23896502 -0.20220119 2.2977407 226 203 179
0.24126278 -0.20220119 2.2977407 223 199 177
0.24356052 -0.20220119 2.2977407 223 198 177
0.24585827 -0.20220119 2.2977407 225 201 180
0.248156 -0.20220119 2.2977407 225 203 182
0.25045374 -0.20220119 2.2977407 226 203 183
0.25275147 -0.20220119 2.2977407 225 200 182
0.25504923 -0.20220119 2.2977407 220 199 181
0.25734696 -0.20220119 2.2977407 219 198 181
0.2596447 -0.20220119 2.2977407 215 193 177
0.26194245 -0.20220119 2.2977407 217 196 180
0.26424018 -0.20220119 2.2977407 219 199 182
0.26653793 -0.20220119 2.2977407 219 200 185
0.26883566 -0.20220119 2.2977407 219 199 183
0.2711334 -0.20220119 2.2977407 219 200 181
0.27343115 -0.20220119 2.2977407 220 200 183
0.27572888 -0.20220119 2.2977407 217 199 181
0.2780266 -0.20220119 2.2977407 217 197 181
0.28032437 -0.20220119 2.2977407 219 198 181
0.2826221 -0.20220119 2.2977407 221 200 183
0.28360322 -0.2012668 2.2871227 217 196 180
0.28589034 -0.2012668 2.2871227 214 193 178
0.28817746 -0.2012668 2.2871227 217 194 180
0.2904646 -0.2012668 2.2871227 217 195 179
0.2927517 -0.2012668 2.2871227 219 197 181
0.29640853 -0.20220119 2.2977407 222 201 182
0.2987063 -0.20220119 2.2977407 224 201 184
0.30100402 -0.20220119 2.2977407 223 202 184
0.30330175 -0.20220119 2.2977407 221 200 181
0.3055995 -0.20220119 2.2977407 223 204 184
0.30789724 -0.20220119 2.2977407 222 201 182
0.310195 -0.20220119 2.2977407 221 200 181
0.31249273 -0.20220119 2.2977407 224 200 183
0.31479046 -0.20220119 2.2977407 220 197 180
0.31562293 -0.2012668 2.2871227 217 195 179
0.31791008 -0.2012668 2.2871227 215 194 175
0.32019717 -0.2012668 2.2871227 217 196 178
0.3224843 -0.2012668 2.2871227 220 197 180
0.32477143 -0.2012668 2.2871227 217 195 179
0.32705855 -0.2012668 2.2871227 220 197 179
-0.32543564 -0.2011373 2.2599697 187 164 136
-0.32317567 -0.2011373 2.2599697 146 125 100
-0.3209157 -0.2011373 2.2599697 147 122 95
-0.31865573 -0.2011373 2.2599697 146 122 93
-0.31639576 -0.2011373 2.2599697 135 111 84
-0.3141358 -0.2011373 2.2599697 133 110 84
-0.31187582 -0.2011373 2.2599697 135 111 85
-0.30961585 -0.2011373 2.2599697 146 119 91
-0.3073559 -0.2011373 2.2599697 145 119 90
-0.3050959 -0.2011373 2.2599697 139 116 88
-0.30283594 -0.2011373 2.2599697 146 118 89
-0.30057597 -0.2011373 2.2599697 135 110 82
-0.298316 -0.2011373 2.2599697 120 99 72
-0.29605603 -0.2011373 2.2599697 129 104 77
-0.29379606 -0.2011373 2.2599697 142 112 84
-0.2915361 -0.2011373 2.2599697 144 113 85
-0.28927612 -0.2011373 2.2599697 141 111 82
-0.28701615 -0.2011373 2.2599697 142 113 82
-0.28475618 -0.2011373 2.2599697 135 107 77
-0.2824962 -0.2011373 2.2599697 126 102 71
-0.28023624 -0.2011373 2.2599697 142 116 86
-0.27797627 -0.2011373 2.2599697 151 124 99
-0.2757163 -0.2011373 2.2599697 180 152 130
-0.27345634 -0.2011373 2.2599697 199 172 152
-0.27119634 -0.2011373 2.2599697 205 181 153
-0.2689364 -0.2011373 2.2599697 204 184 155
-0.26667643 -0.2011373 2.2599697 213 192 168
-0.26441646 -0.2011373 2.2599697 213 188 166
-0.2621565 -0.2011373 2.2599697 209 185 157
-0.25989652 -0.2011373 2.2599697 205 182 156
-0.25763655 -0.2011373 2.2599697 212 189 164
-0.25537658 -0.2011373 2.2599697 214 193 166
-0.2531166 -0.2011373 2.2599697 213 195 169
-0.25085664 -0.2011373 2.2599697 218 197 172
-0.24859667 -0.2011373 2.2599697 218 194 171
-0.2463367 -0.2011373 2.2599697 217 193 171
-0.24296726 -0.20022304 2.249697 218 197 172
-0.24071757 -0.20022304 2.249697 216 197 173
-0.23846789 -0.20022304 2.249697 218 197 173
-0.23621818 -0.20022304 2.249697 216 196 172
-0.2339685 -0.20022304 2.249697 217 196 173
-0.23171878 -0.20022304 2.249697 218 196 172
-0.22946909 -0.20022304 2.249697 216 192 170
-0.22721939 -0.20022304 2.249697 215 191 168
-0.22415459 -0.1994976 2.241546 220 197 170
-0.22272 -0.20022304 2.249697 215 194 166
-0.21967149 -0.1994976 2.241546 219 197 167
-0.21742995 -0.1994976 2.241546 216 193 166
-0.21441156 -0.19877739 2.2334538 216 195 170
-0.2121781 -0.19877739 2.2334538 219 195 172
-0.20994465 -0.19877739 2.2334538 218 197 172
-0.20677808 -0.1978844 2.2234201 219 197 172
-0.20455466 -0.1978844 2.2234201 219 195 171
-0.20233124 -0.1978844 2.2234201 219 196 171
-0.20010781 -0.1978844 2.2234201 223 198 173
-0.1962971 -0.1962971 2.2055852 222 200 174
-0.19496031 -0.19717579 2.2154582 222 200 175
-0.19274485 -0.19717579 2.2154582 222 200 175
-0.18883881 -0.19542621 2.1958 219 197 171
-0.186643 -0.19542621 2.1958 218 194 169
-0.18379487 -0.19473505 2.1880343 215 193 168
-0.18225141 -0.19542621 2.1958 216 194 168
-0.1794188 -0.19473505 2.1880343 216 195 169
-0.17645071 -0.19387795 2.1784039 221 200 173
-0.17427231 -0.19387795 2.1784039 220 199 172
-0.1728547 -0.19473505 2.1880343 220 195 169
-0.1693193 -0.19319768 2.1707604 218 197 171
-0.16512074 -0.19085383 2.1444252 216 201 172
-0.15844537 -0.18554789 2.0848076 217 192 169
-0.14800638 -0.17563425 1.9734185 170 157 144
-0.13831219 -0.16634844 1.8690836 154 151 138
-0.13138232 -0.16017842 1.7997576 149 152 140
-0.122457735 -0.15137137 1.7008018 144 149 137
-0.11760464 -0.1474199 1.6564034 144 148 138
-0.11426562 -0.14528057 1.632366 139 147 136
-0.11263325 -0.14528057 1.632366 139 147 136
-0.11100089 -0.14528057 1.632366 140 146 136
-0.10936852 -0.14528057 1.632366 143 150 140
-0.10731144 -0.14470786 1.6259309 145 153 142
-0.105339445 -0.144234 1.6206069 147 156 143
-0.10405958 -0.14470786 1.6259309 147 155 145
-0.102098234 -0.144234 1.6206069 149 159 149
-0.10047763 -0.144234 1.6206069 146 158 149
-0.098857015 -0.144234 1.6206069 148 158 152
-0.09723641 -0.144234 1.6206069 152 162 157
-0.09524158 -0.1436695 1.614264 153 164 158
-0.09362731 -0.1436695 1.614264 154 164 157
-0.092013046 -0.1436695 1.614264 151 163 151
-0.09039879 -0.1436695 1.614264 152 163 152
-0.08878452 -0.1436695 1.614264 151 164 152
-0.08717026 -0.1436695 1.614264 150 159 150
-0.08555599 -0.1436695 1.614264 152 162 153
-0.08361447 -0.1431094 1.6079706 154 164 154
-0.0820065 -0.1431094 1.6079706 155 165 155
-0.08039853 -0.1431094 1.6079706 155 168 159
-0.07853541 -0.14264596 1.6027634 159 170 164
-0.07718258 -0.1431094 1.6079706 161 168 165
-0.075574614 -0.1431094 1.6079706 158 169 161
-0.073727116 -0.14264596 1.6027634 159 171 159
-0.072358675 -0.1431094 1.6079706 157 167 154
-0.070750706 -0.1431094 1.6079706 157 167 157
-0.06914274 -0.1431094 1.6079706 158 163 154
-0.06753477 -0.1431094 1.6079706 155 162 150
-0.0659268 -0.1431094 1.6079706 155 162 150
-0.06431883 -0.1431094 1.6079706 148 157 144
-0.06271085 -0.1431094 1.6079706 145 154 143
-0.061102882 -0.1431094 1.6079706 143 150 140
-0.059494913 -0.1431094 1.6079706 139 145 136
-0.05788694 -0.1431094 1.6079706 135 138 129
-0.05649924 -0.1436695 1.614264 130 134 126
-0.054884974 -0.1436695 1.614264 138 144 134
-0.053270712 -0.1436695 1.614264 149 155 145
-0.051089894 -0.14209376 1.5965592 155 159 147
-0.049685664 -0.14264596 1.6027634 151 155 143
-0.048618205 -0.144234 1.6206069 130 127 114
-0.047338612 -0.14528057 1.632366 112 108 97
-0.048899554 -0.15543072 1.7464126 86 81 72
-0.048207793 -0.15890716 1.7854738 73 67 59
-0.046422318 -0.15890716 1.7854738 74 69 59
-0.044993937 -0.16017842 1.7997576 72 68 57
-0.043194182 -0.16017842 1.7997576 74 69 60
-0.041545503 -0.16076303 1.8063262 74 69 60
-0.039594665 -0.16017842 1.7997576 74 69 64
-0.03779491 -0.16017842 1.7997576 74 68 61
-0.03599515 -0.16017842 1.7997576 75 68 62
-0.034071498 -0.15959807 1.7932367 75 70 61
-0.032023005 -0.15833598 1.779056 76 69 61
-0.030353054 -0.15890716 1.7854738 78 72 66
-0.028901218 -0.16076303 1.8063262 79 73 68
-0.027094893 -0.16076303 1.8063262 77 73 68
-0.025381196 -0.1613519 1.8129426 79 74 70
-0.023568254 -0.1613519 1.8129426 80 74 71
-0.021851363 -0.16206427 1.8209468 80 74 70
-0.01994237 -0.1613519 1.8129426 78 74 68
-0.018129427 -0.1613519 1.8129426 77 73 68
-0.01638852 -0.16206427 1.8209468 77 75 69
-0.0145675745 -0.16206427 1.8209468 77 75 68
-0.012746627 -0.16206427 1.8209468 77 76 69
-0.010966027 -0.16266273 1.8276712 79 76 71
-0.009138356 -0.16266273 1.8276712 77 73 67
-0.0072837872 -0.16206427 1.8209468 77 74 67
-0.0054830136 -0.16266273 1.8276712 79 77 69
-0.0036553424 -0.16266273 1.8276712 75 72 66
-0.0018344454 -0.16326565 1.8344454 73 73 67
0.0 -0.16326565 1.8344454 74 74 69
0.0018344454 -0.16326565 1.8344454 70 68 62
0.0036688908 -0.16326565 1.8344454 75 72 66
0.005503336 -0.16326565 1.8344454 76 72 67
0.0073377816 -0.16326565 1.8344454 72 70 67
0.009206349 -0.16387302 1.8412699 73 72 69
0.011047618 -0.16387302 1.8412699 79 76 72
0.01288889 -0.16387302 1.8412699 80 77 72
0.014785164 -0.16448495 1.8481455 82 78 72
0.016633308 -0.16448495 1.8481455 84 81 76
0.018550724 -0.16510145 1.8550725 74 72 65
0.020405797 -0.16510145 1.8550725 79 77 69
0.022344619 -0.16572261 1.8620517 75 70 66
0.024298089 -0.16634844 1.8690836 79 74 69
0.026286293 -0.16710572 1.8775923 75 70 67
0.028379206 -0.16838329 1.891947 68 59 57
0.030387312 -0.16902941 1.899207 60 47 45
0.032662526 -0.17099795 1.9213251 57 39 37
0.03485446 -0.17233594 1.9363589 55 35 35
0.03679082 -0.17233594 1.9363589 58 34 32
0.038879286 -0.17301284 1.9439645 62 33 30
0.040823255 -0.17301284 1.9439645 66 36 35
0.04276722 -0.17301284 1.9439645 72 40 40
0.044536255 -0.17233594 1.9363589 74 42 42
0.04665515 -0.17301284 1.9439645 79 41 43
0.048599113 -0.17301284 1.9439645 85 48 45
0.05034533 -0.17233594 1.9363589 85 45 40
0.052281693 -0.17233594 1.9363589 92 47 39
0.054218046 -0.17233594 1.9363589 100 54 45
0.056154408 -0.17233594 1.9363589 103 52 45
0.05809077 -0.17233594 1.9363589 107 54 46
0.060027126 -0.17233594 1.9363589 112 59 47
0.061963487 -0.17233594 1.9363589 122 65 55
0.063899845 -0.17233594 1.9363589 106 59 42
0.065836206 -0.17233594 1.9363589 110 64 47
0.067508444 -0.17166434 1.9288127 140 82 68
0.06943726 -0.17166434 1.9288127 146 83 71
0.07136607 -0.17166434 1.9288127 162 92 81
0.073294885 -0.17166434 1.9288127 175 97 86
0.07522369 -0.17166434 1.9288127 181 100 88
0.07685301 -0.17099795 1.9213251 170 96 83
0.07877433 -0.17099795 1.9213251 160 91 80
0.08069566 -0.17099795 1.9213251 165 92 80
0.082616985 -0.17099795 1.9213251 172 96 85
0.08388701 -0.16968054 1.9065229 200 112 97
0.08513762 -0.16838329 1.891947 228 136 115
0.085977845 -0.16634844 1.8690836 227 141 119
0.08621893 -0.16326565 1.8344454 186 118 106
0.086388364 -0.16017842 1.7997576 219 155 140
0.083974145 -0.15252447 1.7137581 206 178 160
0.08377341 -0.14911668 1.6754683 124 118 107
0.084476575 -0.1474199 1.6564034 113 117 105
0.08584568 -0.14692818 1.6508784 111 115 106
0.08685916 -0.14585784 1.6388521 123 129 120
0.08849802 -0.14585784 1.6388521 131 139 129
0.09013686 -0.14585784 1.6388521 119 126 117
0.091775715 -0.14585784 1.6388521 119 126 117
0.093414575 -0.14585784 1.6388521 122 127 120
0.094677225 -0.14528057 1.632366 118 125 116
0.096309595 -0.14528057 1.632366 101 107 99
0.09794196 -0.14528057 1.632366 117 122 114
0.099181786 -0.14470786 1.6259309 119 126 117
0.10080772 -0.14470786 1.6259309 109 115 106
0.102098234 -0.144234 1.6206069 128 136 127
0.10371884 -0.144234 1.6206069 134 144 134
0.10492716 -0.1436695 1.614264 119 127 119
0.106541425 -0.1436695 1.614264 140 152 142
0.10815568 -0.1436695 1.614264 163 176 167
0.10976995 -0.1436695 1.614264 147 159 152
0.11138421 -0.1436695 1.614264 155 169 161
0.11299848 -0.1436695 1.614264 182 195 186
0.11461275 -0.1436695 1.614264 166 180 170
0.11622701 -0.1436695 1.614264 163 176 166
0.11784127 -0.1436695 1.614264 192 204 195
0.11945554 -0.1436695 1.614264 180 192 185
0.121069804 -0.1436695 1.614264 171 186 179
0.12268407 -0.1436695 1.614264 186 201 194
0.124298334 -0.1436695 1.614264 165 180 172
0.12591259 -0.1436695 1.614264 163 175 167
0.12752685 -0.1436695 1.614264 185 201 192
0.12964857 -0.144234 1.6206069 171 182 173
0.13126917 -0.144234 1.6206069 166 177 169
0.13288978 -0.144234 1.6206069 188 197 188
0.13398391 -0.1436695 1.614264 154 161 152
0.13559817 -0.1436695 1.614264 167 175 165
0.13721246 -0.1436695 1.614264 178 186 176
0.13882671 -0.1436695 1.614264 145 150 142
0.14044097 -0.1436695 1.614264 169 174 167
0.1426134 -0.144234 1.6206069 137 139 130
0.144234 -0.144234 1.6206069 148 150 138
0.1458546 -0.144234 1.6206069 137 136 127
0.14747523 -0.144234 1.6206069 149 152 143
0.14909583 -0.144234 1.6206069 160 164 156
0.15698771 -0.15023556 1.68804 185 184 169
0.18201774 -0.17233594 1.9363589 213 199 178
0.20860101 -0.19542621 2.1958 226 203 178
0.21173617 -0.1962971 2.2055852 228 203 177
0.2182206 -0.20022304 2.249697 225 203 180
0.22228903 -0.20187475 2.2682555 227 205 181
0.2245573 -0.20187475 2.2682555 226 204 180
0.22786987 -0.20280418 2.2786987 227 202 179
0.2309994 -0.20355393 2.2871227 226 203 178
0.23328651 -0.20355393 2.2871227 227 205 179
0.23557363 -0.20355393 2.2871227 227 205 179
0.23786077 -0.20355393 2.2871227 229 205 181
0.24014789 -0.20355393 2.2871227 228 205 181
0.24154206 -0.20280418 2.2786987 230 204 183
0.24472214 -0.20355393 2.2871227 224 202 181
0.24700925 -0.20355393 2.2871227 220 200 179
0.24929637 -0.20355393 2.2871227 223 202 181
0.2515835 -0.20355393 2.2871227 222 204 182
0.2538706 -0.20355393 2.2871227 221 203 181
0.25615776 -0.20355393 2.2871227 219 200 179
0.25844485 -0.20355393 2.2871227 216 197 177
0.260732 -0.20355393 2.2871227 219 195 178
0.2630191 -0.20355393 2.2871227 219 198 179
0.26530623 -0.20355393 2.2871227 223 202 183
0.26759335 -0.20355393 2.2871227 224 202 183
0.2698805 -0.20355393 2.2871227 223 202 182
0.2721676 -0.20355393 2.2871227 223 202 184
0.2744547 -0.20355393 2.2871227 223 202 184
0.27674186 -0.20355393 2.2871227 220 199 181
0.27902895 -0.20355393 2.2871227 220 199 182
0.28027993 -0.20280418 2.2786987 223 201 182
0.28255862 -0.20280418 2.2786987 227 204 185
0.28353193 -0.20187475 2.2682555 222 200 181
0.28711602 -0.20280418 2.2786987 220 197 180
0.28939474 -0.20280418 2.2786987 219 197 180
0.2927517 -0.20355393 2.2871227 219 197 179
0.29503882 -0.20355393 2.2871227 222 198 181
0.29732597 -0.20355393 2.2871227 225 201 184
0.29961306 -0.20355393 2.2871227 225 203 186
0.3019002 -0.20355393 2.2871227 223 202 185
0.30418733 -0.20355393 2.2871227 227 205 188
0.30647445 -0.20355393 2.2871227 225 203 186
0.30876157 -0.20355393 2.2871227 222 204 185
0.31104872 -0.20355393 2.2871227 224 202 183
0.3133358 -0.20355393 2.2871227 222 198 182
0.31446043 -0.20280418 2.2786987 220 199 182
0.3167391 -0.20280418 2.2786987 217 196 178
0.31901783 -0.20280418 2.2786987 216 196 179
0.3212965 -0.20280418 2.2786987 218 197 178
0.32477143 -0.20355393 2.2871227 220 197 180
0.3258539 -0.20280418 2.2786987 224 201 182
-0.32395637 -0.20247273 2.249697 207 183 158
-0.32170665 -0.20247273 2.249697 204 181 154
-0.31945696 -0.20247273 2.249697 204 178 152
-0.31720728 -0.20247273 2.249697 197 175 147
-0.3149576 -0.20247273 2.249697 202 178 149
-0.31270787 -0.20247273 2.249697 197 172 143
-0.31045818 -0.20247273 2.249697 179 154 130
-0.3082085 -0.20247273 2.249697 183 162 136
-0.3059588 -0.20247273 2.249697 181 157 132
-0.3037091 -0.20247273 2.249697 181 159 132
-0.30145937 -0.20247273 2.249697 167 144 119
-0.29920968 -0.20247273 2.249697 168 145 116
-0.29696 -0.20247273 2.249697 180 156 124
-0.2947103 -0.20247273 2.249697 168 143 115
-0.2924606 -0.20247273 2.249697 151 128 105
-0.2902109 -0.20247273 2.249697 153 127 103
-0.2879612 -0.20247273 2.249697 130 108 88
-0.28571153 -0.20247273 2.249697 149 125 100
-0.2834618 -0.20247273 2.249697 157 132 103
-0.28121212 -0.20247273 2.249697 158 134 105
-0.27896243 -0.20247273 2.249697 152 131 107
-0.27671275 -0.20247273 2.249697 188 164 131
-0.27446306 -0.20247273 2.249697 198 171 133
-0.27221334 -0.20247273 2.249697 205 176 137
-0.26996362 -0.20247273 2.249697 205 180 145
-0.26771393 -0.20247273 2.249697 213 189 153
-0.26546425 -0.20247273 2.249697 211 185 153
-0.26321453 -0.20247273 2.249697 209 180 145
-0.26096484 -0.20247273 2.249697 203 176 141
-0.25871515 -0.20247273 2.249697 207 182 153
-0.25646546 -0.20247273 2.249697 217 193 169
-0.25421575 -0.20247273 2.249697 217 193 166
-0.25196606 -0.20247273 2.249697 213 191 159
-0.24971637 -0.20247273 2.249697 211 185 156
-0.24746665 -0.20247273 2.249697 219 190 162
-0.24521697 -0.20247273 2.249697 213 190 161
-0.24296726 -0.20247273 2.249697 215 191 163
-0.24071757 -0.20247273 2.249697 216 192 166
-0.23760387 -0.20173913 2.241546 214 191 166
-0.23536232 -0.20173913 2.241546 215 191 168
-0.23312077 -0.20173913 2.241546 213 189 162
-0.23087923 -0.20173913 2.241546 209 183 152
-0.22863768 -0.20173913 2.241546 215 188 164
-0.22639613 -0.20173913 2.241546 212 191 169
-0.22415459 -0.20173913 2.241546 212 191 169
-0.22191304 -0.20173913 2.241546 214 191 167
-0.21967149 -0.20173913 2.241546 219 195 171
-0.21664502 -0.20101084 2.2334538 216 192 167
-0.21441156 -0.20101084 2.2334538 218 194 170
-0.21122491 -0.20010781 2.2234201 216 192 169
-0.2090015 -0.20010781 2.2234201 217 195 170
-0.20603761 -0.19939123 2.2154582 219 195 171
-0.20382215 -0.19939123 2.2154582 219 197 171
-0.20160669 -0.19939123 2.2154582 220 197 172
-0.19850267 -0.19850267 2.2055852 219 195 171
-0.1962971 -0.19850267 2.2055852 218 194 170
-0.19409151 -0.19850267 2.2055852 219 195 171
-0.1910346 -0.19762202 2.1958 217 194 169
-0.18883881 -0.19762202 2.1958 212 191 166
-0.18598291 -0.19692308 2.1880343 214 191 166
-0.18379487 -0.19692308 2.1880343 216 193 167
-0.18160684 -0.19692308 2.1880343 219 195 169
-0.17862912 -0.19605635 2.1784039 218 197 171
-0.17645071 -0.19605635 2.1784039 222 200 173
-0.17427231 -0.19605635 2.1784039 220 199 172
-0.1728547 -0.19692308 2.1880343 218 197 171
-0.16857992 -0.1945153 2.161281 219 195 169
-0.16512074 -0.19299826 2.1444252 214 195 169
-0.15911563 -0.1884264 2.0936267 216 192 167
-0.14979823 -0.17975788 1.9973097 183 168 152
-0.14054132 -0.17092863 1.899207 153 149 135
-0.13186182 -0.16256934 1.8063262 148 152 138
-0.123390585 -0.15423824 1.7137581 146 150 137
-0.11721237 -0.14857906 1.6508784 144 148 137
-0.11426562 -0.14691293 1.632366 143 149 138
-0.11263325 -0.14691293 1.632366 142 149 138
-0.1105633 -0.14633378 1.6259309 144 150 143
-0.10893737 -0.14633378 1.6259309 144 151 142
-0.10731144 -0.14633378 1.6259309 145 152 146
-0.105339445 -0.1458546 1.6206069 148 157 145
-0.10405958 -0.14633378 1.6259309 147 157 145
-0.102098234 -0.1458546 1.6206069 150 160 150
-0.10047763 -0.1458546 1.6206069 150 163 154
-0.098857015 -0.1458546 1.6206069 148 160 153
-0.09685584 -0.14528377 1.614264 152 162 157
-0.09524158 -0.14528377 1.614264 156 169 161
-0.09362731 -0.14528377 1.614264 155 168 158
-0.092013046 -0.14528377 1.614264 154 166 154
-0.09039879 -0.14528377 1.614264 154 165 154
-0.08878452 -0.14528377 1.614264 154 167 155
-0.086830415 -0.14471735 1.6079706 155 165 154
-0.085222445 -0.14471735 1.6079706 153 166 158
-0.08361447 -0.14471735 1.6079706 153 166 157
-0.0820065 -0.14471735 1.6079706 157 167 160
-0.08013817 -0.14424871 1.6027634 157 170 163
-0.07853541 -0.14424871 1.6027634 162 173 167
-0.07718258 -0.14471735 1.6079706 161 170 167
-0.07532988 -0.14424871 1.6027634 158 169 164
-0.073727116 -0.14424871 1.6027634 162 167 156
-0.072124355 -0.14424871 1.6027634 159 166 152
-0.07052159 -0.14424871 1.6027634 155 165 154
-0.068918824 -0.14424871 1.6027634 161 168 159
-0.06753477 -0.14471735 1.6079706 154 161 152
-0.0659268 -0.14471735 1.6079706 159 167 157
-0.06431883 -0.14471735 1.6079706 155 162 153
-0.06271085 -0.14471735 1.6079706 151 160 149
-0.061102882 -0.14471735 1.6079706 145 154 142
-0.059494913 -0.14471735 1.6079706 139 143 135
-0.05788694 -0.14471735 1.6079706 137 143 133
-0.056278974 -0.14471735 1.6079706 136 142 133
-0.054884974 -0.14528377 1.614264 134 139 128
-0.053270712 -0.14528377 1.614264 140 147 133
-0.05128843 -0.14424871 1.6027634 148 154 142
-0.049685664 -0.14424871 1.6027634 150 154 143
-0.048777927 -0.14633378 1.6259309 128 126 113
-0.047151998 -0.14633378 1.6259309 99 94 86
-0.04945801 -0.15897217 1.7663574 71 64 56
-0.048593458 -0.16197819 1.7997576 52 44 36
-0.046793696 -0.16197819 1.7997576 56 46 40
-0.04552367 -0.1638852 1.8209468 59 50 43
-0.04386411 -0.1644904 1.8276712 62 53 46
-0.042036436 -0.1644904 1.8276712 65 59 51
-0.03988474 -0.16316484 1.8129426 68 59 51
-0.038239885 -0.1638852 1.8209468 72 63 55
-0.036418937 -0.1638852 1.8209468 72 64 54
-0.03444591 -0.16316484 1.8129426 70 62 53
-0.03239564 -0.16197819 1.7997576 69 63 58
-0.030707544 -0.16256934 1.8063262 71 64 61
-0.029135149 -0.1638852 1.8209468 73 65 62
-0.027314201 -0.1638852 1.8209468 70 66 61
-0.025587397 -0.1644904 1.8276712 75 69 67
-0.023672309 -0.1638852 1.8209468 75 70 67
-0.021851363 -0.1638852 1.8209468 75 69 64
-0.020030415 -0.1638852 1.8209468 74 68 62
-0.018209469 -0.1638852 1.8209468 75 70 65
-0.01638852 -0.1638852 1.8209468 75 72 67
-0.01462137 -0.1644904 1.8276712 76 73 67
-0.012746627 -0.1638852 1.8209468 75 73 68
-0.010966027 -0.1644904 1.8276712 75 73 68
-0.009138356 -0.1644904 1.8276712 73 70 63
-0.007310685 -0.1644904 1.8276712 74 72 64
-0.0054830136 -0.1644904 1.8276712 74 72 63
-0.0036553424 -0.1644904 1.8276712 73 70 62
-0.0018344454 -0.16510008 1.8344454 73 72 66
0.0 -0.16510008 1.8344454 71 70 64
0.0018344454 -0.16510008 1.8344454 66 68 62
0.0036688908 -0.16510008 1.8344454 68 68 63
0.005523809 -0.16571428 1.8412699 71 69 63
0.0073650796 -0.16571428 1.8412699 70 68 62
0.009206349 -0.16571428 1.8412699 68 68 63
0.011088873 -0.1663331 1.8481455 73 73 68
0.012937019 -0.1663331 1.8481455 75 73 68
0.01484058 -0.16695653 1.8550725 79 74 69
0.016695652 -0.16695653 1.8550725 80 76 71
0.018620517 -0.16758466 1.8620517 74 72 65
0.02055992 -0.16821752 1.8690836 72 69 60
0.022531109 -0.16898331 1.8775923 71 65 62
0.024501652 -0.16962682 1.8847424 69 62 58
0.02648726 -0.17027524 1.891947 64 53 54
0.028597843 -0.17158705 1.9065229 55 38 38
0.030622326 -0.17225058 1.9138954 54 34 33
0.032918103 -0.17427231 1.9363589 56 32 30
0.03485446 -0.17427231 1.9363589 57 34 32
0.03679082 -0.17427231 1.9363589 59 33 30
0.03872718 -0.17427231 1.9363589 63 35 33
0.040663537 -0.17427231 1.9363589 69 37 38
0.04276722 -0.1749568 1.9439645 72 39 40
0.04471118 -0.1749568 1.9439645 77 42 44
0.04665515 -0.1749568 1.9439645 81 45 46
0.048408974 -0.17427231 1.9363589 83 45 45
0.05034533 -0.17427231 1.9363589 86 46 44
0.052281693 -0.17427231 1.9363589 96 53 45
0.054218046 -0.17427231 1.9363589 95 50 39
0.056154408 -0.17427231 1.9363589 99 49 42
0.05809077 -0.17427231 1.9363589 109 58 48
0.060027126 -0.17427231 1.9363589 108 57 41
0.061963487 -0.17427231 1.9363589 119 62 52
0.063899845 -0.17427231 1.9363589 103 54 37
0.06557964 -0.17359313 1.9288127 100 54 35
0.067508444 -0.17359313 1.9288127 141 82 70
0.06943726 -0.17359313 1.9288127 157 89 77
0.07136607 -0.17359313 1.9288127 169 98 84
0.073294885 -0.17359313 1.9288127 191 110 94
0.07493168 -0.17291924 1.9213251 207 118 101
0.07685301 -0.17291924 1.9213251 189 108 94
0.07877433 -0.17291924 1.9213251 161 92 81
0.080383606 -0.17225058 1.9138954 145 80 69
0.082297504 -0.17225058 1.9138954 147 78 68
0.08388701 -0.17158705 1.9065229 155 81 72
0.08513762 -0.17027524 1.891947 170 92 82
0.085977845 -0.16821752 1.8690836 205 114 100
0.08718841 -0.16695653 1.8550725 233 138 121
0.08740545 -0.1638852 1.8209468 225 148 132
0.08557422 -0.15717714 1.7464126 245 189 167
0.08504009 -0.15307218 1.7008018 146 134 119
0.084476575 -0.14907631 1.6564034 112 117 102
0.085503444 -0.14798672 1.6442969 110 115 104
0.08685916 -0.14749669 1.6388521 125 132 120
0.08849802 -0.14749669 1.6388521 126 135 126
0.09013686 -0.14749669 1.6388521 125 132 123
0.09141249 -0.14691293 1.632366 115 121 113
0.09304486 -0.14691293 1.632366 119 127 118
0.094677225 -0.14691293 1.632366 118 123 116
0.096309595 -0.14691293 1.632366 105 112 103
0.09794196 -0.14691293 1.632366 114 120 112
0.099181786 -0.14633378 1.6259309 123 132 122
0.10047763 -0.1458546 1.6206069 113 120 111
0.102098234 -0.1458546 1.6206069 125 134 125
0.103312895 -0.14528377 1.614264 144 154 142
0.10492716 -0.14528377 1.614264 143 154 143
0.106541425 -0.14528377 1.614264 149 162 151
0.10815568 -0.14528377 1.614264 177 193 181
0.109342 -0.14471735 1.6079706 162 176 168
0.11094997 -0.14471735 1.6079706 163 174 166
0.11255795 -0.14471735 1.6079706 190 203 194
0.11416591 -0.14471735 1.6079706 172 188 177
0.11577388 -0.14471735 1.6079706 164 177 168
0.11738185 -0.14471735 1.6079706 193 206 198
0.118989825 -0.14471735 1.6079706 180 192 185
0.120597795 -0.14471735 1.6079706 167 182 174
0.122205764 -0.14471735 1.6079706 191 205 196
0.12381373 -0.14471735 1.6079706 171 186 177
0.1254217 -0.14471735 1.6079706 156 170 162
0.12702967 -0.14471735 1.6079706 188 201 193
0.1291411 -0.14528377 1.614264 179 191 182
0.13075538 -0.14528377 1.614264 170 181 173
0.13288978 -0.1458546 1.6206069 193 200 193
0.13346156 -0.14471735 1.6079706 171 179 170
0.13559817 -0.14528377 1.614264 173 182 173
0.1366775 -0.14471735 1.6079706 188 197 187
0.13882671 -0.14528377 1.614264 150 154 148
0.13989344 -0.14471735 1.6079706 164 168 164
0.14205524 -0.14528377 1.614264 133 133 125
0.144234 -0.1458546 1.6206069 143 145 135
0.1458546 -0.1458546 1.6206069 133 133 124
0.14747523 -0.1458546 1.6206069 141 145 138
0.14793329 -0.14471735 1.6079706 171 173 163
0.15404552 -0.14907631 1.6564034 185 187 170
0.16979466 -0.16256934 1.8063262 202 194 171
0.19805673 -0.1876327 2.0848076 219 199 175
0.207483 -0.1945153 2.161281 225 201 174
0.21664502 -0.20101084 2.2334538 225 200 177
0.22147703 -0.20339727 2.2599697 224 202 177
0.223737 -0.20339727 2.2599697 226 202 179
0.22682555 -0.20414299 2.2682555 230 205 180
0.23014855 -0.20508288 2.2786987 226 203 176
0.23242725 -0.20508288 2.2786987 227 205 179
0.23470597 -0.20508288 2.2786987 227 205 180
0.23698467 -0.20508288 2.2786987 228 203 178
0.23926337 -0.20508288 2.2786987 228 203 180
0.24154206 -0.20508288 2.2786987 228 203 180
0.24382076 -0.20508288 2.2786987 223 200 179
0.24609946 -0.20508288 2.2786987 220 199 178
0.24837816 -0.20508288 2.2786987 224 202 180
0.25065687 -0.20508288 2.2786987 226 201 180
0.25293556 -0.20508288 2.2786987 226 201 181
0.25521424 -0.20508288 2.2786987 224 199 180
0.25749296 -0.20508288 2.2786987 221 197 178
0.25977165 -0.20508288 2.2786987 218 197 178
0.26205036 -0.20508288 2.2786987 219 198 178
0.26432905 -0.20508288 2.2786987 222 200 181
0.26660776 -0.20508288 2.2786987 224 202 181
0.26888645 -0.20508288 2.2786987 225 203 184
0.27116513 -0.20508288 2.2786987 226 203 185
0.27344385 -0.20508288 2.2786987 226 201 184
0.27572253 -0.20508288 2.2786987 226 201 184
0.27800125 -0.20508288 2.2786987 225 203 185
0.27899542 -0.20414299 2.2682555 218 197 180
0.28126368 -0.20414299 2.2682555 221 198 181
0.28353193 -0.20414299 2.2682555 225 201 184
0.2858002 -0.20414299 2.2682555 221 197 180
0.28806844 -0.20414299 2.2682555 220 199 180
0.29167342 -0.20508288 2.2786987 218 196 178
0.2939521 -0.20508288 2.2786987 218 197 178
0.29623082 -0.20508288 2.2786987 224 200 183
0.2985095 -0.20508288 2.2786987 225 203 185
0.30078822 -0.20508288 2.2786987 225 203 188
0.30306694 -0.20508288 2.2786987 225 203 186
0.30534562 -0.20508288 2.2786987 225 203 188
0.30762434 -0.20508288 2.2786987 225 203 187
0.30990303 -0.20508288 2.2786987 228 203 186
0.31218174 -0.20508288 2.2786987 225 203 184
0.31301925 -0.20414299 2.2682555 224 202 184
0.3152875 -0.20414299 2.2682555 224 200 181
0.31901783 -0.20508288 2.2786987 220 199 182
0.3212965 -0.20508288 2.2786987 218 197 178
0.32357523 -0.20508288 2.2786987 220 197 180
0.3258539 -0.20508288 2.2786987 224 201 182
-0.32278264 -0.20398068 2.241546 208 186 164
-0.32054108 -0.20398068 2.241546 203 182 161
-0.31829953 -0.20398068 2.241546 205 184 162
-0.31605798 -0.20398068 2.241546 214 193 169
-0.31381643 -0.20398068 2.241546 209 189 164
-0.31157488 -0.20398068 2.241546 208 186 162
-0.30933335 -0.20398068 2.241546 195 174 154
-0.3070918 -0.20398068 2.241546 196 175 157
-0.30485025 -0.20398068 2.241546 204 182 164
-0.3026087 -0.20398068 2.241546 208 186 167
-0.30036715 -0.20398068 2.241546 204 186 164
-0.29812562 -0.20398068 2.241546 206 185 161
-0.29588407 -0.20398068 2.241546 207 186 161
-0.29364252 -0.20398068 2.241546 207 187 162
-0.29140097 -0.20398068 2.241546 209 190 165
-0.28915942 -0.20398068 2.241546 207 185 161
-0.28691787 -0.20398068 2.241546 209 188 164
-0.28467634 -0.20398068 2.241546 204 178 156
-0.2824348 -0.20398068 2.241546 201 176 154
-0.28019324 -0.20398068 2.241546 204 180 159
-0.2779517 -0.20398068 2.241546 193 171 146
-0.27571014 -0.20398068 2.241546 202 175 134
-0.27346858 -0.20398068 2.241546 207 172 113
-0.27122706 -0.20398068 2.241546 212 172 104
-0.2689855 -0.20398068 2.241546 210 173 108
-0.26674396 -0.20398068 2.241546 208 173 105
-0.2645024 -0.20398068 2.241546 209 172 103
-0.26226085 -0.20398068 2.241546 209 172 102
-0.26001933 -0.20398068 2.241546 212 178 110
-0.25777778 -0.20398068 2.241546 209 178 119
-0.25553623 -0.20398068 2.241546 214 182 130
-0.2532947 -0.20398068 2.241546 213 179 129
-0.25105315 -0.20398068 2.241546 210 174 117
-0.2488116 -0.20398068 2.241546 208 173 114
-0.24657005 -0.20398068 2.241546 213 178 118
-0.24432851 -0.20398068 2.241546 217 183 122
-0.24208696 -0.20398068 2.241546 215 181 122
-0.23984541 -0.20398068 2.241546 212 178 121
-0.23674609 -0.2032443 2.2334538 213 178 122
-0.23451266 -0.2032443 2.2334538 213 179 123
-0.2322792 -0.2032443 2.2334538 214 178 122
-0.23004574 -0.2032443 2.2334538 208 173 118
-0.22781229 -0.2032443 2.2334538 217 184 142
-0.22557883 -0.2032443 2.2334538 210 187 156
-0.22334537 -0.2032443 2.2334538 215 191 166
-0.22111192 -0.2032443 2.2334538 213 193 167
-0.21887846 -0.2032443 2.2334538 213 193 165
-0.21567175 -0.20233124 2.2234201 206 183 155
-0.21441156 -0.2032443 2.2334538 211 187 158
-0.21046852 -0.20160669 2.2154582 216 193 167
-0.20825307 -0.20160669 2.2154582 217 193 169
-0.20603761 -0.20160669 2.2154582 217 195 169
-0.20382215 -0.20160669 2.2154582 219 195 171
-0.20070826 -0.20070826 2.2055852 219 196 172
-0.19850267 -0.20070826 2.2055852 219 195 171
-0.1962971 -0.20070826 2.2055852 222 199 174
-0.1932304 -0.1998178 2.1958 221 198 173
-0.1910346 -0.1998178 2.1958 220 196 172
-0.18817094 -0.19911112 2.1880343 218 194 168
-0.18598291 -0.19911112 2.1880343 218 194 168
-0.18379487 -0.19911112 2.1880343 218 194 169
-0.18160684 -0.19911112 2.1880343 222 198 172
-0.17862912 -0.19823475 2.1784039 222 200 173
-0.17645071 -0.19823475 2.1784039 221 199 173
-0.17427231 -0.19823475 2.1784039 218 197 170
-0.1720939 -0.19823475 2.1784039 219 197 171
-0.1693193 -0.1975392 2.1707604 218 195 169
-0.16583928 -0.19599187 2.1537569 212 196 169
-0.16033646 -0.19198182 2.1096904 214 193 167
-0.15101708 -0.18323407 2.0135612 198 180 161
-0.14273214 -0.17552195 1.9288127 154 149 134
-0.13342 -0.16631807 1.8276712 148 151 136
-0.123390585 -0.15595198 1.7137581 145 150 137
-0.11721237 -0.15022993 1.6508784 145 149 139
-0.113815166 -0.14795972 1.6259309 141 149 138
-0.11218923 -0.14795972 1.6259309 141 147 136
-0.11020127 -0.14747523 1.6206069 142 149 139
-0.10893737 -0.14795972 1.6259309 145 152 143
-0.10696005 -0.14747523 1.6206069 147 155 147
-0.105339445 -0.14747523 1.6206069 151 159 148
-0.10371884 -0.14747523 1.6206069 150 160 148
-0.102098234 -0.14747523 1.6206069 152 162 152
-0.100084364 -0.14689803 1.614264 152 166 157
-0.09847011 -0.14689803 1.614264 152 165 158
-0.09685584 -0.14689803 1.614264 153 166 158
-0.09524158 -0.14689803 1.614264 154 168 161
-0.09326229 -0.14632532 1.6079706 157 170 160
-0.09165433 -0.14632532 1.6079706 156 168 157
-0.09004635 -0.14632532 1.6079706 156 170 157
-0.088151984 -0.14585148 1.6027634 157 170 158
-0.08654922 -0.14585148 1.6027634 157 169 158
-0.08494646 -0.14585148 1.6027634 155 169 160
-0.0833437 -0.14585148 1.6027634 155 170 161
-0.08174094 -0.14585148 1.6027634 158 169 161
-0.08013817 -0.14585148 1.6027634 158 170 163
-0.07853541 -0.14585148 1.6027634 162 174 168
-0.07693265 -0.14585148 1.6027634 162 173 169
-0.07532988 -0.14585148 1.6027634 162 173 167
-0.073727116 -0.14585148 1.6027634 163 172 162
-0.072124355 -0.14585148 1.6027634 160 170 159
-0.07052159 -0.14585148 1.6027634 155 165 156
-0.068918824 -0.14585148 1.6027634 155 165 155
-0.06731606 -0.14585148 1.6027634 157 164 155
-0.0657133 -0.14585148 1.6027634 156 164 155
-0.06411053 -0.14585148 1.6027634 156 163 155
-0.06250777 -0.14585148 1.6027634 159 166 158
-0.06090501 -0.14585148 1.6027634 159 166 157
-0.059302244 -0.14585148 1.6027634 156 161 152
-0.057699483 -0.14585148 1.6027634 140 148 140
-0.056278974 -0.14632532 1.6079706 131 137 128
-0.054671 -0.14632532 1.6079706 134 140 132
-0.053270712 -0.14689803 1.614264 136 141 132
-0.05128843 -0.14585148 1.6027634 145 149 140
-0.049685664 -0.14585148 1.6027634 149 156 143
-0.04842792 -0.14689803 1.614264 128 124 112
-0.046813656 -0.14689803 1.614264 97 92 84
-0.04945801 -0.16073853 1.7663574 63 54 48
-0.049165566 -0.16570616 1.8209468 46 31 27
-0.047344618 -0.16570616 1.8209468 48 28 30
-0.046031747 -0.16755556 1.8412699 47 28 28
-0.044190474 -0.16755556 1.8412699 46 28 29
-0.042349204 -0.16755556 1.8412699 46 30 29
-0.04050794 -0.16755556 1.8412699 50 37 33
-0.038811054 -0.16818124 1.8481455 51 41 35
-0.036825396 -0.16755556 1.8412699 52 45 39
-0.034984127 -0.16755556 1.8412699 56 51 44
-0.032898083 -0.16631807 1.8276712 57 49 46
-0.030956097 -0.16570616 1.8209468 59 50 49
-0.029460318 -0.16755556 1.8412699 59 52 50
-0.02751668 -0.16693452 1.8344454 60 53 54
-0.025682235 -0.16693452 1.8344454 66 60 56
-0.02384779 -0.16693452 1.8344454 68 60 56
-0.022013344 -0.16693452 1.8344454 70 64 57
-0.0201789 -0.16693452 1.8344454 70 63 55
-0.018276712 -0.16631807 1.8276712 68 64 58
-0.016510008 -0.16693452 1.8344454 68 65 61
-0.014675563 -0.16693452 1.8344454 68 65 61
-0.012793698 -0.16631807 1.8276712 69 66 62
-0.011006672 -0.16693452 1.8344454 69 66 63
-0.009172227 -0.16693452 1.8344454 69 67 63
-0.007310685 -0.16631807 1.8276712 68 66 61
-0.005503336 -0.16693452 1.8344454 67 64 58
-0.0036688908 -0.16693452 1.8344454 66 63 58
-0.0018412699 -0.16755556 1.8412699 69 64 57
0.0 -0.16755556 1.8412699 69 63 58
0.0018412699 -0.16755556 1.8412699 69 64 59
0.003696291 -0.16818124 1.8481455 66 65 58
0.0055444366 -0.16818124 1.8481455 67 64 58
0.007392582 -0.16818124 1.8481455 67 64 58
0.009275362 -0.1688116 1.8550725 66 62 58
0.0111723095 -0.1694467 1.8620517 67 64 60
0.013034361 -0.1694467 1.8620517 71 68 64
0.014952669 -0.1700866 1.8690836 71 69 64
0.016821753 -0.1700866 1.8690836 72 69 64
0.018847423 -0.17151155 1.8847424 67 62 54
0.020732166 -0.17151155 1.8847424 65 57 46
0.022703364 -0.17216718 1.891947 66 53 49
0.024689691 -0.17282784 1.899207 59 42 39
0.026691321 -0.17349358 1.9065229 47 28 29
0.028708432 -0.17416447 1.9138954 51 28 29
0.030741202 -0.17484057 1.9213251 56 33 32
0.032918103 -0.17620866 1.9363589 58 33 31
0.03485446 -0.17620866 1.9363589 60 34 33
0.03679082 -0.17620866 1.9363589 61 34 33
0.03872718 -0.17620866 1.9363589 65 35 34
0.040823255 -0.17690077 1.9439645 69 40 39
0.042599894 -0.17620866 1.9363589 69 38 38
0.044536255 -0.17620866 1.9363589 72 39 40
0.046472613 -0.17620866 1.9363589 76 42 43
0.048408974 -0.17620866 1.9363589 79 40 40
0.05034533 -0.17620866 1.9363589 88 46 44
0.052281693 -0.17620866 1.9363589 95 50 43
0.054218046 -0.17620866 1.9363589 96 49 38
0.056154408 -0.17620866 1.9363589 97 48 41
0.05809077 -0.17620866 1.9363589 105 55 43
0.060027126 -0.17620866 1.9363589 109 59 42
0.061963487 -0.17620866 1.9363589 116 60 49
0.063899845 -0.17620866 1.9363589 124 68 56
0.06557964 -0.17552195 1.9288127 129 73 61
0.067508444 -0.17552195 1.9288127 158 87 77
0.06943726 -0.17552195 1.9288127 166 93 81
0.07136607 -0.17552195 1.9288127 187 108 92
0.073010355 -0.17484057 1.9213251 207 122 102
0.07493168 -0.17484057 1.9213251 219 131 110
0.07685301 -0.17484057 1.9213251 215 127 108
0.07846971 -0.17416447 1.9138954 201 117 101
0.080383606 -0.17416447 1.9138954 170 95 85
0.08198048 -0.17349358 1.9065229 142 76 66
0.08388701 -0.17349358 1.9065229 146 73 63
0.08513762 -0.17216718 1.891947 148 74 64
0.086369246 -0.1708609 1.8775923 156 80 71
0.087516434 -0.1694467 1.8620517 170 93 83
0.08838095 -0.16755556 1.8412699 203 120 105
0.087173745 -0.16189408 1.779056 230 161 135
0.08598564 -0.15649387 1.7197129 205 170 146
0.08481721 -0.1513405 1.6630825 117 117 104
0.08522031 -0.14913554 1.6388521 112 117 105
0.08685916 -0.14913554 1.6388521 127 135 123
0.08814776 -0.14854531 1.632366 121 128 120
0.09013686 -0.14913554 1.6388521 125 133 123
0.09141249 -0.14854531 1.632366 109 114 107
0.093414575 -0.14913554 1.6388521 112 119 111
0.094677225 -0.14854531 1.632366 116 123 116
0.096309595 -0.14854531 1.632366 111 119 109
0.09755585 -0.14795972 1.6259309 107 114 105
0.099181786 -0.14795972 1.6259309 126 135 124
0.10047763 -0.14747523 1.6206069 124 133 122
0.102098234 -0.14747523 1.6206069 126 134 125
0.10371884 -0.14747523 1.6206069 157 167 157
0.10492716 -0.14689803 1.614264 152 164 154
0.106541425 -0.14689803 1.614264 148 159 150
0.10773403 -0.14632532 1.6079706 182 197 188
0.109342 -0.14632532 1.6079706 172 186 177
0.11094997 -0.14632532 1.6079706 168 181 173
0.11255795 -0.14632532 1.6079706 189 205 196
0.11416591 -0.14632532 1.6079706 173 189 180
0.11577388 -0.14632532 1.6079706 166 180 172
0.11738185 -0.14632532 1.6079706 193 206 198
0.118989825 -0.14632532 1.6079706 177 190 182
0.120597795 -0.14632532 1.6079706 172 187 178
0.122205764 -0.14632532 1.6079706 192 205 197
0.12381373 -0.14632532 1.6079706 178 194 185
0.1254217 -0.14632532 1.6079706 161 176 168
0.12702967 -0.14632532 1.6079706 187 202 193
0.1291411 -0.14689803 1.614264 178 189 181
0.13075538 -0.14689803 1.614264 166 177 168
0.13236964 -0.14689803 1.614264 192 198 190
0.13346156 -0.14632532 1.6079706 167 176 167
0.13506953 -0.14632532 1.6079706 164 172 165
0.1366775 -0.14632532 1.6079706 179 188 180
0.13828547 -0.14632532 1.6079706 155 163 156
0.13989344 -0.14632532 1.6079706 174 183 185
0.14205524 -0.14689803 1.614264 151 157 144
0.144234 -0.14747523 1.6206069 158 162 148
0.14528377 -0.14689803 1.614264 150 151 140
0.14689803 -0.14689803 1.614264 135 137 132
0.14909583 -0.14747523 1.6206069 144 148 138
0.15241325 -0.14913554 1.6388521 152 153 139
0.1592188 -0.15413734 1.693817 192 185 167
0.18974441 -0.18175519 1.9973097 217 197 174
0.2058648 -0.19514269 2.1444252 222 196 172
0.21394177 -0.20070826 2.2055852 220 198 174
0.21887846 -0.2032443 2.2334538 229 201 178
0.22191304 -0.20398068 2.241546 229 203 178
0.22599699 -0.20565724 2.2599697 224 200 174
0.22825694 -0.20565724 2.2599697 226 202 175
0.23136206 -0.20641126 2.2682555 228 203 176
0.23363031 -0.20641126 2.2682555 226 203 176
0.23589857 -0.20641126 2.2682555 225 202 176
0.23816682 -0.20641126 2.2682555 223 200 176
0.24043508 -0.20641126 2.2682555 224 199 176
0.24181676 -0.20565724 2.2599697 224 201 178
0.24497159 -0.20641126 2.2682555 225 202 179
0.24723986 -0.20641126 2.2682555 225 201 180
0.2495081 -0.20641126 2.2682555 224 202 180
0.25177634 -0.20641126 2.2682555 223 200 179
0.25404462 -0.20641126 2.2682555 223 201 180
0.25631288 -0.20641126 2.2682555 224 203 181
0.2585811 -0.20641126 2.2682555 223 201 180
0.26084936 -0.20641126 2.2682555 220 200 178
0.26311764 -0.20641126 2.2682555 219 198 177
0.2653859 -0.20641126 2.2682555 220 199 178
0.26765415 -0.20641126 2.2682555 228 205 184
0.2699224 -0.20641126 2.2682555 229 204 187
0.27219063 -0.20641126 2.2682555 228 203 186
0.27445891 -0.20641126 2.2682555 227 202 185
0.27672717 -0.20641126 2.2682555 230 204 187
0.27899542 -0.20641126 2.2682555 220 198 180
0.28126368 -0.20641126 2.2682555 223 200 182
0.28353193 -0.20641126 2.2682555 225 203 184
0.2858002 -0.20641126 2.2682555 223 200 182
0.28806844 -0.20641126 2.2682555 223 201 181
0.2903367 -0.20641126 2.2682555 220 198 179
0.29260495 -0.20641126 2.2682555 218 195 178
0.2948732 -0.20641126 2.2682555 222 199 181
0.2971415 -0.20641126 2.2682555 223 201 184
0.29940972 -0.20641126 2.2682555 227 203 186
0.30167797 -0.20641126 2.2682555 222 201 184
0.30394623 -0.20641126 2.2682555 225 202 187
0.30621448 -0.20641126 2.2682555 225 203 186
0.30848277 -0.20641126 2.2682555 225 201 184
0.31075102 -0.20641126 2.2682555 226 201 184
0.31301925 -0.20641126 2.2682555 226 201 184
0.3152875 -0.20641126 2.2682555 223 202 182
0.31755576 -0.20641126 2.2682555 223 200 183
0.31982404 -0.20641126 2.2682555 220 198 181
0.3220923 -0.20641126 2.2682555 218 197 178
0.32436055 -0.20641126 2.2682555 218 196 178
-0.32278264 -0.20622224 2.241546 198 177 156
-0.32054108 -0.20622224 2.241546 200 178 157
-0.3171504 -0.20547776 2.2334538 201 182 159
-0.314917 -0.20547776 2.2334538 206 185 163
-0.31268352 -0.20547776 2.2334538 202 182 160
-0.31045008 -0.20547776 2.2334538 195 175 154
-0.3082166 -0.20547776 2.2334538 192 173 154
-0.30598316 -0.20547776 2.2334538 203 182 163
-0.30374968 -0.20547776 2.2334538 204 183 164
-0.30151626 -0.20547776 2.2334538 206 187 166
-0.29928282 -0.20547776 2.2334538 204 184 163
-0.29704934 -0.20547776 2.2334538 210 186 162
-0.2948159 -0.20547776 2.2334538 206 185 160
-0.29258242 -0.20547776 2.2334538 200 181 157
-0.290349 -0.20547776 2.2334538 203 184 159
-0.28811553 -0.20547776 2.2334538 205 183 159
-0.2858821 -0.20547776 2.2334538 205 183 160
-0.2836486 -0.20547776 2.2334538 203 180 156
-0.28141516 -0.20547776 2.2334538 204 180 157
-0.27918172 -0.20547776 2.2334538 205 181 155
-0.27694827 -0.20547776 2.2334538 200 174 140
-0.27471483 -0.20547776 2.2334538 208 176 122
-0.27248135 -0.20547776 2.2334538 202 167 97
-0.2702479 -0.20547776 2.2334538 199 162 78
-0.26801446 -0.20547776 2.2334538 207 167 78
-0.26578102 -0.20547776 2.2334538 211 170 80
-0.26354754 -0.20547776 2.2334538 209 168 80
-0.2613141 -0.20547776 2.2334538 213 171 84
-0.25908062 -0.20547776 2.2334538 216 172 87
-0.25569332 -0.20455466 2.2234201 209 169 84
-0.25346988 -0.20455466 2.2234201 208 169 83
-0.25124648 -0.20455466 2.2234201 210 169 84
-0.2501468 -0.20547776 2.2334538 214 173 90
-0.24791336 -0.20547776 2.2334538 216 174 92
-0.24567991 -0.20547776 2.2334538 215 173 90
-0.24344645 -0.20547776 2.2334538 214 172 89
-0.24121301 -0.20547776 2.2334538 208 168 86
-0.23897955 -0.20547776 2.2334538 210 168 85
-0.23674609 -0.20547776 2.2334538 211 168 84
-0.23451266 -0.20547776 2.2334538 207 165 83
-0.2322792 -0.20547776 2.2334538 213 172 89
-0.23004574 -0.20547776 2.2334538 213 177 105
-0.22781229 -0.20547776 2.2334538 210 179 126
-0.22557883 -0.20547776 2.2334538 215 185 148
-0.22234201 -0.20455466 2.2234201 218 193 164
-0.2201186 -0.20455466 2.2234201 218 194 167
-0.21789517 -0.20455466 2.2234201 217 196 168
-0.21567175 -0.20455466 2.2234201 216 193 165
-0.21344833 -0.20455466 2.2234201 218 194 163
-0.21046852 -0.20382215 2.2154582 216 193 167
-0.20825307 -0.20382215 2.2154582 214 191 167
-0.20603761 -0.20382215 2.2154582 215 191 167
-0.20291385 -0.20291385 2.2055852 219 195 171
-0.20070826 -0.20291385 2.2055852 219 197 171
-0.19850267 -0.20291385 2.2055852 218 197 171
-0.19473505 -0.20129915 2.1880343 223 198 173
-0.1932304 -0.20201361 2.1958 218 197 171
-0.19035898 -0.20129915 2.1880343 220 197 172
-0.18817094 -0.20129915 2.1880343 217 192 167
-0.18516432 -0.20041315 2.1784039 216 192 167
-0.18379487 -0.20129915 2.1880343 218 192 168
-0.18160684 -0.20129915 2.1880343 221 197 171
-0.17800234 -0.19970997 2.1707604 220 199 173
-0.17583159 -0.19970997 2.1707604 220 199 173
-0.17366083 -0.19970997 2.1707604 218 197 171
-0.17149007 -0.19970997 2.1707604 220 197 172
-0.1693193 -0.19970997 2.1707604 219 195 169
-0.16641864 -0.19883786 2.161281 217 196 169
-0.16102283 -0.19492237 2.1187215 215 195 169
-0.15338843 -0.18815649 2.0451791 210 187 166
-0.14487764 -0.18011814 1.957806 161 154 137
-0.1344127 -0.16939682 1.8412699 151 152 134
-0.1257417 -0.16066997 1.7464126 145 151 138
-0.11847696 -0.15351944 1.6686896 144 148 137
-0.11344248 -0.14909583 1.6206069 141 150 139
-0.11218923 -0.14958565 1.6259309 141 149 137
-0.11020127 -0.14909583 1.6206069 142 149 137
-0.10893737 -0.14958565 1.6259309 144 150 139
-0.10696005 -0.14909583 1.6206069 145 154 145
-0.105339445 -0.14909583 1.6206069 148 157 146
-0.10371884 -0.14909583 1.6206069 150 161 149
-0.10169863 -0.14851229 1.614264 156 165 154
-0.100084364 -0.14851229 1.614264 160 169 159
-0.09847011 -0.14851229 1.614264 158 169 159
-0.09685584 -0.14851229 1.614264 158 169 158
-0.09487026 -0.14793329 1.6079706 159 170 160
-0.09326229 -0.14793329 1.6079706 158 171 159
-0.09165433 -0.14793329 1.6079706 159 172 160
-0.09004635 -0.14793329 1.6079706 159 172 160
-0.088151984 -0.14745423 1.6027634 161 174 161
-0.08654922 -0.14745423 1.6027634 159 170 161
-0.08494646 -0.14745423 1.6027634 160 171 162
-0.0833437 -0.14745423 1.6027634 157 170 162
-0.08174094 -0.14745423 1.6027634 157 169 161
-0.08013817 -0.14745423 1.6027634 159 171 164
-0.07853541 -0.14745423 1.6027634 163 176 170
-0.07693265 -0.14745423 1.6027634 162 173 169
-0.07532988 -0.14745423 1.6027634 163 174 170
-0.073727116 -0.14745423 1.6027634 166 174 169
-0.072124355 -0.14745423 1.6027634 164 175 168
-0.07052159 -0.14745423 1.6027634 158 171 161
-0.068918824 -0.14745423 1.6027634 160 170 161
-0.06731606 -0.14745423 1.6027634 159 169 160
-0.0657133 -0.14745423 1.6027634 157 166 158
-0.06411053 -0.14745423 1.6027634 160 166 159
-0.06250777 -0.14745423 1.6027634 157 164 156
-0.06090501 -0.14745423 1.6027634 159 166 158
-0.059302244 -0.14745423 1.6027634 159 164 157
-0.057699483 -0.14745423 1.6027634 152 161 151
-0.056278974 -0.14793329 1.6079706 145 152 144
-0.054671 -0.14793329 1.6079706 135 141 132
-0.05306303 -0.14793329 1.6079706 133 140 131
-0.05145506 -0.14793329 1.6079706 140 142 134
-0.04984709 -0.14793329 1.6079706 146 152 140
-0.048618205 -0.14909583 1.6206069 132 129 117
-0.046631146 -0.14793329 1.6079706 98 90 83
-0.049635146 -0.16308692 1.7726839 63 50 47
-0.049530026 -0.16876897 1.8344454 48 29 31
-0.047519453 -0.16814575 1.8276712 48 29 32
-0.046031747 -0.16939682 1.8412699 47 28 31
-0.04452174 -0.17066666 1.8550725 45 27 30
-0.04282719 -0.17130876 1.8620517 44 27 29
-0.040965136 -0.17130876 1.8620517 39 25 25
-0.038811054 -0.17002939 1.8481455 39 29 28
-0.037101448 -0.17066666 1.8550725 47 37 35
-0.035246376 -0.17066666 1.8550725 45 39 35
-0.033391304 -0.17066666 1.8550725 48 38 37
-0.031418473 -0.17002939 1.8481455 50 40 40
-0.02968116 -0.17066666 1.8550725 49 41 41
-0.027722184 -0.17002939 1.8481455 45 41 47
-0.025874037 -0.17002939 1.8481455 50 41 43
-0.024025891 -0.17002939 1.8481455 51 45 43
-0.022095237 -0.16939682 1.8412699 45 46 42
-0.020329602 -0.17002939 1.8481455 46 47 45
-0.018412698 -0.16939682 1.8412699 51 48 46
-0.016571429 -0.16939682 1.8412699 53 49 46
-0.014730159 -0.16939682 1.8412699 53 50 47
-0.01288889 -0.16939682 1.8412699 55 50 47
-0.011047618 -0.16939682 1.8412699 57 52 49
-0.009206349 -0.16939682 1.8412699 59 55 53
-0.0073650796 -0.16939682 1.8412699 58 54 52
-0.005523809 -0.16939682 1.8412699 57 53 49
-0.0036825398 -0.16939682 1.8412699 57 53 48
-0.0018481455 -0.17002939 1.8481455 61 52 48
0.0 -0.17002939 1.8481455 63 53 49
