ply
format ascii 1.0
element vertex 1085
property float32 x
property float32 y
property float32 z
property uchar red
property uchar green
property uchar blue
element face 0
property list uint8 int32 vertex_indices
end_header
0.032662526 -0.22863768 1.9213251 124 70 60
0.03458385 -0.22863768 1.9213251 125 72 62
0.036364015 -0.22775355 1.9138954 128 75 66
0.03827791 -0.22775355 1.9138954 131 78 68
0.04003698 -0.22687621 1.9065229 131 75 63
0.041782554 -0.22600563 1.899207 120 67 57
0.043681763 -0.22600563 1.899207 92 56 48
0.04540673 -0.22514169 1.891947 70 52 49
0.04693981 -0.22343348 1.8775923 65 55 56
0.048596177 -0.22242096 1.8690836 71 59 61
0.050275397 -0.22158416 1.8620517 65 54 57
0.051748075 -0.21992931 1.8481455 62 51 51
0.053596217 -0.21992931 1.8481455 67 56 58
0.055238094 -0.21911111 1.8412699 64 55 58
0.05729251 -0.21992931 1.8481455 65 57 59
0.059140656 -0.21992931 1.8481455 70 61 63
0.0609888 -0.21992931 1.8481455 75 65 67
0.062836945 -0.21992931 1.8481455 74 63 64
0.064444445 -0.21911111 1.8412699 74 63 64
0.06604003 -0.218299 1.8344454 68 59 60
0.067874484 -0.218299 1.8344454 73 66 65
0.06970892 -0.218299 1.8344454 78 70 67
0.071279176 -0.21749288 1.8276712 76 69 68
0.07310685 -0.21749288 1.8276712 104 95 91
0.07493452 -0.21749288 1.8276712 107 99 93
0.07647977 -0.21669267 1.8209468 86 79 75
0.078300714 -0.21669267 1.8209468 73 65 63
0.08012166 -0.21669267 1.8209468 75 67 65
0.0819426 -0.21669267 1.8209468 73 65 63
0.08376355 -0.21669267 1.8209468 76 67 69
0.085208304 -0.21574017 1.8129426 83 74 72
0.08670366 -0.21495281 1.8063262 105 96 92
0.08850998 -0.21495281 1.8063262 79 70 67
0.089987874 -0.21417116 1.7997576 70 60 58
0.09212264 -0.21495281 1.8063262 66 58 57
0.09358739 -0.21417116 1.7997576 63 54 55
0.09504155 -0.21339518 1.7932367 58 49 50
0.09641559 -0.2124714 1.7854738 57 48 47
0.09820106 -0.2124714 1.7854738 56 47 47
0.09962714 -0.21170765 1.779056 60 48 46
0.10104298 -0.21094939 1.7726839 137 105 90
0.10201185 -0.20930018 1.758825 178 127 99
0.10303835 -0.2078231 1.7464126 191 131 104
0.10478476 -0.2078231 1.7464126 196 133 106
0.10653117 -0.2078231 1.7464126 194 129 105
0.10827758 -0.2078231 1.7464126 195 127 104
0.10956008 -0.20694682 1.739049 193 128 102
0.11177041 -0.2078231 1.7464126 195 129 104
0.11351682 -0.2078231 1.7464126 196 130 106
0.11526324 -0.2078231 1.7464126 195 130 107
0.116516285 -0.20694682 1.739049 193 130 106
0.118255325 -0.20694682 1.739049 194 130 106
0.11999438 -0.20694682 1.739049 196 131 109
0.12173343 -0.20694682 1.739049 199 133 111
0.123472475 -0.20694682 1.739049 201 136 114
0.12521152 -0.20694682 1.739049 201 137 115
0.12695058 -0.20694682 1.739049 204 138 118
0.12868962 -0.20694682 1.739049 207 140 119
0.13042867 -0.20694682 1.739049 211 146 122
0.13216773 -0.20694682 1.739049 218 150 125
0.13390677 -0.20694682 1.739049 221 154 129
0.1356458 -0.20694682 1.739049 222 155 130
0.13738488 -0.20694682 1.739049 223 153 129
0.13971302 -0.2078231 1.7464126 220 150 126
0.14086296 -0.20694682 1.739049 218 148 122
0.14260203 -0.20694682 1.739049 215 146 121
0.14495225 -0.2078231 1.7464126 214 144 121
0.14669865 -0.2078231 1.7464126 213 143 119
0.14897074 -0.20855902 1.7525969 211 141 118
0.15190674 -0.21019654 1.7663574 205 139 117
0.15772602 -0.21574017 1.8129426 200 142 121
0.17039958 -0.23042671 1.9363589 219 180 154
0.17776056 -0.23767985 1.9973097 217 190 169
0.18181226 -0.2403962 2.020136 215 189 167
0.1845858 -0.24138144 2.0284154 211 185 164
0.18661423 -0.24138144 2.0284154 210 187 164
0.18864264 -0.24138144 2.0284154 211 186 164
0.19067106 -0.24138144 2.0284154 208 183 162
0.19349246 -0.24237476 2.0367627 214 189 167
0.19552922 -0.24237476 2.0367627 222 195 174
0.19756597 -0.24237476 2.0367627 221 195 173
0.19960275 -0.24237476 2.0367627 216 191 170
0.20163952 -0.24237476 2.0367627 217 191 169
0.20367627 -0.24237476 2.0367627 210 186 165
0.20571303 -0.24237476 2.0367627 215 190 169
0.20689838 -0.24138144 2.0284154 214 187 166
0.20892678 -0.24138144 2.0284154 216 189 168
0.2109552 -0.24138144 2.0284154 208 183 162
0.21298362 -0.24138144 2.0284154 200 173 155
0.21501204 -0.24138144 2.0284154 193 167 149
0.21704045 -0.24138144 2.0284154 185 159 143
0.21906887 -0.24138144 2.0284154 212 186 165
0.22109729 -0.24138144 2.0284154 206 184 163
0.2231257 -0.24138144 2.0284154 204 178 159
0.22515412 -0.24138144 2.0284154 208 183 162
0.22625525 -0.2403962 2.020136 215 188 167
0.22827537 -0.2403962 2.020136 218 189 168
0.23029552 -0.2403962 2.020136 213 188 168
0.23231566 -0.2403962 2.020136 215 188 167
0.23433578 -0.2403962 2.020136 209 183 163
0.23635593 -0.2403962 2.020136 214 187 167
0.23837607 -0.2403962 2.020136 210 183 163
0.2403962 -0.2403962 2.020136 208 180 160
0.24241634 -0.2403962 2.020136 202 175 155
0.24443647 -0.2403962 2.020136 209 180 160
0.24565448 -0.23961379 2.0135612 210 178 159
0.24847674 -0.2403962 2.020136 212 182 162
0.25049686 -0.2403962 2.020136 218 188 167
0.25169516 -0.23961379 2.0135612 221 188 169
0.25370872 -0.23961379 2.0135612 211 180 160
0.25468612 -0.2386429 2.0054026 206 175 149
0.25669152 -0.2386429 2.0054026 203 171 144
0.25869694 -0.2386429 2.0054026 219 179 152
0.25965026 -0.23767985 1.9973097 209 130 80
0.26164758 -0.23767985 1.9973097 214 98 0
0.2625852 -0.23672456 1.9892819 219 92 0
0.2645745 -0.23672456 1.9892819 216 93 0
0.26549667 -0.2357769 1.9813185 217 93 0
0.267478 -0.2357769 1.9813185 218 94 0
0.2683849 -0.23483679 1.9734185 218 94 0
0.27035832 -0.23483679 1.9734185 218 95 0
0.27233174 -0.23483679 1.9734185 219 96 0
0.2732158 -0.23390415 1.9655812 218 96 0
0.2762786 -0.23483679 1.9734185 220 95 0
0.27714694 -0.23390415 1.9655812 216 96 0
0.27911252 -0.23390415 1.9655812 216 95 0
0.2810781 -0.23390415 1.9655812 216 95 0
-0.2908996 -0.24241634 2.020136 150 133 113
-0.28887945 -0.24241634 2.020136 152 136 114
-0.2868593 -0.24241634 2.020136 153 135 115
-0.2848392 -0.24241634 2.020136 151 132 114
-0.28281906 -0.24241634 2.020136 159 135 115
-0.27988502 -0.24162735 2.0135612 159 134 114
-0.27674556 -0.24064831 2.0054026 164 132 109
-0.27585787 -0.24162735 2.0135612 156 112 90
-0.27384433 -0.24162735 2.0135612 138 90 69
-0.27183077 -0.24162735 2.0135612 142 89 64
-0.2698172 -0.24162735 2.0135612 145 86 60
-0.26780364 -0.24162735 2.0135612 138 77 52
-0.2657901 -0.24162735 2.0135612 140 74 51
-0.2637765 -0.24162735 2.0135612 136 74 49
-0.26176298 -0.24162735 2.0135612 140 79 54
-0.25974938 -0.24162735 2.0135612 134 72 49
-0.25773585 -0.24162735 2.0135612 127 65 41
-0.25572228 -0.24162735 2.0135612 128 67 44
-0.25370872 -0.24162735 2.0135612 133 69 47
-0.25169516 -0.24162735 2.0135612 133 69 48
-0.24968159 -0.24162735 2.0135612 128 67 45
-0.24766803 -0.24162735 2.0135612 129 68 46
-0.24565448 -0.24162735 2.0135612 135 75 52
-0.24364091 -0.24162735 2.0135612 133 78 54
-0.24162735 -0.24162735 2.0135612 129 76 54
-0.23961379 -0.24162735 2.0135612 126 73 52
-0.2366375 -0.24064831 2.0054026 131 78 58
-0.23463209 -0.24064831 2.0054026 134 82 62
-0.23262669 -0.24064831 2.0054026 135 85 64
-0.2306213 -0.24064831 2.0054026 139 92 71
-0.2286159 -0.24064831 2.0054026 138 94 72
-0.22661048 -0.24064831 2.0054026 140 99 76
-0.22551885 -0.24162735 2.0135612 138 100 80
-0.22350529 -0.24162735 2.0135612 139 107 87
-0.22149172 -0.24162735 2.0135612 142 119 98
-0.21858889 -0.24064831 2.0054026 142 122 103
-0.21658348 -0.24064831 2.0054026 140 121 101
-0.21457808 -0.24064831 2.0054026 141 122 101
-0.21257268 -0.24064831 2.0054026 146 125 105
-0.21056728 -0.24064831 2.0054026 144 125 105
-0.20856185 -0.24064831 2.0054026 149 128 108
-0.2073968 -0.24162735 2.0135612 151 130 110
-0.20538324 -0.24162735 2.0135612 146 126 105
-0.20254566 -0.24064831 2.0054026 143 122 102
-0.20054026 -0.24064831 2.0054026 145 124 102
-0.19853485 -0.24064831 2.0054026 138 117 97
-0.19652945 -0.24064831 2.0054026 137 115 95
-0.19452405 -0.24064831 2.0054026 134 112 91
-0.19330189 -0.24162735 2.0135612 127 106 87
-0.19128832 -0.24162735 2.0135612 132 111 94
-0.18927474 -0.24162735 2.0135612 137 116 100
-0.1872612 -0.24162735 2.0135612 140 117 101
-0.18524763 -0.24162735 2.0135612 144 123 103
-0.18383238 -0.24241634 2.020136 142 119 101
-0.18181226 -0.24241634 2.020136 141 120 100
-0.18052898 -0.24340986 2.0284154 139 119 100
-0.17777197 -0.24241634 2.020136 144 122 105
-0.17575185 -0.24241634 2.020136 145 122 102
-0.17444372 -0.24340986 2.0284154 145 125 108
-0.17241532 -0.24340986 2.0284154 147 127 110
-0.17108807 -0.24441153 2.0367627 145 124 104
-0.16835847 -0.24340986 2.0284154 146 124 103
-0.16511203 -0.24162735 2.0135612 145 123 104
-0.15562734 -0.230559 1.9213251 153 126 103
-0.1462137 -0.21932054 1.8276712 171 130 105
-0.13894717 -0.21105899 1.758825 187 134 110
-0.13517086 -0.20795518 1.7329599 188 136 111
-0.13343792 -0.20795518 1.7329599 197 137 110
-0.13170496 -0.20795518 1.7329599 199 135 107
-0.12997198 -0.20795518 1.7329599 201 135 105
-0.12823904 -0.20795518 1.7329599 203 138 105
-0.12606467 -0.2072296 1.7269133 206 137 105
-0.12381933 -0.20636554 1.7197129 207 136 103
-0.12209961 -0.20636554 1.7197129 207 136 101
-0.120379895 -0.20636554 1.7197129 209 136 100
-0.11866019 -0.20636554 1.7197129 210 133 100
-0.116940476 -0.20636554 1.7197129 212 134 102
-0.11522076 -0.20636554 1.7197129 212 136 105
-0.11350104 -0.20636554 1.7197129 215 138 106
-0.11139428 -0.20565097 1.7137581 217 142 112
-0.10968052 -0.20565097 1.7137581 219 145 117
-0.10796676 -0.20565097 1.7137581 221 149 120
-0.106253006 -0.20565097 1.7137581 222 150 122
-0.104539245 -0.20565097 1.7137581 222 152 123
-0.102825485 -0.20565097 1.7137581 223 151 123
-0.101111725 -0.20565097 1.7137581 221 153 124
-0.09939797 -0.20565097 1.7137581 221 153 122
-0.09768421 -0.20565097 1.7137581 220 151 122
-0.09597045 -0.20565097 1.7137581 218 148 122
-0.094584204 -0.20636554 1.7197129 217 146 120
-0.09286449 -0.20636554 1.7197129 214 144 119
-0.091144785 -0.20636554 1.7197129 212 142 118
-0.08942507 -0.20636554 1.7197129 207 141 116
-0.08770535 -0.20636554 1.7197129 205 139 113
-0.08598564 -0.20636554 1.7197129 204 137 111
-0.08426593 -0.20636554 1.7197129 203 136 110
-0.08289184 -0.2072296 1.7269133 204 136 111
-0.08116493 -0.2072296 1.7269133 204 136 112
-0.07971615 -0.20795518 1.7329599 205 137 113
-0.07798319 -0.20795518 1.7329599 208 139 114
-0.07625024 -0.20795518 1.7329599 209 142 115
-0.07451727 -0.20795518 1.7329599 201 137 112
-0.07334933 -0.20956951 1.7464126 201 138 116
-0.07185647 -0.21031162 1.7525969 159 113 100
-0.070654295 -0.2119629 1.7663574 96 69 70
-0.069134675 -0.21272206 1.7726839 83 66 64
-0.067848004 -0.21425687 1.7854738 82 65 63
-0.06634976 -0.21518841 1.7932367 78 65 63
-0.06479128 -0.21597092 1.7997576 85 72 70
-0.06322142 -0.21675915 1.8063262 145 131 126
-0.06164005 -0.21755311 1.8129426 79 67 64
-0.060091242 -0.21851361 1.8209468 75 63 60
-0.05848548 -0.21932054 1.8276712 75 62 59
-0.056867804 -0.22013344 1.8344454 81 67 65
-0.055444367 -0.22177747 1.8481455 99 74 66
-0.053797103 -0.2226087 1.8550725 126 76 66
-0.052334342 -0.22429004 1.8690836 145 83 73
-0.05046526 -0.22429004 1.8690836 146 86 76
-0.049190626 -0.22703364 1.891947 128 78 66
-0.048033126 -0.230559 1.9213251 102 60 47
-0.046987344 -0.23493673 1.957806 68 44 29
-0.045388628 -0.2368102 1.9734185 59 41 32
-0.043589003 -0.2377582 1.9813185 58 40 35
-0.04177492 -0.23871382 1.9892819 58 41 35
-0.03978564 -0.23871382 1.9892819 60 41 37
-0.037796356 -0.23871382 1.9892819 60 41 36
-0.035663735 -0.2377582 1.9813185 63 44 36
-0.033682413 -0.2377582 1.9813185 64 45 37
-0.03182851 -0.23871382 1.9892819 65 45 38
-0.029839227 -0.23871382 1.9892819 67 45 39
-0.027849946 -0.23871382 1.9892819 63 45 38
-0.025860664 -0.23871382 1.9892819 62 43 38
-0.023871385 -0.23871382 1.9892819 62 45 41
-0.021882102 -0.23871382 1.9892819 60 44 39
-0.01989282 -0.23871382 1.9892819 63 46 41
-0.017903538 -0.23871382 1.9892819 64 45 40
-0.015914256 -0.23871382 1.9892819 64 46 40
-0.013924973 -0.23871382 1.9892819 63 44 38
-0.011935692 -0.23871382 1.9892819 65 44 38
-0.00994641 -0.23871382 1.9892819 62 42 43
-0.007957128 -0.23871382 1.9892819 59 40 38
-0.005967846 -0.23871382 1.9892819 58 40 37
-0.003978564 -0.23871382 1.9892819 57 40 35
-0.001989282 -0.23871382 1.9892819 54 39 36
0.0 -0.23967716 1.9973097 53 37 34
0.0019973097 -0.23967716 1.9973097 51 35 34
0.0039946195 -0.23967716 1.9973097 47 34 32
0.005991929 -0.23967716 1.9973097 45 34 32
0.007989239 -0.23967716 1.9973097 45 33 29
0.00994641 -0.23871382 1.9892819 41 29 26
0.011887911 -0.2377582 1.9813185 43 29 28
0.01386923 -0.2377582 1.9813185 46 30 27
0.015787348 -0.2368102 1.9734185 54 33 29
0.017760767 -0.2368102 1.9734185 71 40 38
0.01957806 -0.23493673 1.957806 84 44 43
0.02138361 -0.23327574 1.9439645 88 47 39
0.023327574 -0.23327574 1.9439645 66 31 24
0.025074566 -0.23145753 1.9288127 103 59 51
0.027003378 -0.23145753 1.9288127 119 67 61
0.028932191 -0.23145753 1.9288127 120 67 57
0.030741202 -0.230559 1.9213251 124 69 59
0.032662526 -0.230559 1.9213251 125 71 60
0.03458385 -0.230559 1.9213251 126 73 64
0.036505178 -0.230559 1.9213251 125 74 64
0.03827791 -0.22966745 1.9138954 131 76 68
0.04003698 -0.22878274 1.9065229 130 73 65
0.041782554 -0.22790484 1.899207 114 62 54
0.04351478 -0.22703364 1.891947 84 52 45
0.04523382 -0.22616908 1.8847424 65 52 48
0.04693981 -0.22531109 1.8775923 66 55 56
0.048596177 -0.22429004 1.8690836 71 61 62
0.050086956 -0.2226087 1.8550725 62 52 53
0.051748075 -0.22177747 1.8481455 64 55 55
0.053596217 -0.22177747 1.8481455 66 55 54
0.055238094 -0.22095238 1.8412699 68 58 58
0.057079364 -0.22095238 1.8412699 72 61 62
0.058920637 -0.22095238 1.8412699 71 61 61
0.0609888 -0.22177747 1.8481455 70 59 62
0.062603176 -0.22095238 1.8412699 67 57 60
0.064444445 -0.22095238 1.8412699 68 58 61
0.06604003 -0.22013344 1.8344454 74 66 68
0.067874484 -0.22013344 1.8344454 82 74 73
0.06945151 -0.21932054 1.8276712 72 62 57
0.07101692 -0.21851361 1.8209468 81 73 70
0.072837874 -0.21851361 1.8209468 117 108 105
0.07465882 -0.21851361 1.8209468 78 68 68
0.07614359 -0.21755311 1.8129426 75 67 67
0.078300714 -0.21851361 1.8209468 74 66 65
0.08012166 -0.21851361 1.8209468 73 64 64
0.0819426 -0.21851361 1.8209468 77 69 68
0.08339536 -0.21755311 1.8129426 78 69 71
0.085208304 -0.21755311 1.8129426 108 99 99
0.086388364 -0.21597092 1.7997576 107 98 92
0.0878686 -0.21518841 1.7932367 85 74 72
0.08966184 -0.21518841 1.7932367 73 63 62
0.09178764 -0.21597092 1.7997576 72 63 63
0.09358739 -0.21597092 1.7997576 69 60 61
0.09504155 -0.21518841 1.7932367 62 52 53
0.09641559 -0.21425687 1.7854738 58 49 49
0.09784807 -0.21348672 1.779056 55 46 46
0.09927029 -0.21272206 1.7726839 61 48 44
0.10068237 -0.2119629 1.7663574 148 111 91
0.10165062 -0.21031162 1.7525969 179 129 98
0.10260389 -0.20868589 1.739049 191 133 106
0.10478476 -0.20956951 1.7464126 196 134 107
0.10653117 -0.20956951 1.7464126 191 128 104
0.10782104 -0.20868589 1.739049 191 125 101
0.10956008 -0.20868589 1.739049 191 126 101
0.111299135 -0.20868589 1.739049 193 126 103
0.11303818 -0.20868589 1.739049 194 128 104
0.11477723 -0.20868589 1.739049 192 127 105
0.116516285 -0.20868589 1.739049 189 126 105
0.118255325 -0.20868589 1.739049 189 125 104
0.11999438 -0.20868589 1.739049 192 127 107
0.12173343 -0.20868589 1.739049 194 131 109
0.123472475 -0.20868589 1.739049 197 133 111
0.12477311 -0.20795518 1.7329599 199 135 114
0.12650608 -0.20795518 1.7329599 200 137 115
0.12823904 -0.20795518 1.7329599 204 139 116
0.12997198 -0.20795518 1.7329599 211 143 121
0.13170496 -0.20795518 1.7329599 217 148 124
0.13343792 -0.20795518 1.7329599 220 153 129
0.13517086 -0.20795518 1.7329599 222 154 130
0.13690382 -0.20795518 1.7329599 222 153 130
0.13971302 -0.20956951 1.7464126 221 151 128
0.14145942 -0.20956951 1.7464126 218 149 125
0.14260203 -0.20868589 1.739049 217 147 123
0.14495225 -0.20956951 1.7464126 215 146 122
0.14669865 -0.20956951 1.7464126 214 144 122
0.14897074 -0.21031162 1.7525969 213 143 119
0.15125895 -0.21105899 1.758825 209 141 117
0.1536731 -0.2119629 1.7663574 204 138 117
0.16522811 -0.22531109 1.8775923 210 164 145
0.17563425 -0.2368102 1.9734185 221 191 164
0.18122052 -0.24162735 2.0135612 214 189 167
0.18383238 -0.24241634 2.020136 209 186 163
0.18661423 -0.24340986 2.0284154 210 185 161
0.18864264 -0.24340986 2.0284154 217 188 167
0.19067106 -0.24340986 2.0284154 211 185 163
0.19269946 -0.24340986 2.0284154 207 183 162
0.19472787 -0.24340986 2.0284154 224 198 176
0.1967563 -0.24340986 2.0284154 219 193 171
0.19878471 -0.24340986 2.0284154 217 190 169
0.20081313 -0.24340986 2.0284154 214 187 167
0.20284154 -0.24340986 2.0284154 185 162 144
0.20403375 -0.24241634 2.020136 215 189 167
0.20605388 -0.24241634 2.020136 217 191 169
0.20807402 -0.24241634 2.020136 196 173 152
0.21009417 -0.24241634 2.020136 213 187 165
0.21211429 -0.24241634 2.020136 222 194 172
0.21413442 -0.24241634 2.020136 216 189 167
0.21615458 -0.24241634 2.020136 211 186 165
0.2181747 -0.24241634 2.020136 213 190 166
0.22019485 -0.24241634 2.020136 221 195 172
0.22221497 -0.24241634 2.020136 212 187 165
0.2242351 -0.24241634 2.020136 219 192 171
0.22551885 -0.24162735 2.0135612 206 182 162
0.22753243 -0.24162735 2.0135612 216 189 168
0.229546 -0.24162735 2.0135612 205 181 160
0.2306213 -0.24064831 2.0054026 214 190 167
0.23262669 -0.24064831 2.0054026 211 185 164
0.23463209 -0.24064831 2.0054026 208 182 162
0.2366375 -0.24064831 2.0054026 211 182 162
0.2386429 -0.24064831 2.0054026 211 184 162
0.24162735 -0.24162735 2.0135612 203 178 157
0.24364091 -0.24162735 2.0135612 216 188 166
0.24465913 -0.24064831 2.0054026 207 176 157
0.24766803 -0.24162735 2.0135612 209 178 158
0.24968159 -0.24162735 2.0135612 213 184 163
0.25067532 -0.24064831 2.0054026 215 185 165
0.25268072 -0.24064831 2.0054026 220 187 165
0.25468612 -0.24064831 2.0054026 215 179 149
0.25565565 -0.23967716 1.9973097 216 178 150
0.25765297 -0.23967716 1.9973097 210 172 161
0.25860667 -0.23871382 1.9892819 216 151 114
0.26059592 -0.23871382 1.9892819 201 95 0
0.26153404 -0.2377582 1.9813185 209 86 0
0.26351535 -0.2377582 1.9813185 209 86 0
0.2644381 -0.2368102 1.9734185 210 86 0
0.267478 -0.2377582 1.9813185 212 88 0
0.2683849 -0.2368102 1.9734185 215 90 0
0.27035832 -0.2368102 1.9734185 215 91 0
0.27233174 -0.2368102 1.9734185 218 91 0
0.27430516 -0.2368102 1.9734185 218 92 0
0.2762786 -0.2368102 1.9734185 218 93 0
0.27605066 -0.23493673 1.957806 216 96 0
0.27800846 -0.23493673 1.957806 216 95 0
0.27996624 -0.23493673 1.957806 215 95 0
-0.28877795 -0.24265371 2.0054026 162 143 121
-0.28677255 -0.24265371 2.0054026 167 146 124
-0.28476715 -0.24265371 2.0054026 164 144 125
-0.28276175 -0.24265371 2.0054026 163 143 124
-0.28075635 -0.24265371 2.0054026 159 139 120
-0.27875096 -0.24265371 2.0054026 158 133 114
-0.27674556 -0.24265371 2.0054026 156 121 101
-0.27474013 -0.24265371 2.0054026 151 99 80
-0.27273473 -0.24265371 2.0054026 145 82 62
-0.27072933 -0.24265371 2.0054026 144 79 57
-0.26872393 -0.24265371 2.0054026 145 80 57
-0.26671854 -0.24265371 2.0054026 152 85 63
-0.26471314 -0.24265371 2.0054026 140 75 53
-0.26270774 -0.24265371 2.0054026 137 71 49
-0.26070234 -0.24265371 2.0054026 136 72 51
-0.25869694 -0.24265371 2.0054026 133 70 48
-0.25669152 -0.24265371 2.0054026 120 58 34
-0.25468612 -0.24265371 2.0054026 128 67 44
-0.25268072 -0.24265371 2.0054026 131 68 46
-0.25067532 -0.24265371 2.0054026 128 67 45
-0.24866992 -0.24265371 2.0054026 132 70 48
-0.24666452 -0.24265371 2.0054026 132 71 49
-0.24465913 -0.24265371 2.0054026 132 73 47
-0.24265371 -0.24265371 2.0054026 136 74 51
-0.24064831 -0.24265371 2.0054026 138 74 52
-0.2386429 -0.24265371 2.0054026 135 74 51
-0.23568255 -0.24167447 1.9973097 143 78 56
-0.23368523 -0.24167447 1.9973097 139 77 55
-0.23168793 -0.24167447 1.9973097 135 75 52
-0.22969061 -0.24167447 1.9973097 135 77 53
-0.2286159 -0.24265371 2.0054026 136 80 56
-0.22661048 -0.24265371 2.0054026 137 84 59
-0.22460508 -0.24265371 2.0054026 143 94 72
-0.22259969 -0.24265371 2.0054026 129 94 71
-0.22059429 -0.24265371 2.0054026 138 113 93
-0.21858889 -0.24265371 2.0054026 140 120 101
-0.21658348 -0.24265371 2.0054026 142 121 101
-0.21457808 -0.24265371 2.0054026 147 125 105
-0.21257268 -0.24265371 2.0054026 142 121 102
-0.21056728 -0.24265371 2.0054026 143 122 103
-0.20772022 -0.24167447 1.9973097 143 123 104
-0.2057229 -0.24167447 1.9973097 145 123 104
-0.20372559 -0.24167447 1.9973097 139 118 99
-0.20172827 -0.24167447 1.9973097 141 119 99
-0.19973098 -0.24167447 1.9973097 140 119 98
-0.19773366 -0.24167447 1.9973097 129 108 91
-0.19573635 -0.24167447 1.9973097 127 105 88
-0.19373904 -0.24167447 1.9973097 130 107 89
-0.19251865 -0.24265371 2.0054026 135 113 93
-0.19051324 -0.24265371 2.0054026 139 116 97
-0.18850784 -0.24265371 2.0054026 140 119 101
-0.18650244 -0.24265371 2.0054026 142 121 103
-0.18449704 -0.24265371 2.0054026 142 121 101
-0.18323407 -0.24364091 2.0135612 138 116 98
-0.18122052 -0.24364091 2.0135612 137 116 98
-0.17979212 -0.24443647 2.020136 144 125 106
-0.17719339 -0.24364091 2.0135612 145 124 106
-0.17517982 -0.24364091 2.0135612 145 124 104
-0.17316626 -0.24364091 2.0135612 141 124 104
-0.17171156 -0.24443647 2.020136 144 127 107
-0.16969144 -0.24443647 2.020136 147 124 104
-0.1676713 -0.24443647 2.020136 146 121 100
-0.16054009 -0.23689453 1.957806 152 127 106
-0.14914285 -0.22279365 1.8412699 167 130 105
-0.14070599 -0.21281782 1.758825 186 133 106
-0.13690382 -0.20968814 1.7329599 194 135 107
-0.13517086 -0.20968814 1.7329599 191 136 110
-0.13343792 -0.20968814 1.7329599 197 136 107
-0.13170496 -0.20968814 1.7329599 197 134 104
-0.12997198 -0.20968814 1.7329599 198 133 102
-0.12779158 -0.20895651 1.7269133 201 133 102
-0.12553903 -0.20808525 1.7197129 202 133 100
-0.12381933 -0.20808525 1.7197129 204 132 98
-0.12209961 -0.20808525 1.7197129 204 131 96
-0.120379895 -0.20808525 1.7197129 206 132 95
-0.11824931 -0.20736474 1.7137581 208 132 99
-0.11653555 -0.20736474 1.7137581 211 133 99
-0.11482179 -0.20736474 1.7137581 210 134 101
-0.11310803 -0.20736474 1.7137581 213 135 104
-0.11139428 -0.20736474 1.7137581 214 139 112
-0.10968052 -0.20736474 1.7137581 219 144 115
-0.10796676 -0.20736474 1.7137581 220 149 119
-0.106253006 -0.20736474 1.7137581 222 152 121
-0.104539245 -0.20736474 1.7137581 222 152 124
-0.102825485 -0.20736474 1.7137581 222 152 123
-0.101111725 -0.20736474 1.7137581 222 152 123
-0.09939797 -0.20736474 1.7137581 221 152 122
-0.09768421 -0.20736474 1.7137581 219 150 121
-0.09597045 -0.20736474 1.7137581 216 146 121
-0.094584204 -0.20808525 1.7197129 213 144 120
-0.09286449 -0.20808525 1.7197129 212 142 119
-0.091144785 -0.20808525 1.7197129 209 141 118
-0.08942507 -0.20808525 1.7197129 206 140 115
-0.08770535 -0.20808525 1.7197129 204 138 112
-0.08598564 -0.20808525 1.7197129 201 135 109
-0.08426593 -0.20808525 1.7197129 199 133 107
-0.08289184 -0.20895651 1.7269133 200 133 108
-0.08116493 -0.20895651 1.7269133 200 133 110
-0.07943801 -0.20895651 1.7269133 201 134 111
-0.0777111 -0.20895651 1.7269133 204 135 112
-0.07625024 -0.20968814 1.7329599 206 139 113
-0.07451727 -0.20968814 1.7329599 204 136 111
-0.07334933 -0.21131593 1.7464126 203 138 112
-0.07185647 -0.21206422 1.7525969 176 119 100
-0.070352994 -0.21281782 1.758825 112 79 77
-0.069134675 -0.21449475 1.7726839 88 66 61
-0.067604125 -0.21526578 1.779056 83 65 59
-0.06634976 -0.21698165 1.7932367 79 65 64
-0.06455652 -0.21698165 1.7932367 78 65 63
-0.06322142 -0.21856546 1.8063262 90 80 77
-0.06164005 -0.21936606 1.8129426 103 90 88
-0.060091242 -0.22033456 1.8209468 76 62 60
-0.05848548 -0.22114821 1.8276712 74 60 58
-0.056867804 -0.22196789 1.8344454 77 64 62
-0.055238094 -0.22279365 1.8412699 97 73 64
-0.053596217 -0.22362562 1.8481455 122 75 64
-0.052137446 -0.22530825 1.8620517 143 83 73
-0.05046526 -0.22615913 1.8690836 147 87 77
-0.049190626 -0.2289256 1.891947 126 78 65
-0.048033126 -0.23248033 1.9213251 92 56 44
-0.046987344 -0.23689453 1.957806 61 42 32
-0.045388628 -0.23878363 1.9734185 59 41 34
-0.043589003 -0.23973954 1.9813185 58 42 36
-0.04177492 -0.2407031 1.9892819 60 41 37
-0.03978564 -0.2407031 1.9892819 60 42 37
-0.03764505 -0.23973954 1.9813185 61 43 38
-0.035663735 -0.23973954 1.9813185 64 45 38
-0.033682413 -0.23973954 1.9813185 66 47 40
-0.03182851 -0.2407031 1.9892819 67 47 42
-0.029839227 -0.2407031 1.9892819 66 45 40
-0.027849946 -0.2407031 1.9892819 66 47 39
-0.025860664 -0.2407031 1.9892819 66 45 38
-0.023871385 -0.2407031 1.9892819 65 44 37
-0.021882102 -0.2407031 1.9892819 63 42 35
-0.01989282 -0.2407031 1.9892819 66 44 38
-0.017903538 -0.2407031 1.9892819 65 46 40
-0.015914256 -0.2407031 1.9892819 65 46 40
-0.013924973 -0.2407031 1.9892819 66 46 40
-0.011935692 -0.2407031 1.9892819 68 45 40
-0.00994641 -0.2407031 1.9892819 64 44 42
-0.007957128 -0.2407031 1.9892819 62 42 39
-0.005967846 -0.2407031 1.9892819 61 42 39
-0.003978564 -0.2407031 1.9892819 59 41 36
-0.001989282 -0.2407031 1.9892819 57 40 34
0.0 -0.2407031 1.9892819 55 39 34
0.001989282 -0.2407031 1.9892819 55 38 35
0.003978564 -0.2407031 1.9892819 51 36 33
0.005967846 -0.2407031 1.9892819 49 35 31
0.007989239 -0.24167447 1.9973097 46 33 31
0.00994641 -0.2407031 1.9892819 46 32 30
0.011887911 -0.23973954 1.9813185 44 31 28
0.01386923 -0.23973954 1.9813185 43 30 26
0.015850548 -0.23973954 1.9813185 47 32 27
0.017760767 -0.23878363 1.9734185 62 37 36
0.01965581 -0.23783533 1.9655812 76 41 41
0.021467928 -0.23614721 1.9516299 84 48 43
0.023419559 -0.23614721 1.9516299 68 36 30
0.025172666 -0.23429942 1.9363589 98 55 47
0.027109023 -0.23429942 1.9363589 113 64 57
0.028819876 -0.23248033 1.9213251 117 66 55
0.030741202 -0.23248033 1.9213251 118 68 57
0.032662526 -0.23248033 1.9213251 123 70 59
0.03458385 -0.23248033 1.9213251 126 70 61
0.036364015 -0.23158135 1.9138954 128 76 64
0.03827791 -0.23158135 1.9138954 129 74 66
0.04003698 -0.23068927 1.9065229 129 72 65
0.041782554 -0.22980405 1.899207 103 56 48
0.04351478 -0.2289256 1.891947 67 44 35
0.04523382 -0.22805384 1.8847424 61 51 46
0.04693981 -0.22718868 1.8775923 64 52 56
0.048596177 -0.22615913 1.8690836 64 53 58
0.05046526 -0.22615913 1.8690836 60 52 55
0.052137446 -0.22530825 1.8620517 64 55 59
0.053797103 -0.22446378 1.8550725 65 56 57
0.055444367 -0.22362562 1.8481455 70 59 59
0.057079364 -0.22279365 1.8412699 70 61 60
0.058920637 -0.22279365 1.8412699 65 56 58
0.060536698 -0.22196789 1.8344454 66 56 59
0.062603176 -0.22279365 1.8412699 72 62 63
0.06420559 -0.22196789 1.8344454 73 61 64
0.06604003 -0.22196789 1.8344454 73 64 66
0.067874484 -0.22196789 1.8344454 73 64 64
0.06945151 -0.22114821 1.8276712 69 62 61
0.07101692 -0.22033456 1.8209468 71 63 63
0.072837874 -0.22033456 1.8209468 76 67 68
0.07465882 -0.22033456 1.8209468 77 70 70
0.07614359 -0.21936606 1.8129426 77 67 67
0.077956535 -0.21936606 1.8129426 78 69 69
0.07976948 -0.21936606 1.8129426 82 73 73
0.08158242 -0.21936606 1.8129426 84 76 76
0.08339536 -0.21936606 1.8129426 110 99 99
0.08489733 -0.21856546 1.8063262 105 96 95
0.086075366 -0.21698165 1.7932367 81 74 74
0.0878686 -0.21698165 1.7932367 78 68 70
0.08966184 -0.21698165 1.7932367 76 67 68
0.09178764 -0.21777068 1.7997576 76 68 68
0.09324831 -0.21698165 1.7932367 74 66 66
0.09504155 -0.21698165 1.7932367 69 61 61
0.09606902 -0.21526578 1.779056 64 55 56
0.09749761 -0.21449475 1.7726839 59 50 50
0.09927029 -0.21449475 1.7726839 61 46 42
0.10068237 -0.21372925 1.7663574 157 117 94
0.10129193 -0.21131593 1.7464126 183 131 99
0.10260389 -0.21042493 1.739049 194 137 108
0.104342945 -0.21042493 1.739049 199 140 112
0.106081985 -0.21042493 1.739049 197 135 107
0.10782104 -0.21042493 1.739049 193 128 104
0.109176464 -0.20968814 1.7329599 190 129 102
0.111299135 -0.21042493 1.739049 190 129 104
0.11303818 -0.21042493 1.739049 190 127 104
0.11477723 -0.21042493 1.739049 188 124 104
0.116516285 -0.21042493 1.739049 185 123 103
0.118255325 -0.21042493 1.739049 183 122 101
0.11999438 -0.21042493 1.739049 183 122 102
0.12130719 -0.20968814 1.7329599 188 125 105
0.123472475 -0.21042493 1.739049 190 127 107
0.12477311 -0.20968814 1.7329599 196 132 111
0.12650608 -0.20968814 1.7329599 199 135 115
0.12823904 -0.20968814 1.7329599 202 138 116
0.12997198 -0.20968814 1.7329599 206 140 119
0.13170496 -0.20968814 1.7329599 212 144 122
0.13343792 -0.20968814 1.7329599 216 148 125
0.13517086 -0.20968814 1.7329599 219 151 128
0.13690382 -0.20968814 1.7329599 223 153 130
0.13971302 -0.21131593 1.7464126 221 153 129
0.14145942 -0.21131593 1.7464126 220 151 126
0.14260203 -0.21042493 1.739049 217 148 124
0.14434107 -0.21042493 1.739049 215 148 124
0.14669865 -0.21131593 1.7464126 213 145 122
0.14844507 -0.21131593 1.7464126 213 143 119
0.15019149 -0.21131593 1.7464126 211 142 118
0.15301777 -0.21281782 1.758825 208 141 117
0.15895669 -0.21856546 1.8063262 202 144 122
0.17099795 -0.23248033 1.9213251 215 185 158
0.18048623 -0.24265371 2.0054026 212 189 169
0.18383238 -0.24443647 2.020136 220 196 172
0.18661423 -0.24543826 2.0284154 215 191 168
0.1872612 -0.24364091 2.0135612 216 189 167
0.1898928 -0.24443647 2.020136 211 185 164
0.19191293 -0.24443647 2.020136 206 184 162
0.19393307 -0.24443647 2.020136 215 189 166
0.1959532 -0.24443647 2.020136 218 191 170
0.19797334 -0.24443647 2.020136 215 189 169
0.19934256 -0.24364091 2.0135612 213 187 166
0.20135613 -0.24364091 2.0135612 209 183 162
0.20336969 -0.24364091 2.0135612 214 187 166
0.20538324 -0.24364091 2.0135612 208 185 164
0.2073968 -0.24364091 2.0135612 205 181 161
0.20941037 -0.24364091 2.0135612 213 189 167
0.21142393 -0.24364091 2.0135612 221 196 173
0.2134375 -0.24364091 2.0135612 218 194 172
0.21545105 -0.24364091 2.0135612 213 187 165
0.21746461 -0.24364091 2.0135612 206 183 161
0.21947818 -0.24364091 2.0135612 211 185 164
0.22149172 -0.24364091 2.0135612 210 185 164
0.22350529 -0.24364091 2.0135612 212 187 166
0.22460508 -0.24265371 2.0054026 210 184 164
0.22661048 -0.24265371 2.0054026 214 190 168
0.2286159 -0.24265371 2.0054026 208 185 162
0.2306213 -0.24265371 2.0054026 212 189 167
0.23262669 -0.24265371 2.0054026 209 185 164
0.23463209 -0.24265371 2.0054026 217 190 167
0.2366375 -0.24265371 2.0054026 209 183 161
0.23767985 -0.24167447 1.9973097 213 183 161
0.24064831 -0.24265371 2.0054026 208 180 158
0.24265371 -0.24265371 2.0054026 214 182 162
0.24367179 -0.24167447 1.9973097 212 183 161
0.24666452 -0.24265371 2.0054026 211 179 158
0.24866992 -0.24265371 2.0054026 214 184 163
0.25067532 -0.24265371 2.0054026 215 185 163
0.25166103 -0.24167447 1.9973097 215 183 161
0.25365832 -0.24167447 1.9973097 204 176 151
0.2546281 -0.2407031 1.9892819 205 171 148
0.25661737 -0.2407031 1.9892819 193 150 130
0.25860667 -0.2407031 1.9892819 167 117 92
0.26059592 -0.2407031 1.9892819 172 89 29
0.2625852 -0.2407031 1.9892819 194 80 0
0.26351535 -0.23973954 1.9813185 202 75 0
0.26549667 -0.23973954 1.9813185 204 76 0
0.267478 -0.23973954 1.9813185 205 78 0
0.2683849 -0.23878363 1.9734185 209 79 0
0.27035832 -0.23878363 1.9734185 211 81 0
0.27233174 -0.23878363 1.9734185 214 82 0
0.27430516 -0.23878363 1.9734185 216 84 0
0.27518135 -0.23783533 1.9655812 214 88 0
0.27714694 -0.23783533 1.9655812 215 94 0
0.27800846 -0.23689453 1.957806 216 96 0
0.27996624 -0.23689453 1.957806 216 96 0
-0.28761262 -0.24367179 1.9973097 164 142 123
-0.2856153 -0.24367179 1.9973097 161 140 121
-0.28361797 -0.24367179 1.9973097 166 145 126
-0.28276175 -0.24465913 2.0054026 168 148 129
-0.27962336 -0.24367179 1.9973097 159 139 123
-0.27875096 -0.24465913 2.0054026 161 139 121
-0.27674556 -0.24465913 2.0054026 161 124 102
-0.27474013 -0.24465913 2.0054026 155 100 80
-0.27273473 -0.24465913 2.0054026 152 85 67
-0.27072933 -0.24465913 2.0054026 139 76 55
-0.26872393 -0.24465913 2.0054026 139 72 50
-0.26671854 -0.24465913 2.0054026 146 82 60
-0.26471314 -0.24465913 2.0054026 137 75 52
-0.26270774 -0.24465913 2.0054026 133 70 47
-0.26070234 -0.24465913 2.0054026 139 76 54
-0.25869694 -0.24465913 2.0054026 135 72 48
-0.25669152 -0.24465913 2.0054026 130 67 43
-0.25468612 -0.24465913 2.0054026 133 70 46
-0.25268072 -0.24465913 2.0054026 133 71 45
-0.25067532 -0.24465913 2.0054026 134 73 51
-0.24866992 -0.24465913 2.0054026 138 77 54
-0.24666452 -0.24465913 2.0054026 137 76 54
-0.24465913 -0.24465913 2.0054026 136 75 51
-0.24265371 -0.24465913 2.0054026 136 75 51
-0.24064831 -0.24465913 2.0054026 134 74 49
-0.2386429 -0.24465913 2.0054026 138 77 52
-0.23568255 -0.24367179 1.9973097 136 75 51
-0.23368523 -0.24367179 1.9973097 135 75 52
-0.23168793 -0.24367179 1.9973097 136 76 54
-0.22969061 -0.24367179 1.9973097 137 78 56
-0.2286159 -0.24465913 2.0054026 137 79 57
-0.22661048 -0.24465913 2.0054026 131 79 56
-0.22369869 -0.24367179 1.9973097 142 98 77
-0.22170137 -0.24367179 1.9973097 149 111 89
-0.21970408 -0.24367179 1.9973097 139 116 96
-0.21770675 -0.24367179 1.9973097 133 115 97
-0.21570945 -0.24367179 1.9973097 135 116 98
-0.21371214 -0.24367179 1.9973097 145 125 104
-0.21171483 -0.24367179 1.9973097 136 117 98
-0.20971751 -0.24367179 1.9973097 142 121 101
-0.20688531 -0.2426924 1.9892819 138 118 99
-0.20489605 -0.2426924 1.9892819 138 117 99
-0.20290676 -0.2426924 1.9892819 135 113 96
-0.20091747 -0.2426924 1.9892819 130 109 91
-0.19892819 -0.2426924 1.9892819 133 112 92
-0.1969389 -0.2426924 1.9892819 129 107 90
-0.19494963 -0.2426924 1.9892819 126 103 87
-0.19373904 -0.24367179 1.9973097 129 106 89
-0.19174173 -0.24367179 1.9973097 131 110 91
-0.18974441 -0.24367179 1.9973097 131 111 94
-0.18774712 -0.24367179 1.9973097 133 113 97
-0.1857498 -0.24367179 1.9973097 135 116 99
-0.18375249 -0.24367179 1.9973097 142 122 102
-0.18249165 -0.24465913 2.0054026 141 119 101
-0.18048623 -0.24465913 2.0054026 142 120 102
-0.17848083 -0.24465913 2.0054026 145 125 106
-0.17647544 -0.24465913 2.0054026 147 126 107
-0.17447002 -0.24465913 2.0054026 146 126 105
-0.17246461 -0.24465913 2.0054026 141 123 106
-0.17115271 -0.24565448 2.0135612 142 125 109
-0.16913915 -0.24565448 2.0135612 148 127 105
-0.16644841 -0.24465913 2.0054026 144 119 98
-0.15573497 -0.23170325 1.899207 160 128 107
-0.14525218 -0.21877488 1.7932367 182 131 107
-0.1386368 -0.2114211 1.7329599 188 132 103
-0.13690382 -0.2114211 1.7329599 189 132 102
-0.13517086 -0.2114211 1.7329599 193 135 106
-0.13343792 -0.2114211 1.7329599 193 132 103
-0.13170496 -0.2114211 1.7329599 194 132 100
-0.1295185 -0.21068342 1.7269133 197 130 99
-0.12725875 -0.20980497 1.7197129 198 129 97
-0.12553903 -0.20980497 1.7197129 198 127 93
-0.123390585 -0.20907849 1.7137581 197 127 91
-0.121676825 -0.20907849 1.7137581 199 128 90
-0.119963065 -0.20907849 1.7137581 200 129 91
-0.11824931 -0.20907849 1.7137581 205 130 96
-0.11653555 -0.20907849 1.7137581 209 131 97
-0.11482179 -0.20907849 1.7137581 210 133 99
-0.11310803 -0.20907849 1.7137581 212 134 103
-0.11139428 -0.20907849 1.7137581 215 138 109
-0.10968052 -0.20907849 1.7137581 217 141 112
-0.10796676 -0.20907849 1.7137581 220 146 117
-0.106253006 -0.20907849 1.7137581 222 151 120
-0.104539245 -0.20907849 1.7137581 223 153 124
-0.102825485 -0.20907849 1.7137581 220 152 124
-0.10069334 -0.20821333 1.7066667 218 151 121
-0.09939797 -0.20907849 1.7137581 219 149 120
-0.09768421 -0.20907849 1.7137581 216 147 119
-0.09597045 -0.20907849 1.7137581 213 145 120
-0.094584204 -0.20980497 1.7197129 210 142 119
-0.09254294 -0.20907849 1.7137581 209 141 119
-0.09082918 -0.20907849 1.7137581 207 140 117
-0.089115426 -0.20907849 1.7137581 203 138 113
-0.08770535 -0.20980497 1.7197129 199 135 109
-0.08598564 -0.20980497 1.7197129 196 132 106
-0.083974145 -0.20907849 1.7137581 195 131 103
-0.08289184 -0.21068342 1.7269133 197 130 107
-0.08116493 -0.21068342 1.7269133 195 130 108
-0.07943801 -0.21068342 1.7269133 195 131 108
-0.0777111 -0.21068342 1.7269133 198 132 109
-0.07598419 -0.21068342 1.7269133 200 134 110
-0.07451727 -0.2114211 1.7329599 205 135 111
-0.07304005 -0.21216397 1.739049 202 137 112
-0.07185647 -0.21381682 1.7525969 180 123 101
-0.070352994 -0.21457665 1.758825 113 81 74
-0.06888794 -0.2154956 1.7663574 98 72 66
-0.067604125 -0.21704483 1.779056 80 63 53
-0.06606253 -0.21782781 1.7854738 79 65 64
-0.06455652 -0.21877488 1.7932367 78 66 65
-0.062991515 -0.21957043 1.7997576 77 65 63
-0.06164005 -0.221179 1.8129426 81 67 65
-0.059827108 -0.221179 1.8129426 78 63 61
-0.058270298 -0.22215551 1.8209468 75 61 59
-0.056449354 -0.22215551 1.8209468 75 61 59
-0.054830134 -0.22297588 1.8276712 91 68 59
-0.053396825 -0.22463492 1.8412699 121 75 64
-0.05194203 -0.22631885 1.8550725 140 83 72
-0.05069499 -0.22906627 1.8775923 142 86 76
-0.049379382 -0.23170325 1.899207 114 70 56
-0.048220318 -0.23531516 1.9288127 70 42 31
-0.04717395 -0.2398009 1.9655812 59 41 36
-0.045388628 -0.24075705 1.9734185 60 41 35
-0.043589003 -0.24172086 1.9813185 61 44 38
-0.04160769 -0.24172086 1.9813185 62 43 38
-0.03978564 -0.2426924 1.9892819 63 44 39
-0.037796356 -0.2426924 1.9892819 64 45 39
-0.035807077 -0.2426924 1.9892819 67 47 39
-0.033682413 -0.24172086 1.9813185 67 47 40
-0.03182851 -0.2426924 1.9892819 70 49 44
-0.029839227 -0.2426924 1.9892819 69 47 42
-0.027849946 -0.2426924 1.9892819 68 48 39
-0.025860664 -0.2426924 1.9892819 68 47 40
-0.023871385 -0.2426924 1.9892819 67 46 39
-0.021882102 -0.2426924 1.9892819 67 47 40
-0.01989282 -0.2426924 1.9892819 68 47 41
-0.017903538 -0.2426924 1.9892819 67 46 39
-0.015850548 -0.24172086 1.9813185 68 48 41
-0.01386923 -0.24172086 1.9813185 69 47 40
-0.011887911 -0.24172086 1.9813185 70 47 41
-0.009906593 -0.24172086 1.9813185 67 47 44
-0.007925274 -0.24172086 1.9813185 65 46 40
-0.0059439554 -0.24172086 1.9813185 63 44 40
-0.003962637 -0.24172086 1.9813185 61 43 38
-0.0019813185 -0.24172086 1.9813185 60 42 34
0.0 -0.24172086 1.9813185 59 41 34
0.0019813185 -0.24172086 1.9813185 57 41 35
0.003962637 -0.24172086 1.9813185 56 42 37
0.005967846 -0.2426924 1.9892819 55 40 37
0.007957128 -0.2426924 1.9892819 53 38 36
0.009906593 -0.24172086 1.9813185 49 35 32
0.011887911 -0.24172086 1.9813185 45 33 29
0.01386923 -0.24172086 1.9813185 45 32 28
0.015850548 -0.24172086 1.9813185 46 32 30
0.017760767 -0.24075705 1.9734185 53 36 34
0.019734185 -0.24075705 1.9734185 68 42 39
0.021535866 -0.23885232 1.957806 79 45 42
0.023419559 -0.23809884 1.9516299 80 41 41
0.025271539 -0.23716366 1.9439645 92 52 45
0.027003378 -0.23531516 1.9288127 108 62 55
0.028932191 -0.23531516 1.9288127 115 65 54
0.030741202 -0.23440166 1.9213251 107 61 53
0.03253622 -0.23349524 1.9138954 101 54 40
0.034450114 -0.23349524 1.9138954 124 71 60
0.036364015 -0.23349524 1.9138954 129 75 64
0.03813046 -0.2325958 1.9065229 127 74 66
0.04003698 -0.2325958 1.9065229 123 67 61
0.041782554 -0.23170325 1.899207 95 51 45
0.04351478 -0.23081754 1.891947 59 44 37
0.045062218 -0.22906627 1.8775923 56 51 46
0.04672709 -0.2280282 1.8690836 63 52 56
0.048596177 -0.2280282 1.8690836 59 47 51
0.050086956 -0.22631885 1.8550725 61 51 55
0.051748075 -0.22547376 1.8481455 61 50 55
0.053596217 -0.22547376 1.8481455 66 56 58
0.055238094 -0.22463492 1.8412699 70 61 62
0.057079364 -0.22463492 1.8412699 69 62 62
0.058920637 -0.22463492 1.8412699 65 57 59
0.060536698 -0.22380234 1.8344454 66 57 60
0.062371142 -0.22380234 1.8344454 68 57 59
0.06420559 -0.22380234 1.8344454 74 63 64
0.06579617 -0.22297588 1.8276712 75 65 67
0.06762383 -0.22297588 1.8276712 74 64 64
0.06945151 -0.22297588 1.8276712 72 65 63
0.07101692 -0.22215551 1.8209468 73 65 64
0.072837874 -0.22215551 1.8209468 73 65 66
0.07465882 -0.22215551 1.8209468 74 65 68
0.0758657 -0.2203718 1.8063262 79 69 70
0.07767203 -0.2203718 1.8063262 80 70 71
0.079478346 -0.2203718 1.8063262 80 69 68
0.08098909 -0.21957043 1.7997576 103 95 94
0.082488894 -0.21877488 1.7932367 110 101 101
0.08428213 -0.21877488 1.7932367 89 79 78
0.086075366 -0.21877488 1.7932367 78 69 69
0.08748822 -0.21782781 1.7854738 81 70 71
0.08927369 -0.21782781 1.7854738 81 71 72
0.09145507 -0.21877488 1.7932367 78 69 70
0.09324831 -0.21877488 1.7932367 75 67 67
0.094630115 -0.21782781 1.7854738 73 65 65
0.09606902 -0.21704483 1.779056 70 61 61
0.09784807 -0.21704483 1.779056 59 50 51
0.09891602 -0.2154956 1.7663574 70 55 50
0.10025302 -0.21457665 1.758825 168 123 98
0.10129193 -0.21306235 1.7464126 192 137 102
0.10260389 -0.21216397 1.739049 200 142 112
0.104342945 -0.21216397 1.739049 206 147 115
0.106081985 -0.21216397 1.739049 203 143 113
0.10782104 -0.21216397 1.739049 197 137 109
0.10956008 -0.21216397 1.739049 193 133 105
0.111299135 -0.21216397 1.739049 191 130 105
0.11303818 -0.21216397 1.739049 187 126 103
0.11477723 -0.21216397 1.739049 185 123 103
0.116516285 -0.21216397 1.739049 181 122 102
0.118255325 -0.21216397 1.739049 176 118 100
0.119574234 -0.2114211 1.7329599 176 116 98
0.12130719 -0.2114211 1.7329599 180 119 100
0.123472475 -0.21216397 1.739049 185 122 104
0.12477311 -0.2114211 1.7329599 189 126 107
0.12650608 -0.2114211 1.7329599 197 130 113
0.12823904 -0.2114211 1.7329599 197 134 115
0.12997198 -0.2114211 1.7329599 203 138 117
0.13170496 -0.2114211 1.7329599 210 140 119
0.13343792 -0.2114211 1.7329599 212 144 122
0.13517086 -0.2114211 1.7329599 216 148 125
0.13690382 -0.2114211 1.7329599 219 150 128
0.13971302 -0.21306235 1.7464126 220 152 130
0.14086296 -0.21216397 1.739049 219 152 127
0.1421027 -0.2114211 1.7329599 219 151 127
0.14434107 -0.21216397 1.739049 217 151 127
0.14669865 -0.21306235 1.7464126 215 146 123
0.14781916 -0.21216397 1.739049 212 143 120
0.15019149 -0.21306235 1.7464126 212 142 118
0.15247592 -0.21381682 1.7525969 211 143 116
0.15599619 -0.21626742 1.7726839 207 143 116
0.16572261 -0.2271703 1.8620517 205 159 137
0.17760767 -0.24075705 1.9734185 216 192 170
0.18029998 -0.24172086 1.9813185 220 195 171
0.18524763 -0.24565448 2.0135612 220 194 171
0.18650244 -0.24465913 2.0054026 218 192 170
0.18927474 -0.24565448 2.0135612 211 186 165
0.19128832 -0.24565448 2.0135612 209 186 163
0.19330189 -0.24565448 2.0135612 210 185 163
0.19531545 -0.24565448 2.0135612 208 184 162
0.19652945 -0.24465913 2.0054026 211 187 165
0.19853485 -0.24465913 2.0054026 205 180 160
0.20054026 -0.24465913 2.0054026 219 191 169
0.20254566 -0.24465913 2.0054026 208 184 162
0.20455106 -0.24465913 2.0054026 209 186 163
0.20655645 -0.24465913 2.0054026 206 181 160
0.20856185 -0.24465913 2.0054026 205 181 160
0.21056728 -0.24465913 2.0054026 214 188 167
0.21257268 -0.24465913 2.0054026 212 188 167
0.21457808 -0.24465913 2.0054026 216 189 167
0.21658348 -0.24465913 2.0054026 207 183 161
0.21858889 -0.24465913 2.0054026 210 184 163
0.22059429 -0.24465913 2.0054026 211 185 164
0.22259969 -0.24465913 2.0054026 213 187 167
0.22369869 -0.24367179 1.9973097 211 186 166
0.225696 -0.24367179 1.9973097 211 188 167
0.2276933 -0.24367179 1.9973097 212 188 167
0.22969061 -0.24367179 1.9973097 214 188 167
0.23168793 -0.24367179 1.9973097 214 188 167
0.23463209 -0.24465913 2.0054026 214 187 166
0.2366375 -0.24465913 2.0054026 209 183 161
0.23767985 -0.24367179 1.9973097 213 186 165
0.23967716 -0.24367179 1.9973097 212 185 164
0.24167447 -0.24367179 1.9973097 210 181 161
0.2426924 -0.2426924 1.9892819 208 179 160
0.24468167 -0.2426924 1.9892819 211 180 160
0.24667096 -0.2426924 1.9892819 213 183 162
0.24866024 -0.2426924 1.9892819 211 182 160
0.2506495 -0.2426924 1.9892819 209 178 158
0.2526388 -0.2426924 1.9892819 202 172 156
0.2546281 -0.2426924 1.9892819 196 159 140
0.25559008 -0.24172086 1.9813185 167 122 100
0.2575714 -0.24172086 1.9813185 145 94 72
0.25955275 -0.24172086 1.9813185 153 86 49
0.26049125 -0.24075705 1.9734185 158 77 27
0.26351535 -0.24172086 1.9813185 162 70 3
0.26549667 -0.24172086 1.9813185 172 67 0
0.2664115 -0.24075705 1.9734185 185 68 0
0.2683849 -0.24075705 1.9734185 193 70 0
0.27035832 -0.24075705 1.9734185 197 71 0
0.27125022 -0.2398009 1.9655812 202 72 0
0.2732158 -0.2398009 1.9655812 206 74 0
0.27409282 -0.23885232 1.957806 204 81 0
0.27605066 -0.23885232 1.957806 212 92 0
0.27800846 -0.23885232 1.957806 215 94 0
0.27996624 -0.23885232 1.957806 218 95 0
-0.28761262 -0.2456691 1.9973097 159 140 120
-0.2856153 -0.2456691 1.9973097 156 137 118
-0.28361797 -0.2456691 1.9973097 150 133 117
-0.28162068 -0.2456691 1.9973097 157 138 121
-0.27962336 -0.2456691 1.9973097 169 145 130
-0.27762604 -0.2456691 1.9973097 153 128 115
-0.27562872 -0.2456691 1.9973097 166 122 100
-0.27363145 -0.2456691 1.9973097 154 95 72
-0.27163413 -0.2456691 1.9973097 144 81 58
-0.2696368 -0.2456691 1.9973097 139 76 51
-0.2676395 -0.2456691 1.9973097 142 73 47
-0.2656422 -0.2456691 1.9973097 138 74 51
-0.26364487 -0.2456691 1.9973097 139 75 52
-0.26164758 -0.2456691 1.9973097 139 73 49
-0.25965026 -0.2456691 1.9973097 136 73 47
-0.25661737 -0.24468167 1.9892819 134 70 47
-0.2546281 -0.24468167 1.9892819 133 69 45
-0.2526388 -0.24468167 1.9892819 129 65 39
-0.2506495 -0.24468167 1.9892819 125 63 35
-0.24866024 -0.24468167 1.9892819 134 70 48
-0.24667096 -0.24468167 1.9892819 128 67 44
-0.24468167 -0.24468167 1.9892819 127 66 42
-0.2426924 -0.24468167 1.9892819 135 73 50
-0.2407031 -0.24468167 1.9892819 136 73 50
-0.23967716 -0.2456691 1.9973097 131 69 44
-0.23767985 -0.2456691 1.9973097 138 75 52
-0.23473527 -0.24468167 1.9892819 136 74 50
-0.23274599 -0.24468167 1.9892819 136 73 51
-0.2307567 -0.24468167 1.9892819 137 75 54
-0.22876741 -0.24468167 1.9892819 136 77 58
-0.22677813 -0.24468167 1.9892819 137 80 60
-0.225696 -0.2456691 1.9973097 145 91 72
-0.22279957 -0.24468167 1.9892819 144 107 85
-0.2208103 -0.24468167 1.9892819 144 115 95
-0.21882102 -0.24468167 1.9892819 144 122 103
-0.21683173 -0.24468167 1.9892819 144 123 105
-0.21484244 -0.24468167 1.9892819 141 122 102
-0.21285316 -0.24468167 1.9892819 142 122 103
-0.21086387 -0.24468167 1.9892819 133 113 95
-0.2088746 -0.24468167 1.9892819 125 107 90
-0.20605713 -0.24370217 1.9813185 130 109 93
-0.2040758 -0.24370217 1.9813185 138 117 99
-0.20209448 -0.24370217 1.9813185 137 115 96
-0.20011316 -0.24370217 1.9813185 133 112 93
-0.19813184 -0.24370217 1.9813185 133 113 93
-0.19615053 -0.24370217 1.9813185 133 112 93
-0.19416921 -0.24370217 1.9813185 130 108 90
-0.19296034 -0.24468167 1.9892819 127 104 88
-0.19020657 -0.24370217 1.9813185 131 110 92
-0.18898179 -0.24468167 1.9892819 136 118 100
-0.1869925 -0.24468167 1.9892819 139 118 100
-0.18500322 -0.24468167 1.9892819 141 120 102
-0.18375249 -0.2456691 1.9973097 144 122 103
-0.18175519 -0.2456691 1.9973097 144 121 102
-0.18048623 -0.24666452 2.0054026 143 123 104
-0.17848083 -0.24666452 2.0054026 144 125 106
-0.17647544 -0.24666452 2.0054026 144 126 106
-0.17447002 -0.24666452 2.0054026 144 123 102
-0.17246461 -0.24666452 2.0054026 145 124 106
-0.17045921 -0.24666452 2.0054026 143 124 106
-0.16845381 -0.24666452 2.0054026 146 125 102
-0.16314323 -0.24176648 1.9655812 142 116 97
-0.1486613 -0.22299194 1.8129426 165 126 101
-0.14196034 -0.2155694 1.7525969 181 128 100
-0.1386368 -0.21315406 1.7329599 186 130 99
-0.13690382 -0.21315406 1.7329599 187 131 98
-0.13517086 -0.21315406 1.7329599 189 131 103
-0.13343792 -0.21315406 1.7329599 192 130 101
-0.1312454 -0.21241035 1.7269133 195 130 98
-0.12897848 -0.21152468 1.7197129 198 129 97
-0.12725875 -0.21152468 1.7197129 196 128 94
-0.12510434 -0.21079226 1.7137581 196 127 91
-0.123390585 -0.21079226 1.7137581 195 126 88
-0.121676825 -0.21079226 1.7137581 197 126 87
-0.119963065 -0.21079226 1.7137581 196 128 89
-0.11824931 -0.21079226 1.7137581 203 129 92
-0.11653555 -0.21079226 1.7137581 207 130 97
-0.11482179 -0.21079226 1.7137581 212 133 99
-0.11310803 -0.21079226 1.7137581 213 135 102
-0.11093333 -0.20992 1.7066667 214 139 107
-0.10922667 -0.20992 1.7066667 217 143 111
-0.10752001 -0.20992 1.7066667 219 147 114
-0.106253006 -0.21079226 1.7137581 222 150 118
-0.104539245 -0.21079226 1.7137581 221 153 122
-0.102400005 -0.20992 1.7066667 219 152 123
-0.10069334 -0.20992 1.7066667 217 149 119
-0.09939797 -0.21079226 1.7137581 215 146 117
-0.09768421 -0.21079226 1.7137581 214 145 118
-0.09597045 -0.21079226 1.7137581 212 144 119
-0.0942567 -0.21079226 1.7137581 210 142 119
-0.09254294 -0.21079226 1.7137581 208 140 118
-0.09082918 -0.21079226 1.7137581 205 139 116
-0.089115426 -0.21079226 1.7137581 202 137 110
-0.087401666 -0.21079226 1.7137581 199 133 107
