ply
format ascii 1.0
element vertex 1075
property float32 x
property float32 y
property float32 z
property uchar red
property uchar green
property uchar blue
element face 0
property list uint8 int32 vertex_indices
end_header
0.015389719 -0.31856716 1.5389719 192 168 148
0.016928691 -0.31856716 1.5389719 205 183 161
0.018467663 -0.31856716 1.5389719 212 190 167
0.020006634 -0.31856716 1.5389719 212 190 169
0.021545606 -0.31856716 1.5389719 210 187 168
0.023084579 -0.31856716 1.5389719 220 196 174
0.02462355 -0.31856716 1.5389719 213 189 167
0.026162522 -0.31856716 1.5389719 207 182 161
0.027701493 -0.31856716 1.5389719 205 179 159
0.029240467 -0.31856716 1.5389719 204 178 158
0.030779438 -0.31856716 1.5389719 213 187 165
0.03231841 -0.31856716 1.5389719 210 184 163
0.033857383 -0.31856716 1.5389719 210 187 165
0.035396356 -0.31856716 1.5389719 215 192 169
0.03679802 -0.3173829 1.5332508 222 199 175
0.038331266 -0.3173829 1.5332508 184 162 143
0.03986452 -0.3173829 1.5332508 185 163 145
0.041397773 -0.3173829 1.5332508 199 177 156
0.042931024 -0.3173829 1.5332508 215 193 169
0.04446427 -0.3173829 1.5332508 214 193 170
0.045997523 -0.3173829 1.5332508 215 194 170
0.047530778 -0.3173829 1.5332508 216 194 170
0.049064025 -0.3173829 1.5332508 204 179 157
0.050597277 -0.3173829 1.5332508 207 185 162
0.052130528 -0.3173829 1.5332508 218 194 170
0.05366378 -0.3173829 1.5332508 213 190 167
0.05519703 -0.3173829 1.5332508 202 179 158
0.056730278 -0.3173829 1.5332508 200 177 156
0.05826353 -0.3173829 1.5332508 196 174 154
0.059796784 -0.3173829 1.5332508 191 170 150
0.061102882 -0.3162074 1.527572 207 185 163
0.06263045 -0.3162074 1.527572 214 195 172
0.06415803 -0.3162074 1.527572 219 199 177
0.0656856 -0.3162074 1.527572 215 193 172
0.06721317 -0.3162074 1.527572 197 176 158
0.06874074 -0.3162074 1.527572 217 196 173
0.07026831 -0.3162074 1.527572 203 185 163
0.07179588 -0.3162074 1.527572 203 184 160
0.07332346 -0.3162074 1.527572 196 176 152
0.07485103 -0.3162074 1.527572 173 154 133
0.0763786 -0.3162074 1.527572 167 147 127
0.07790618 -0.3162074 1.527572 169 147 126
0.07943375 -0.3162074 1.527572 155 135 116
0.08096132 -0.3162074 1.527572 154 135 115
0.082488894 -0.3162074 1.527572 160 139 120
0.084016465 -0.3162074 1.527572 155 134 115
0.085544035 -0.3162074 1.527572 138 119 102
0.087395296 -0.3173829 1.5332508 129 110 95
0.08892854 -0.3173829 1.5332508 128 109 94
0.0904618 -0.3173829 1.5332508 124 106 91
0.091995046 -0.3173829 1.5332508 120 103 89
0.0935283 -0.3173829 1.5332508 121 103 89
0.09470946 -0.3162074 1.527572 124 105 91
0.09623704 -0.3162074 1.527572 118 101 87
0.09776461 -0.3162074 1.527572 118 102 89
0.09892579 -0.3150406 1.5219352 121 105 91
0.10081976 -0.3162074 1.527572 120 104 90
0.10196966 -0.3150406 1.5219352 117 101 87
0.1038749 -0.3162074 1.527572 110 95 81
0.10540248 -0.3162074 1.527572 122 105 91
0.10732756 -0.3173829 1.5332508 122 105 91
0.10845761 -0.3162074 1.527572 121 105 91
0.10998518 -0.3162074 1.527572 118 102 88
0.11192731 -0.3173829 1.5332508 120 104 90
0.11304033 -0.3162074 1.527572 123 107 93
0.1145679 -0.3162074 1.527572 123 107 92
0.116095476 -0.3162074 1.527572 121 103 89
0.11806031 -0.3173829 1.5332508 120 105 89
0.119150616 -0.3162074 1.527572 119 103 88
0.121126816 -0.3173829 1.5332508 115 100 84
0.12266006 -0.3173829 1.5332508 116 100 85
0.12419331 -0.3173829 1.5332508 117 102 87
0.12572657 -0.3173829 1.5332508 116 100 86
0.12773466 -0.31856716 1.5389719 120 103 89
0.12927364 -0.31856716 1.5389719 119 102 88
0.1308126 -0.31856716 1.5389719 122 104 89
0.13235158 -0.31856716 1.5389719 117 99 86
0.13389055 -0.31856716 1.5389719 110 93 80
0.13542953 -0.31856716 1.5389719 107 90 76
0.13696851 -0.31856716 1.5389719 110 91 77
0.13850747 -0.31856716 1.5389719 112 92 79
0.13952582 -0.3173829 1.5332508 110 91 77
0.14158542 -0.31856716 1.5389719 111 92 78
0.14312439 -0.31856716 1.5389719 109 89 75
0.14466336 -0.31856716 1.5389719 112 92 79
0.14620233 -0.31856716 1.5389719 115 94 81
0.1477413 -0.31856716 1.5389719 112 91 78
0.14928028 -0.31856716 1.5389719 114 92 80
0.15081924 -0.31856716 1.5389719 113 92 81
0.15235822 -0.31856716 1.5389719 128 106 95
0.15389718 -0.31856716 1.5389719 144 122 108
0.15543616 -0.31856716 1.5389719 138 117 102
0.15697514 -0.31856716 1.5389719 147 125 107
0.1585141 -0.31856716 1.5389719 169 145 126
0.16005307 -0.31856716 1.5389719 175 152 133
0.16099133 -0.3173829 1.5332508 176 155 136
0.16252458 -0.3173829 1.5332508 189 167 150
0.16405784 -0.3173829 1.5332508 201 179 160
0.16559109 -0.3173829 1.5332508 200 176 158
0.16712435 -0.3173829 1.5332508 190 169 151
0.16865759 -0.3173829 1.5332508 208 185 166
0.17019084 -0.3173829 1.5332508 205 182 163
0.1717241 -0.3173829 1.5332508 216 192 171
0.17390382 -0.31856716 1.5389719 193 170 151
0.1754428 -0.31856716 1.5389719 184 161 143
0.17698176 -0.31856716 1.5389719 190 167 147
0.17852074 -0.31856716 1.5389719 204 179 157
0.1800597 -0.31856716 1.5389719 200 178 155
0.18159868 -0.31856716 1.5389719 204 180 159
0.18313766 -0.31856716 1.5389719 201 177 159
0.18467663 -0.31856716 1.5389719 201 178 160
0.18621561 -0.31856716 1.5389719 206 181 163
0.18775457 -0.31856716 1.5389719 207 185 165
0.18929355 -0.31856716 1.5389719 208 183 164
0.19083253 -0.31856716 1.5389719 207 185 164
0.19237149 -0.31856716 1.5389719 196 174 154
0.19391046 -0.31856716 1.5389719 193 172 152
0.19544943 -0.31856716 1.5389719 207 183 163
0.1969884 -0.31856716 1.5389719 214 189 167
0.19852738 -0.31856716 1.5389719 215 194 172
0.20006634 -0.31856716 1.5389719 213 190 168
0.20160532 -0.31856716 1.5389719 216 191 170
0.2023891 -0.3173829 1.5332508 208 183 162
0.20392236 -0.3173829 1.5332508 206 182 161
0.20545562 -0.3173829 1.5332508 205 183 162
0.20622224 -0.3162074 1.527572 202 180 158
0.2077498 -0.3162074 1.527572 186 166 146
0.20927738 -0.3162074 1.527572 191 169 149
0.21080495 -0.3162074 1.527572 198 176 155
0.21312186 -0.3173829 1.5332508 196 172 151
0.2138601 -0.3162074 1.527572 182 161 142
0.21538764 -0.3162074 1.527572 190 169 149
0.21691522 -0.3162074 1.527572 193 169 149
0.2184428 -0.3162074 1.527572 193 169 150
-0.21997036 -0.317735 1.527572 196 111 80
-0.21763673 -0.31656253 1.5219352 200 116 84
-0.21691522 -0.317735 1.527572 199 123 89
-0.21618837 -0.31891617 1.5332508 197 132 103
-0.21307094 -0.31656253 1.5219352 202 158 136
-0.21090049 -0.31559208 1.5172696 198 162 133
-0.20861576 -0.31443536 1.5117085 207 171 111
-0.20485157 -0.31101552 1.4952669 219 174 83
-0.19820653 -0.30313942 1.4574009 220 174 77
-0.19744681 -0.30421436 1.462569 221 176 81
-0.19668171 -0.30529696 1.4677739 217 175 89
-0.19521393 -0.30529696 1.4677739 218 178 93
-0.19525164 -0.30766925 1.4791791 218 178 101
-0.19446991 -0.30877665 1.4845031 219 179 112
-0.19368252 -0.30989203 1.4898655 218 180 120
-0.19288944 -0.31101552 1.4952669 212 177 124
-0.19279206 -0.31328708 1.5061879 212 179 131
-0.19128586 -0.31328708 1.5061879 208 178 135
-0.19047527 -0.31443536 1.5117085 206 178 140
-0.18896356 -0.31443536 1.5117085 204 176 138
-0.18814144 -0.31559208 1.5172696 206 177 137
-0.18662415 -0.31559208 1.5172696 206 177 141
-0.1856761 -0.31656253 1.5219352 187 159 130
-0.18415415 -0.31656253 1.5219352 167 143 119
-0.18330865 -0.317735 1.527572 188 164 141
-0.18178107 -0.317735 1.527572 195 171 151
-0.1809236 -0.31891617 1.5332508 206 180 159
-0.17939036 -0.31891617 1.5332508 201 176 156
-0.17785709 -0.31891617 1.5332508 193 169 147
-0.17632383 -0.31891617 1.5332508 191 169 146
-0.17479059 -0.31891617 1.5332508 195 173 148
-0.17325734 -0.31891617 1.5332508 195 173 148
-0.17236485 -0.32010615 1.5389719 192 170 147
-0.17019084 -0.31891617 1.5332508 190 169 145
-0.1692869 -0.32010615 1.5389719 195 171 146
-0.16774794 -0.32010615 1.5389719 201 177 150
-0.16559109 -0.31891617 1.5332508 204 180 154
-0.16345021 -0.317735 1.527572 203 182 158
-0.16192263 -0.317735 1.527572 200 178 158
-0.16039507 -0.317735 1.527572 200 176 159
-0.1588675 -0.317735 1.527572 203 179 161
-0.15792483 -0.31891617 1.5332508 200 180 158
-0.15639159 -0.31891617 1.5332508 201 180 159
-0.15428478 -0.317735 1.527572 198 177 155
-0.1527572 -0.317735 1.527572 196 174 153
-0.15067159 -0.31656253 1.5219352 199 177 154
-0.14869243 -0.31559208 1.5172696 198 177 154
-0.14717516 -0.31559208 1.5172696 198 177 154
-0.14512402 -0.31443536 1.5117085 204 182 158
-0.14361231 -0.31443536 1.5117085 204 183 162
-0.1421006 -0.31443536 1.5117085 204 183 161
-0.1405889 -0.31443536 1.5117085 204 184 159
-0.13907717 -0.31443536 1.5117085 202 182 158
-0.13807154 -0.31559208 1.5172696 207 184 160
-0.13655426 -0.31559208 1.5172696 195 172 149
-0.135037 -0.31559208 1.5172696 188 167 145
-0.1339303 -0.31656253 1.5219352 185 165 143
-0.13240837 -0.31656253 1.5219352 180 163 140
-0.1313712 -0.317735 1.527572 175 156 136
-0.12984362 -0.317735 1.527572 168 151 129
-0.12831606 -0.317735 1.527572 162 145 121
-0.12678848 -0.317735 1.527572 150 131 110
-0.12479869 -0.31656253 1.5219352 141 122 100
-0.123733334 -0.317735 1.527572 137 118 96
-0.121754825 -0.31656253 1.5219352 132 114 94
-0.12023288 -0.31656253 1.5219352 128 111 93
-0.11871094 -0.31656253 1.5219352 134 115 94
-0.11718901 -0.31656253 1.5219352 135 115 94
-0.115667075 -0.31656253 1.5219352 128 110 90
-0.114145145 -0.31656253 1.5219352 127 109 89
-0.11262321 -0.31656253 1.5219352 115 99 82
-0.11110127 -0.31656253 1.5219352 124 106 90
-0.10957934 -0.31656253 1.5219352 125 106 91
-0.1080574 -0.31656253 1.5219352 124 106 90
-0.10653547 -0.31656253 1.5219352 124 107 91
-0.10501353 -0.31656253 1.5219352 126 107 90
-0.10349159 -0.31656253 1.5219352 131 111 93
-0.10234733 -0.317735 1.527572 128 108 91
-0.10044772 -0.31656253 1.5219352 124 106 89
-0.09892579 -0.31656253 1.5219352 122 105 89
-0.097403854 -0.31656253 1.5219352 122 104 89
-0.09588192 -0.31656253 1.5219352 120 103 88
-0.09407072 -0.31559208 1.5172696 121 104 89
-0.09283805 -0.31656253 1.5219352 121 105 89
-0.09131612 -0.31656253 1.5219352 126 107 91
-0.08979418 -0.31656253 1.5219352 123 105 89
-0.08800164 -0.31559208 1.5172696 122 105 89
-0.086750306 -0.31656253 1.5219352 124 107 90
-0.08522837 -0.31656253 1.5219352 121 104 88
-0.08370644 -0.31656253 1.5219352 120 103 87
-0.0821845 -0.31656253 1.5219352 123 105 88
-0.08066256 -0.31656253 1.5219352 121 105 88
-0.07914063 -0.31656253 1.5219352 122 105 90
-0.077618696 -0.31656253 1.5219352 126 107 92
-0.07586348 -0.31559208 1.5172696 126 107 92
-0.074346215 -0.31559208 1.5172696 124 105 90
-0.07305289 -0.31656253 1.5219352 125 105 91
-0.07131167 -0.31559208 1.5172696 125 107 92
-0.0697944 -0.31559208 1.5172696 121 103 88
-0.06827713 -0.31559208 1.5172696 119 101 87
-0.06675986 -0.31559208 1.5172696 121 102 88
-0.06544322 -0.31656253 1.5219352 123 105 90
-0.06392128 -0.31656253 1.5219352 125 106 91
-0.062208053 -0.31559208 1.5172696 125 106 91
-0.060877413 -0.31656253 1.5219352 122 103 88
-0.05935547 -0.31656253 1.5219352 123 104 86
-0.057656247 -0.31559208 1.5172696 126 105 87
-0.056311604 -0.31656253 1.5219352 122 101 85
-0.05499259 -0.317735 1.527572 115 95 80
-0.053267736 -0.31656253 1.5219352 115 96 82
-0.051745795 -0.31656253 1.5219352 120 102 86
-0.05040988 -0.317735 1.527572 133 113 95
-0.048882306 -0.317735 1.527572 150 130 113
-0.04735473 -0.317735 1.527572 159 138 121
-0.04582716 -0.317735 1.527572 159 140 123
-0.04413612 -0.31656253 1.5219352 162 143 125
-0.042614184 -0.31656253 1.5219352 169 149 131
-0.04109225 -0.31656253 1.5219352 181 159 140
-0.039570317 -0.31656253 1.5219352 184 162 142
-0.038048383 -0.31656253 1.5219352 194 170 149
-0.036526445 -0.31656253 1.5219352 202 178 157
-0.035004508 -0.31656253 1.5219352 196 175 153
-0.033606585 -0.317735 1.527572 186 164 145
-0.03196064 -0.31656253 1.5219352 194 172 152
-0.030438706 -0.31656253 1.5219352 200 179 158
-0.028916769 -0.31656253 1.5219352 206 186 164
-0.027394835 -0.31656253 1.5219352 211 191 169
-0.025872897 -0.31656253 1.5219352 204 182 161
-0.024350964 -0.31656253 1.5219352 199 177 157
-0.02282903 -0.31656253 1.5219352 203 180 160
-0.021307092 -0.31656253 1.5219352 201 177 158
-0.019785158 -0.31656253 1.5219352 203 179 160
-0.018330865 -0.317735 1.527572 204 180 161
-0.016803293 -0.317735 1.527572 202 181 160
-0.0152757205 -0.317735 1.527572 199 175 154
-0.0137481475 -0.317735 1.527572 196 175 151
-0.012220576 -0.317735 1.527572 202 178 154
-0.010693004 -0.317735 1.527572 203 180 155
-0.009165432 -0.317735 1.527572 200 174 151
-0.0076378603 -0.317735 1.527572 189 168 148
-0.006110288 -0.317735 1.527572 193 170 150
-0.0045658057 -0.31656253 1.5219352 206 183 161
-0.0030438704 -0.31656253 1.5219352 218 194 170
-0.0015219352 -0.31656253 1.5219352 209 187 165
0.0 -0.317735 1.527572 200 179 157
0.001527572 -0.317735 1.527572 210 188 165
0.003055144 -0.317735 1.527572 208 188 165
0.0045997524 -0.31891617 1.5332508 210 188 165
0.006133003 -0.31891617 1.5332508 213 191 168
0.007666254 -0.31891617 1.5332508 209 187 165
0.009199505 -0.31891617 1.5332508 206 184 161
0.010732756 -0.31891617 1.5332508 203 182 159
0.012266006 -0.31891617 1.5332508 199 175 153
0.013799258 -0.31891617 1.5332508 203 178 155
0.015332508 -0.31891617 1.5332508 206 182 159
0.016865758 -0.31891617 1.5332508 200 179 157
0.01839901 -0.31891617 1.5332508 200 179 158
0.01993226 -0.31891617 1.5332508 207 186 165
0.021465512 -0.31891617 1.5332508 208 185 164
0.022998761 -0.31891617 1.5332508 203 182 162
0.024532013 -0.31891617 1.5332508 199 176 156
0.026065264 -0.31891617 1.5332508 199 174 154
0.027598515 -0.31891617 1.5332508 209 183 162
0.029131765 -0.31891617 1.5332508 208 181 161
0.030665016 -0.31891617 1.5332508 219 192 170
0.032198265 -0.31891617 1.5332508 209 184 163
0.033731516 -0.31891617 1.5332508 208 187 164
0.03526477 -0.31891617 1.5332508 201 180 158
0.03666173 -0.317735 1.527572 216 194 170
0.0381893 -0.317735 1.527572 209 184 163
0.039716873 -0.317735 1.527572 210 185 164
0.041244447 -0.317735 1.527572 201 178 157
0.042772017 -0.317735 1.527572 197 174 154
0.044299588 -0.317735 1.527572 217 195 172
0.04582716 -0.317735 1.527572 216 192 170
0.04735473 -0.317735 1.527572 216 191 169
0.048882306 -0.317735 1.527572 202 179 158
0.05040988 -0.317735 1.527572 200 177 155
0.05193745 -0.317735 1.527572 202 179 158
0.053465024 -0.317735 1.527572 208 185 164
0.05499259 -0.317735 1.527572 205 186 163
0.056520164 -0.317735 1.527572 198 177 156
0.058047738 -0.317735 1.527572 211 188 165
0.059575308 -0.317735 1.527572 190 168 149
0.061102882 -0.317735 1.527572 176 158 140
0.06263045 -0.317735 1.527572 206 184 163
0.06415803 -0.317735 1.527572 207 190 168
0.0656856 -0.317735 1.527572 215 196 173
0.06721317 -0.317735 1.527572 223 200 178
0.06874074 -0.317735 1.527572 211 190 168
0.07026831 -0.317735 1.527572 209 192 168
0.07179588 -0.317735 1.527572 197 180 154
0.07305289 -0.31656253 1.5219352 199 179 153
0.07457483 -0.31656253 1.5219352 194 175 148
0.076096766 -0.31656253 1.5219352 182 162 138
0.077618696 -0.31656253 1.5219352 178 155 133
0.07914063 -0.31656253 1.5219352 166 144 124
0.08066256 -0.31656253 1.5219352 155 136 116
0.082488894 -0.317735 1.527572 159 137 117
0.08370644 -0.31656253 1.5219352 150 131 112
0.085544035 -0.317735 1.527572 134 116 100
0.08707161 -0.317735 1.527572 130 112 96
0.088599175 -0.317735 1.527572 130 111 95
0.090126745 -0.317735 1.527572 127 109 93
0.09165432 -0.317735 1.527572 126 107 92
0.09318189 -0.317735 1.527572 130 111 95
0.09470946 -0.317735 1.527572 133 113 96
0.09623704 -0.317735 1.527572 121 102 88
0.097403854 -0.31656253 1.5219352 121 104 89
0.09892579 -0.31656253 1.5219352 127 109 94
0.10044772 -0.31656253 1.5219352 126 109 93
0.10196966 -0.31656253 1.5219352 119 102 88
0.10349159 -0.31656253 1.5219352 117 101 87
0.10501353 -0.31656253 1.5219352 119 102 88
0.10653547 -0.31656253 1.5219352 111 96 82
0.1080574 -0.31656253 1.5219352 115 99 85
0.10957934 -0.31656253 1.5219352 120 104 90
0.11151276 -0.317735 1.527572 121 104 91
0.11262321 -0.31656253 1.5219352 122 105 91
0.114145145 -0.31656253 1.5219352 124 106 92
0.115667075 -0.31656253 1.5219352 129 111 95
0.11718901 -0.31656253 1.5219352 125 109 93
0.11871094 -0.31656253 1.5219352 121 105 90
0.120678194 -0.317735 1.527572 119 104 88
0.122205764 -0.317735 1.527572 116 100 85
0.123733334 -0.317735 1.527572 116 101 86
0.1252609 -0.317735 1.527572 115 99 86
0.12725982 -0.31891617 1.5332508 119 102 88
0.12831606 -0.317735 1.527572 119 102 88
0.12984362 -0.317735 1.527572 123 107 90
0.1313712 -0.317735 1.527572 123 105 90
0.13339283 -0.31891617 1.5332508 121 102 88
0.13492607 -0.31891617 1.5332508 115 95 82
0.13595392 -0.317735 1.527572 117 98 84
0.13748148 -0.317735 1.527572 113 93 79
0.13952582 -0.31891617 1.5332508 111 92 78
0.14105909 -0.31891617 1.5332508 111 92 77
0.14259233 -0.31891617 1.5332508 111 90 77
0.14412558 -0.31891617 1.5332508 113 93 80
0.14565884 -0.31891617 1.5332508 111 91 78
0.14719208 -0.31891617 1.5332508 113 92 79
0.14817448 -0.317735 1.527572 115 93 84
0.15025857 -0.31891617 1.5332508 120 96 88
0.15179183 -0.31891617 1.5332508 129 107 98
0.15332507 -0.31891617 1.5332508 140 118 108
0.15485834 -0.31891617 1.5332508 147 126 111
0.15639159 -0.31891617 1.5332508 151 131 113
0.15733992 -0.317735 1.527572 171 147 127
0.1588675 -0.317735 1.527572 184 159 139
0.16039507 -0.317735 1.527572 181 159 139
0.16192263 -0.317735 1.527572 169 148 134
0.16345021 -0.317735 1.527572 197 172 155
0.16497779 -0.317735 1.527572 205 184 163
0.16650535 -0.317735 1.527572 214 187 168
0.16803293 -0.317735 1.527572 199 178 159
0.1695605 -0.317735 1.527572 204 182 162
0.17108807 -0.317735 1.527572 210 187 166
0.17325734 -0.31891617 1.5332508 195 174 154
0.17479059 -0.31891617 1.5332508 181 160 141
0.17632383 -0.31891617 1.5332508 191 167 147
0.17785709 -0.31891617 1.5332508 198 174 153
0.17939036 -0.31891617 1.5332508 187 165 145
0.1809236 -0.31891617 1.5332508 192 171 151
0.18245685 -0.31891617 1.5332508 195 172 154
0.18399009 -0.31891617 1.5332508 194 172 154
0.18552335 -0.31891617 1.5332508 200 176 157
0.1870566 -0.31891617 1.5332508 202 180 159
0.18858984 -0.31891617 1.5332508 201 180 160
0.19012311 -0.31891617 1.5332508 204 181 161
0.19165635 -0.31891617 1.5332508 206 183 162
0.1931896 -0.31891617 1.5332508 199 175 156
0.19400164 -0.317735 1.527572 193 170 151
0.19552922 -0.317735 1.527572 203 178 158
0.1970568 -0.317735 1.527572 209 188 167
0.19858436 -0.317735 1.527572 212 190 168
0.20011194 -0.317735 1.527572 206 184 163
0.20163952 -0.317735 1.527572 204 181 161
0.20241739 -0.31656253 1.5219352 199 175 155
0.20393932 -0.31656253 1.5219352 205 181 160
0.20546126 -0.31656253 1.5219352 204 182 159
0.20698318 -0.31656253 1.5219352 201 177 156
0.20850512 -0.31656253 1.5219352 183 161 142
0.21002705 -0.31656253 1.5219352 178 157 138
0.211549 -0.31656253 1.5219352 191 168 148
0.21307094 -0.31656253 1.5219352 192 168 148
0.21459286 -0.31656253 1.5219352 183 163 143
0.2161148 -0.31656253 1.5219352 195 173 152
0.21763673 -0.31656253 1.5219352 204 180 158
-0.21915868 -0.31808448 1.5219352 198 112 74
-0.21763673 -0.31808448 1.5219352 198 115 82
-0.2161148 -0.31808448 1.5219352 196 119 87
-0.21459286 -0.31808448 1.5219352 199 128 94
-0.21307094 -0.31808448 1.5219352 193 137 107
-0.2078421 -0.31251076 1.4952669 206 159 98
-0.2032762 -0.3078603 1.4730159 227 173 45
-0.19826278 -0.3024593 1.4471736 241 178 0
-0.19465278 -0.29913554 1.4312705 242 178 0
-0.19400698 -0.30035153 1.4370887 244 180 0
-0.19256988 -0.30035153 1.4370887 243 178 0
-0.1918011 -0.30140173 1.4421135 244 178 0
-0.19102691 -0.3024593 1.4471736 243 177 0
-0.18957974 -0.3024593 1.4471736 242 178 0
-0.18813257 -0.3024593 1.4471736 240 178 0
-0.18734273 -0.30352426 1.4522692 237 178 0
-0.18654732 -0.3045968 1.4574009 236 179 0
-0.18508992 -0.3045968 1.4574009 232 178 10
-0.18428369 -0.3056769 1.462569 230 179 35
-0.18282112 -0.3056769 1.462569 229 179 53
-0.18200396 -0.30676475 1.4677739 226 180 60
-0.1805362 -0.30676475 1.4677739 226 179 65
-0.17970794 -0.3078603 1.4730159 216 171 66
-0.17823492 -0.3078603 1.4730159 209 163 69
-0.1775015 -0.30914843 1.4791791 216 171 80
-0.17665587 -0.31026116 1.4845031 217 174 93
-0.17517138 -0.31026116 1.4845031 217 177 109
-0.17368688 -0.31026116 1.4845031 216 182 126
-0.17220236 -0.31026116 1.4845031 214 181 133
-0.17133453 -0.3113819 1.4898655 212 179 134
-0.16984467 -0.3113819 1.4898655 207 175 136
-0.16835481 -0.3113819 1.4898655 204 174 138
-0.16807924 -0.31364787 1.5007075 198 168 144
-0.16657853 -0.31364787 1.5007075 191 162 141
-0.16568066 -0.3147933 1.5061879 188 162 138
-0.16477624 -0.3159471 1.5117085 193 168 145
-0.16326451 -0.3159471 1.5117085 201 176 155
-0.16116211 -0.3147933 1.5061879 195 173 150
-0.15965591 -0.3147933 1.5061879 195 173 149
-0.15872939 -0.3159471 1.5117085 197 174 150
-0.15779604 -0.31710935 1.5172696 189 168 144
-0.15570597 -0.3159471 1.5117085 195 173 149
-0.15419427 -0.3159471 1.5117085 201 179 155
-0.15268256 -0.3159471 1.5117085 198 176 155
-0.15117085 -0.3159471 1.5117085 199 177 153
-0.14965913 -0.3159471 1.5117085 195 174 149
-0.14814743 -0.3159471 1.5117085 193 171 144
-0.14663573 -0.3159471 1.5117085 183 163 141
-0.14512402 -0.3159471 1.5117085 187 166 143
-0.14361231 -0.3159471 1.5117085 193 173 150
-0.1421006 -0.3159471 1.5117085 195 174 153
-0.1405889 -0.3159471 1.5117085 192 173 150
-0.13907717 -0.3159471 1.5117085 202 181 157
-0.13756548 -0.3159471 1.5117085 202 180 156
-0.13605377 -0.3159471 1.5117085 191 170 148
-0.13454205 -0.3159471 1.5117085 183 164 142
-0.13351972 -0.31710935 1.5172696 174 155 135
-0.13200246 -0.31710935 1.5172696 182 161 138
-0.13088644 -0.31808448 1.5219352 181 159 137
-0.12936449 -0.31808448 1.5219352 171 152 130
-0.12784256 -0.31808448 1.5219352 163 142 121
-0.12678848 -0.31926253 1.527572 153 133 113
-0.12479869 -0.31808448 1.5219352 145 126 106
-0.123276755 -0.31808448 1.5219352 136 118 99
-0.121754825 -0.31808448 1.5219352 131 112 94
-0.12023288 -0.31808448 1.5219352 135 117 96
-0.118347034 -0.31710935 1.5172696 136 117 97
-0.11682976 -0.31710935 1.5172696 134 114 95
-0.115312494 -0.31710935 1.5172696 125 108 89
-0.11379522 -0.31710935 1.5172696 129 110 92
-0.11186643 -0.3159471 1.5117085 126 107 90
-0.11076068 -0.31710935 1.5172696 126 107 89
-0.10924341 -0.31710935 1.5172696 127 107 90
-0.10772614 -0.31710935 1.5172696 127 108 90
-0.10620887 -0.31710935 1.5172696 129 108 91
-0.1046916 -0.31710935 1.5172696 130 112 92
-0.10317433 -0.31710935 1.5172696 133 113 94
-0.10165706 -0.31710935 1.5172696 121 103 86
-0.1001398 -0.31710935 1.5172696 121 103 87
-0.09862253 -0.31710935 1.5172696 122 105 89
-0.09710526 -0.31710935 1.5172696 119 102 86
-0.095587984 -0.31710935 1.5172696 121 102 87
-0.09407072 -0.31710935 1.5172696 127 107 91
-0.092553444 -0.31710935 1.5172696 125 107 91
-0.09103618 -0.31710935 1.5172696 124 106 90
-0.089518905 -0.31710935 1.5172696 122 104 88
-0.087679096 -0.3159471 1.5117085 116 101 85
-0.086484365 -0.31710935 1.5172696 120 103 87
-0.0849671 -0.31710935 1.5172696 124 106 90
-0.083449826 -0.31710935 1.5172696 121 104 88
-0.08163226 -0.3159471 1.5117085 121 104 88
-0.08012055 -0.3159471 1.5117085 123 105 88
-0.07889802 -0.31710935 1.5172696 126 108 92
-0.07709713 -0.3159471 1.5117085 123 106 89
-0.07586348 -0.31710935 1.5172696 134 113 96
-0.074346215 -0.31710935 1.5172696 116 100 85
-0.07282894 -0.31710935 1.5172696 125 105 90
-0.07131167 -0.31710935 1.5172696 131 111 94
-0.0697944 -0.31710935 1.5172696 122 106 89
-0.06827713 -0.31710935 1.5172696 121 103 87
-0.06675986 -0.31710935 1.5172696 122 103 89
-0.06524259 -0.31710935 1.5172696 121 102 89
-0.06372532 -0.31710935 1.5172696 124 105 91
-0.062208053 -0.31710935 1.5172696 126 106 91
-0.060690783 -0.31710935 1.5172696 124 106 91
-0.059173517 -0.31710935 1.5172696 120 101 86
-0.057656247 -0.31710935 1.5172696 126 106 89
-0.056138977 -0.31710935 1.5172696 123 103 87
-0.054621704 -0.31710935 1.5172696 121 102 86
-0.053104434 -0.31710935 1.5172696 120 101 83
-0.051587164 -0.31710935 1.5172696 121 102 85
-0.0500699 -0.31710935 1.5172696 120 102 87
-0.04855263 -0.31710935 1.5172696 136 117 98
-0.04703536 -0.31710935 1.5172696 147 128 108
-0.04551809 -0.31710935 1.5172696 162 142 121
-0.04400082 -0.31710935 1.5172696 161 142 121
-0.04248355 -0.31710935 1.5172696 157 138 118
-0.04109225 -0.31808448 1.5219352 167 148 127
-0.03944901 -0.31710935 1.5172696 183 163 140
-0.03793174 -0.31710935 1.5172696 191 170 147
-0.036526445 -0.31808448 1.5219352 186 165 144
-0.035004508 -0.31808448 1.5219352 181 161 140
-0.033482574 -0.31808448 1.5219352 187 164 143
-0.03196064 -0.31808448 1.5219352 191 168 147
-0.030345391 -0.31710935 1.5172696 198 175 153
-0.028916769 -0.31808448 1.5219352 205 185 160
-0.027394835 -0.31808448 1.5219352 204 181 161
-0.025793582 -0.31710935 1.5172696 198 177 157
-0.024350964 -0.31808448 1.5219352 198 175 155
-0.02282903 -0.31808448 1.5219352 200 176 158
-0.021307092 -0.31808448 1.5219352 207 181 162
-0.019785158 -0.31808448 1.5219352 195 174 155
-0.018330865 -0.31926253 1.527572 201 178 159
-0.016803293 -0.31926253 1.527572 206 183 164
-0.0152757205 -0.31926253 1.527572 202 177 156
-0.013697417 -0.31808448 1.5219352 197 175 151
-0.012175482 -0.31808448 1.5219352 197 173 151
-0.010653546 -0.31808448 1.5219352 195 173 150
-0.009165432 -0.31926253 1.527572 192 171 147
-0.0076378603 -0.31926253 1.527572 197 175 154
-0.006110288 -0.31926253 1.527572 204 179 159
-0.0045658057 -0.31808448 1.5219352 198 178 156
-0.0030438704 -0.31808448 1.5219352 208 185 164
-0.0015219352 -0.31808448 1.5219352 203 182 160
0.0 -0.31808448 1.5219352 206 185 162
0.0015219352 -0.31808448 1.5219352 205 185 162
0.0030438704 -0.31808448 1.5219352 208 186 163
0.004582716 -0.31926253 1.527572 211 187 165
0.006110288 -0.31926253 1.527572 194 174 153
0.0076378603 -0.31926253 1.527572 207 186 163
0.009165432 -0.31926253 1.527572 211 187 166
0.010693004 -0.31926253 1.527572 204 184 161
0.012220576 -0.31926253 1.527572 196 173 151
0.0137481475 -0.31926253 1.527572 189 169 147
0.0152757205 -0.31926253 1.527572 199 174 153
0.016803293 -0.31926253 1.527572 199 176 155
0.018330865 -0.31926253 1.527572 203 181 160
0.019858437 -0.31926253 1.527572 197 175 156
0.021386009 -0.31926253 1.527572 206 183 163
0.02291358 -0.31926253 1.527572 202 182 161
0.024441153 -0.31926253 1.527572 193 169 150
0.025968725 -0.31926253 1.527572 197 171 152
0.027496295 -0.31926253 1.527572 198 174 154
0.029023869 -0.31926253 1.527572 202 177 156
0.030551441 -0.31926253 1.527572 209 186 164
0.032079015 -0.31926253 1.527572 212 189 166
0.033606585 -0.31926253 1.527572 214 190 167
0.035134155 -0.31926253 1.527572 198 176 156
0.03666173 -0.31926253 1.527572 213 190 167
0.0381893 -0.31926253 1.527572 212 186 165
0.039716873 -0.31926253 1.527572 211 185 164
0.041244447 -0.31926253 1.527572 210 186 164
0.042772017 -0.31926253 1.527572 192 170 150
0.044299588 -0.31926253 1.527572 213 190 167
0.04582716 -0.31926253 1.527572 221 197 173
0.04735473 -0.31926253 1.527572 214 193 169
0.048882306 -0.31926253 1.527572 208 186 164
0.05040988 -0.31926253 1.527572 213 190 166
0.05193745 -0.31926253 1.527572 207 184 162
0.053465024 -0.31926253 1.527572 203 180 158
0.05499259 -0.31926253 1.527572 201 179 157
0.056520164 -0.31926253 1.527572 209 186 163
0.058047738 -0.31926253 1.527572 206 186 163
0.059575308 -0.31926253 1.527572 206 185 164
0.060877413 -0.31808448 1.5219352 206 181 161
0.062399346 -0.31808448 1.5219352 214 190 168
0.06392128 -0.31808448 1.5219352 220 199 176
0.06544322 -0.31808448 1.5219352 205 185 165
0.06696515 -0.31808448 1.5219352 210 191 169
0.068487085 -0.31808448 1.5219352 208 191 167
0.070009016 -0.31808448 1.5219352 206 186 163
0.07153095 -0.31808448 1.5219352 197 175 152
0.07282894 -0.31710935 1.5172696 199 176 153
0.07457483 -0.31808448 1.5219352 194 172 148
0.076096766 -0.31808448 1.5219352 191 170 144
0.077618696 -0.31808448 1.5219352 177 156 133
0.07914063 -0.31808448 1.5219352 163 141 121
0.08066256 -0.31808448 1.5219352 152 132 113
0.0821845 -0.31808448 1.5219352 153 131 112
0.08370644 -0.31808448 1.5219352 146 127 108
0.085544035 -0.31926253 1.527572 130 111 95
0.086750306 -0.31808448 1.5219352 128 109 93
0.08827224 -0.31808448 1.5219352 128 109 93
0.08979418 -0.31808448 1.5219352 129 109 93
0.09131612 -0.31808448 1.5219352 129 110 93
0.09283805 -0.31808448 1.5219352 132 112 95
0.09435999 -0.31808448 1.5219352 130 110 94
0.09588192 -0.31808448 1.5219352 116 99 84
0.097403854 -0.31808448 1.5219352 124 106 90
0.09892579 -0.31808448 1.5219352 132 114 96
0.10044772 -0.31808448 1.5219352 129 110 95
0.10196966 -0.31808448 1.5219352 124 105 91
0.10317433 -0.31710935 1.5172696 118 100 87
0.1046916 -0.31710935 1.5172696 124 105 91
0.10620887 -0.31710935 1.5172696 121 102 89
0.10772614 -0.31710935 1.5172696 113 97 84
0.10924341 -0.31710935 1.5172696 119 102 89
0.11076068 -0.31710935 1.5172696 119 103 89
0.112277955 -0.31710935 1.5172696 120 103 89
0.11379522 -0.31710935 1.5172696 120 103 90
0.115312494 -0.31710935 1.5172696 128 111 94
0.11682976 -0.31710935 1.5172696 127 111 94
0.118347034 -0.31710935 1.5172696 122 107 91
0.12023288 -0.31808448 1.5219352 122 106 90
0.121754825 -0.31808448 1.5219352 116 100 86
0.123276755 -0.31808448 1.5219352 114 98 83
0.12479869 -0.31808448 1.5219352 118 100 87
0.12632063 -0.31808448 1.5219352 117 102 87
0.12784256 -0.31808448 1.5219352 121 104 91
0.12984362 -0.31926253 1.527572 126 107 93
0.1313712 -0.31926253 1.527572 125 106 93
0.13289878 -0.31926253 1.527572 121 102 90
0.13442634 -0.31926253 1.527572 121 101 89
0.13595392 -0.31926253 1.527572 118 99 85
0.13748148 -0.31926253 1.527572 116 98 84
0.13900904 -0.31926253 1.527572 110 91 77
0.14053662 -0.31926253 1.527572 110 92 78
0.1420642 -0.31926253 1.527572 113 93 80
0.14359176 -0.31926253 1.527572 114 93 80
0.14511934 -0.31926253 1.527572 113 92 79
0.14664692 -0.31926253 1.527572 114 93 81
0.14817448 -0.31926253 1.527572 115 95 82
0.14970206 -0.31926253 1.527572 122 99 88
0.15179183 -0.32044944 1.5332508 132 111 98
0.15332507 -0.32044944 1.5332508 142 122 106
0.15428478 -0.31926253 1.527572 148 128 113
0.15581235 -0.31926253 1.527572 155 133 118
0.15733992 -0.31926253 1.527572 171 148 131
0.1588675 -0.31926253 1.527572 179 160 141
0.16039507 -0.31926253 1.527572 186 163 145
0.16192263 -0.31926253 1.527572 176 157 138
0.16345021 -0.31926253 1.527572 191 170 148
0.16497779 -0.31926253 1.527572 204 183 159
0.16650535 -0.31926253 1.527572 212 191 165
0.16803293 -0.31926253 1.527572 213 189 170
0.1695605 -0.31926253 1.527572 199 180 161
0.17108807 -0.31926253 1.527572 204 183 162
0.17261565 -0.31926253 1.527572 201 177 157
0.17414322 -0.31926253 1.527572 199 175 155
0.17567079 -0.31926253 1.527572 199 176 154
0.17719835 -0.31926253 1.527572 197 174 151
0.17872593 -0.31926253 1.527572 194 170 150
0.18025349 -0.31926253 1.527572 183 161 143
0.18178107 -0.31926253 1.527572 176 156 138
0.18330865 -0.31926253 1.527572 183 162 144
0.18483621 -0.31926253 1.527572 194 170 151
0.18636379 -0.31926253 1.527572 198 174 155
0.18789136 -0.31926253 1.527572 201 180 159
0.18871997 -0.31808448 1.5219352 203 180 160
0.1902419 -0.31808448 1.5219352 203 178 158
0.19176383 -0.31808448 1.5219352 197 173 155
0.19328576 -0.31808448 1.5219352 198 175 155
0.19552922 -0.31926253 1.527572 203 179 159
0.19632965 -0.31808448 1.5219352 203 178 158
0.19785158 -0.31808448 1.5219352 205 183 162
0.19937351 -0.31808448 1.5219352 209 184 164
0.20089544 -0.31808448 1.5219352 207 183 161
0.20241739 -0.31808448 1.5219352 189 168 148
0.20331413 -0.31710935 1.5172696 184 164 145
0.20483139 -0.31710935 1.5172696 205 180 158
0.20634866 -0.31710935 1.5172696 196 174 153
0.20786594 -0.31710935 1.5172696 195 171 151
0.2093832 -0.31710935 1.5172696 188 165 145
0.21090049 -0.31710935 1.5172696 170 149 132
0.21241774 -0.31710935 1.5172696 187 165 146
0.21393502 -0.31710935 1.5172696 200 178 156
0.21545228 -0.31710935 1.5172696 197 175 154
0.21696956 -0.31710935 1.5172696 202 177 156
-0.21848682 -0.3186266 1.5172696 196 113 77
-0.21696956 -0.3186266 1.5172696 201 121 86
-0.2161148 -0.3196064 1.5219352 201 124 96
-0.21459286 -0.3196064 1.5219352 201 128 97
-0.20858118 -0.31287175 1.4898655 192 130 84
-0.2032971 -0.3071395 1.462569 232 167 37
-0.19970997 -0.30390647 1.4471736 243 180 0
-0.19608407 -0.3005668 1.4312705 247 179 0
-0.19331113 -0.2984951 1.4214053 249 179 0
-0.19255333 -0.2995274 1.4263209 247 179 0
-0.191127 -0.2995274 1.4263209 249 179 0
-0.18970068 -0.2995274 1.4263209 247 179 0
-0.1876255 -0.2984951 1.4214053 247 179 0
-0.1862041 -0.2984951 1.4214053 247 179 0
-0.18542172 -0.2995274 1.4263209 247 179 0
-0.1839954 -0.2995274 1.4263209 249 179 0
-0.18256907 -0.2995274 1.4263209 248 179 0
-0.18177135 -0.3005668 1.4312705 246 181 0
-0.18034008 -0.3005668 1.4312705 246 181 0
-0.17890881 -0.3005668 1.4312705 248 179 0
-0.17819901 -0.30178863 1.4370887 247 178 0
-0.17676191 -0.30178863 1.4370887 246 179 0
-0.17532483 -0.30178863 1.4370887 244 178 0
-0.17449574 -0.30284384 1.4421135 244 178 0
-0.17305362 -0.30284384 1.4421135 244 178 0
-0.17161152 -0.30284384 1.4421135 241 178 0
-0.17016938 -0.30284384 1.4421135 239 179 0
-0.1693193 -0.30390647 1.4471736 242 179 0
-0.16787213 -0.30390647 1.4471736 236 182 16
-0.16584305 -0.30284384 1.4421135 234 183 35
-0.16440094 -0.30284384 1.4421135 234 181 49
-0.16295883 -0.30284384 1.4421135 234 181 60
-0.16265415 -0.30497652 1.4522692 227 181 71
-0.16120188 -0.30497652 1.4522692 223 180 78
-0.15974961 -0.30497652 1.4522692 208 166 76
-0.15942001 -0.3071395 1.462569 209 169 86
-0.15908572 -0.30933335 1.4730159 212 174 99
-0.15827218 -0.31062764 1.4791791 211 174 110
-0.15679298 -0.31062764 1.4791791 209 174 116
-0.15587284 -0.31174567 1.4845031 203 174 121
-0.15550776 -0.31400603 1.4952669 203 174 128
-0.1540125 -0.31400603 1.4952669 202 177 137
-0.15251723 -0.31400603 1.4952669 206 180 150
-0.15157145 -0.3151486 1.5007075 207 179 157
-0.14952669 -0.31400603 1.4952669 209 183 152
-0.14803141 -0.31400603 1.4952669 196 174 142
-0.14706933 -0.3151486 1.5007075 193 169 141
-0.14610024 -0.31629947 1.5061879 201 177 150
-0.14406791 -0.3151486 1.5007075 200 178 153
-0.14308785 -0.31629947 1.5061879 202 180 158
-0.14158167 -0.31629947 1.5061879 199 178 154
-0.14007547 -0.31629947 1.5061879 195 176 153
-0.1385693 -0.31629947 1.5061879 204 181 159
-0.1370631 -0.31629947 1.5061879 204 182 156
-0.13555692 -0.31629947 1.5061879 199 177 154
-0.13405073 -0.31629947 1.5061879 188 168 146
-0.13254455 -0.31629947 1.5061879 176 157 137
-0.13103834 -0.31629947 1.5061879 177 157 135
-0.13000692 -0.31745878 1.5117085 184 161 139
-0.12849523 -0.31745878 1.5117085 176 156 133
-0.12698351 -0.31745878 1.5117085 165 145 124
-0.12593338 -0.3186266 1.5172696 158 139 117
-0.1239601 -0.31745878 1.5117085 153 134 111
-0.122448385 -0.31745878 1.5117085 140 122 101
-0.121754825 -0.3196064 1.5219352 135 115 96
-0.11986429 -0.3186266 1.5172696 138 120 97
-0.118347034 -0.3186266 1.5172696 140 120 99
-0.11682976 -0.3186266 1.5172696 136 116 95
-0.114889845 -0.31745878 1.5117085 129 110 91
-0.11337814 -0.31745878 1.5117085 126 107 89
-0.11186643 -0.31745878 1.5117085 127 108 91
-0.11035472 -0.31745878 1.5117085 130 110 91
-0.10884301 -0.31745878 1.5117085 127 108 91
-0.107331306 -0.31745878 1.5117085 123 105 87
-0.1058196 -0.31745878 1.5117085 130 111 92
-0.10430788 -0.31745878 1.5117085 128 110 91
-0.10317433 -0.3186266 1.5172696 132 113 93
-0.10165706 -0.3186266 1.5172696 127 109 90
-0.1001398 -0.3186266 1.5172696 125 106 89
-0.09862253 -0.3186266 1.5172696 124 106 88
-0.09674934 -0.31745878 1.5117085 123 105 89
-0.095237635 -0.31745878 1.5117085 125 106 91
-0.09372593 -0.31745878 1.5117085 127 108 92
-0.09221422 -0.31745878 1.5117085 129 110 93
-0.09103618 -0.3186266 1.5172696 127 109 92
-0.0891908 -0.31745878 1.5117085 123 105 89
-0.087679096 -0.31745878 1.5117085 121 104 88
-0.08616738 -0.31745878 1.5117085 123 104 88
-0.084346525 -0.31629947 1.5061879 127 108 90
-0.08284033 -0.31629947 1.5061879 123 104 88
-0.08163226 -0.31745878 1.5117085 121 103 87
-0.08012055 -0.31745878 1.5117085 126 107 90
-0.07860884 -0.31745878 1.5117085 125 108 91
-0.07709713 -0.31745878 1.5117085 124 105 89
-0.075585425 -0.31745878 1.5117085 134 113 95
-0.074346215 -0.3186266 1.5172696 119 102 86
-0.07282894 -0.3186266 1.5172696 126 107 90
-0.07131167 -0.3186266 1.5172696 136 115 96
-0.0697944 -0.3186266 1.5172696 130 111 92
-0.06827713 -0.3186266 1.5172696 120 102 86
-0.06675986 -0.3186266 1.5172696 123 105 89
-0.06500346 -0.31745878 1.5117085 125 106 91
-0.063491754 -0.31745878 1.5117085 125 106 92
-0.062208053 -0.3186266 1.5172696 123 103 90
-0.06046834 -0.31745878 1.5117085 128 108 93
-0.05895663 -0.31745878 1.5117085 127 106 91
-0.057444923 -0.31745878 1.5117085 121 101 86
-0.055933215 -0.31745878 1.5117085 123 102 87
-0.054421507 -0.31745878 1.5117085 123 103 87
-0.0529098 -0.31745878 1.5117085 129 110 89
-0.05139809 -0.31745878 1.5117085 127 107 89
-0.04988638 -0.31745878 1.5117085 121 102 87
-0.04837467 -0.31745878 1.5117085 129 109 93
-0.046862964 -0.31745878 1.5117085 142 121 103
-0.045351252 -0.31745878 1.5117085 155 133 114
-0.043839548 -0.31745878 1.5117085 166 144 122
-0.04232784 -0.31745878 1.5117085 162 142 121
-0.04081613 -0.31745878 1.5117085 154 138 118
-0.03944901 -0.3186266 1.5172696 172 151 132
-0.03793174 -0.3186266 1.5172696 185 165 143
-0.03641447 -0.3186266 1.5172696 189 167 145
-0.0348972 -0.3186266 1.5172696 181 161 140
-0.03337993 -0.3186266 1.5172696 182 160 138
-0.03186266 -0.3186266 1.5172696 194 171 148
-0.030345391 -0.3186266 1.5172696 192 171 149
-0.028828124 -0.3186266 1.5172696 199 177 154
-0.027310852 -0.3186266 1.5172696 195 174 154
-0.025793582 -0.3186266 1.5172696 195 173 153
-0.024276314 -0.3186266 1.5172696 201 178 158
-0.022759045 -0.3186266 1.5172696 199 177 157
-0.021241775 -0.3186266 1.5172696 208 184 164
-0.019724505 -0.3186266 1.5172696 197 175 155
-0.018207235 -0.3186266 1.5172696 182 162 144
-0.016689966 -0.3186266 1.5172696 211 188 166
-0.015172696 -0.3186266 1.5172696 202 179 158
-0.013697417 -0.3196064 1.5219352 193 171 148
-0.012175482 -0.3196064 1.5219352 203 178 155
-0.010653546 -0.3196064 1.5219352 193 172 150
-0.009131611 -0.3196064 1.5219352 201 177 155
-0.0076096766 -0.3196064 1.5219352 207 182 161
-0.006087741 -0.3196064 1.5219352 208 185 162
-0.004551809 -0.3186266 1.5172696 193 172 151
-0.0030345393 -0.3186266 1.5172696 202 180 159
-0.0015172696 -0.3186266 1.5172696 207 184 161
0.0 -0.3196064 1.5219352 202 180 159
0.0015219352 -0.3196064 1.5219352 201 179 157
0.0030438704 -0.3196064 1.5219352 194 173 153
0.004582716 -0.32079014 1.527572 209 183 162
0.006110288 -0.32079014 1.527572 204 182 160
0.0076378603 -0.32079014 1.527572 207 181 161
0.009165432 -0.32079014 1.527572 208 185 163
0.010693004 -0.32079014 1.527572 212 191 166
0.012220576 -0.32079014 1.527572 204 180 157
0.0137481475 -0.32079014 1.527572 205 180 156
0.0152757205 -0.32079014 1.527572 201 176 154
0.016803293 -0.32079014 1.527572 201 178 156
0.018330865 -0.32079014 1.527572 210 184 164
0.019858437 -0.32079014 1.527572 216 192 170
0.021386009 -0.32079014 1.527572 215 189 169
0.02291358 -0.32079014 1.527572 193 170 153
0.024441153 -0.32079014 1.527572 170 147 132
0.025968725 -0.32079014 1.527572 179 155 138
0.027496295 -0.32079014 1.527572 205 180 158
0.029023869 -0.32079014 1.527572 209 186 163
0.030551441 -0.32079014 1.527572 210 186 164
0.032079015 -0.32079014 1.527572 208 188 165
0.033606585 -0.32079014 1.527572 214 191 169
0.035134155 -0.32079014 1.527572 204 183 161
0.036526445 -0.3196064 1.5219352 203 179 158
0.038048383 -0.3196064 1.5219352 206 180 160
0.039570317 -0.3196064 1.5219352 206 180 160
0.04109225 -0.3196064 1.5219352 209 186 164
0.042614184 -0.3196064 1.5219352 226 200 176
0.04413612 -0.3196064 1.5219352 215 194 170
0.04565806 -0.3196064 1.5219352 214 193 170
0.047179993 -0.3196064 1.5219352 219 197 173
0.048701927 -0.3196064 1.5219352 220 199 174
0.05022386 -0.3196064 1.5219352 222 200 175
0.051745795 -0.3196064 1.5219352 212 188 165
0.053267736 -0.3196064 1.5219352 207 181 161
0.05478967 -0.3196064 1.5219352 204 181 159
0.056311604 -0.3196064 1.5219352 210 187 166
0.057833537 -0.3196064 1.5219352 203 181 159
0.05935547 -0.3196064 1.5219352 205 184 163
0.060877413 -0.3196064 1.5219352 202 182 160
0.062399346 -0.3196064 1.5219352 214 193 171
0.06392128 -0.3196064 1.5219352 221 200 177
0.06544322 -0.3196064 1.5219352 214 195 172
0.06696515 -0.3196064 1.5219352 206 187 166
0.068487085 -0.3196064 1.5219352 205 185 164
0.070009016 -0.3196064 1.5219352 210 188 166
0.07153095 -0.3196064 1.5219352 202 179 157
0.07282894 -0.3186266 1.5172696 195 174 152
0.074346215 -0.3186266 1.5172696 199 174 152
0.076096766 -0.3196064 1.5219352 192 171 147
0.077380754 -0.3186266 1.5172696 175 153 131
0.07889802 -0.3186266 1.5172696 161 140 120
0.08041529 -0.3186266 1.5172696 153 133 113
0.08193256 -0.3186266 1.5172696 150 129 110
0.083449826 -0.3186266 1.5172696 143 123 105
0.08522837 -0.3196064 1.5219352 129 110 94
0.086484365 -0.3186266 1.5172696 129 109 93
0.08800164 -0.3186266 1.5172696 127 108 91
0.089518905 -0.3186266 1.5172696 131 110 93
0.09103618 -0.3186266 1.5172696 130 111 93
0.092553444 -0.3186266 1.5172696 133 111 95
0.09407072 -0.3186266 1.5172696 118 101 85
0.095587984 -0.3186266 1.5172696 117 100 85
0.09710526 -0.3186266 1.5172696 125 107 90
0.09862253 -0.3186266 1.5172696 133 114 96
0.1001398 -0.3186266 1.5172696 134 114 96
0.10165706 -0.3186266 1.5172696 125 105 91
0.10317433 -0.3186266 1.5172696 118 100 87
0.10430788 -0.31745878 1.5117085 122 104 91
0.1058196 -0.31745878 1.5117085 126 106 92
0.107331306 -0.31745878 1.5117085 117 100 87
0.10884301 -0.31745878 1.5117085 122 105 91
0.11076068 -0.3186266 1.5172696 122 105 91
0.11186643 -0.31745878 1.5117085 120 103 89
0.11337814 -0.31745878 1.5117085 120 103 89
0.114889845 -0.31745878 1.5117085 125 109 93
0.11640156 -0.31745878 1.5117085 124 107 92
0.11871094 -0.3196064 1.5219352 120 103 89
0.12023288 -0.3196064 1.5219352 121 104 89
0.121381566 -0.3186266 1.5172696 118 101 87
0.12289884 -0.3186266 1.5172696 115 99 85
0.12479869 -0.3196064 1.5219352 120 103 88
0.12632063 -0.3196064 1.5219352 117 100 86
0.12784256 -0.3196064 1.5219352 121 104 91
0.12936449 -0.3196064 1.5219352 121 105 91
0.13088644 -0.3196064 1.5219352 125 106 93
0.13240837 -0.3196064 1.5219352 123 105 92
0.1339303 -0.3196064 1.5219352 123 104 92
0.13545224 -0.3196064 1.5219352 118 99 86
0.13697417 -0.3196064 1.5219352 122 103 89
0.13849612 -0.3196064 1.5219352 116 96 83
0.14001803 -0.3196064 1.5219352 110 91 78
0.1420642 -0.32079014 1.527572 112 91 79
0.14359176 -0.32079014 1.527572 115 94 81
0.14458385 -0.3196064 1.5219352 116 94 82
0.14610578 -0.3196064 1.5219352 117 95 83
0.14762771 -0.3196064 1.5219352 115 95 82
0.14970206 -0.32079014 1.527572 120 100 88
0.15122963 -0.32079014 1.527572 139 118 103
0.1527572 -0.32079014 1.527572 145 126 110
0.15428478 -0.32079014 1.527572 149 128 113
0.15523739 -0.3196064 1.5219352 158 133 118
0.15675932 -0.3196064 1.5219352 169 146 131
0.15828127 -0.3196064 1.5219352 179 159 141
0.1598032 -0.3196064 1.5219352 187 164 146
0.16132513 -0.3196064 1.5219352 185 164 143
0.16284707 -0.3196064 1.5219352 189 168 147
0.164369 -0.3196064 1.5219352 198 178 156
0.16589095 -0.3196064 1.5219352 207 187 162
0.16741288 -0.3196064 1.5219352 212 189 170
0.1689348 -0.3196064 1.5219352 209 189 168
0.17108807 -0.32079014 1.527572 207 185 164
0.17261565 -0.32079014 1.527572 190 170 151
0.17414322 -0.32079014 1.527572 193 172 153
0.17567079 -0.32079014 1.527572 200 177 155
0.17719835 -0.32079014 1.527572 189 168 146
0.17872593 -0.32079014 1.527572 199 175 153
0.18025349 -0.32079014 1.527572 196 172 152
0.18178107 -0.32079014 1.527572 173 152 135
0.18330865 -0.32079014 1.527572 177 155 138
0.18483621 -0.32079014 1.527572 190 167 148
0.18636379 -0.32079014 1.527572 194 172 152
0.18719803 -0.3196064 1.5219352 195 174 154
0.18871997 -0.3196064 1.5219352 201 177 158
0.1902419 -0.3196064 1.5219352 202 180 160
0.19176383 -0.3196064 1.5219352 193 171 152
0.19328576 -0.3196064 1.5219352 194 172 153
0.19480771 -0.3196064 1.5219352 189 168 149
0.19632965 -0.3196064 1.5219352 191 170 151
0.19724506 -0.3186266 1.5172696 194 175 155
0.19876231 -0.3186266 1.5172696 198 175 156
0.2002796 -0.3186266 1.5172696 196 174 154
0.20179686 -0.3186266 1.5172696 194 172 151
0.20256893 -0.31745878 1.5117085 193 169 150
0.20408064 -0.31745878 1.5117085 180 158 140
0.20559236 -0.31745878 1.5117085 184 163 143
0.20710407 -0.31745878 1.5117085 185 163 143
0.20861576 -0.31745878 1.5117085 193 171 151
0.21012749 -0.31745878 1.5117085 201 176 156
0.2116392 -0.31745878 1.5117085 195 171 150
0.21315089 -0.31745878 1.5117085 202 178 156
0.21466261 -0.31745878 1.5117085 203 180 158
0.21617432 -0.31745878 1.5117085 203 178 157
-0.21848682 -0.32014388 1.5172696 200 114 81
-0.21696956 -0.32014388 1.5172696 198 119 85
-0.21545228 -0.32014388 1.5172696 205 130 98
-0.2123725 -0.31780568 1.5061879 205 140 98
-0.20331769 -0.3064288 1.4522692 225 158 47
-0.19825861 -0.30095372 1.4263209 247 175 0
-0.19615392 -0.29991654 1.4214053 248 179 0
-0.19328925 -0.29769367 1.4108704 249 179 0
-0.19331113 -0.29991654 1.4214053 248 180 0
-0.19188972 -0.29991654 1.4214053 246 180 0
-0.19046831 -0.29991654 1.4214053 249 181 0
-0.1890469 -0.29991654 1.4214053 249 179 0
-0.1876255 -0.29991654 1.4214053 249 179 0
-0.1862041 -0.29991654 1.4214053 249 179 0
-0.18478268 -0.29991654 1.4214053 249 179 0
-0.18336128 -0.29991654 1.4214053 249 179 0
-0.18131502 -0.29888648 1.4165236 249 179 0
-0.18051848 -0.29991654 1.4214053 252 178 0
-0.17909707 -0.29991654 1.4214053 249 180 0
-0.17767566 -0.29991654 1.4214053 252 178 0
-0.17625426 -0.29991654 1.4214053 249 180 0
-0.17483285 -0.29991654 1.4214053 249 180 0
-0.17341146 -0.29991654 1.4214053 249 180 0
-0.17199004 -0.29991654 1.4214053 249 180 0
-0.17056863 -0.29991654 1.4214053 251 180 0
-0.16914724 -0.29991654 1.4214053 249 180 0
-0.16772583 -0.29991654 1.4214053 249 179 0
-0.16630442 -0.29991654 1.4214053 250 178 0
-0.16488302 -0.29991654 1.4214053 248 179 0
-0.16346161 -0.29991654 1.4214053 247 179 0
-0.1620402 -0.29991654 1.4214053 247 179 0
-0.16061881 -0.29991654 1.4214053 247 179 0
-0.15974794 -0.30095372 1.4263209 244 177 0
-0.15832162 -0.30095372 1.4263209 248 180 0
-0.15743975 -0.30199808 1.4312705 241 177 0
-0.15664268 -0.3032257 1.4370887 243 180 0
-0.15574826 -0.30428594 1.4421135 238 180 0
-0.15484758 -0.30535364 1.4471736 239 182 0
-0.1544845 -0.3075116 1.4574009 236 181 0
-0.15356974 -0.30860206 1.462569 234 181 0
-0.15156971 -0.3075116 1.4574009 233 181 24
-0.15118071 -0.30970028 1.4677739 234 182 55
-0.15024762 -0.31080636 1.4730159 231 180 70
-0.14877461 -0.31080636 1.4730159 230 182 81
-0.14791791 -0.31210682 1.4791791 225 182 92
-0.14803141 -0.3155013 1.4952669 205 175 120
-0.14600682 -0.31436163 1.4898655 191 167 142
-0.1450409 -0.3155013 1.4952669 200 177 148
-0.14406791 -0.3166493 1.5007075 206 185 161
-0.14256722 -0.3166493 1.5007075 205 183 161
-0.1410665 -0.3166493 1.5007075 201 179 155
-0.14007547 -0.31780568 1.5061879 198 177 153
-0.1385693 -0.31780568 1.5061879 202 180 155
-0.1370631 -0.31780568 1.5061879 200 178 154
-0.13555692 -0.31780568 1.5061879 194 173 151
-0.13405073 -0.31780568 1.5061879 189 170 147
-0.13254455 -0.31780568 1.5061879 184 166 144
-0.13103834 -0.31780568 1.5061879 181 161 138
-0.12953216 -0.31780568 1.5061879 185 162 141
-0.12802596 -0.31780568 1.5061879 177 159 136
-0.12651978 -0.31780568 1.5061879 171 151 129
-0.1254718 -0.3189705 1.5117085 165 145 123
-0.12350741 -0.31780568 1.5061879 156 137 114
-0.122448385 -0.3189705 1.5117085 145 125 105
-0.12093668 -0.3189705 1.5117085 139 119 100
-0.11942497 -0.3189705 1.5117085 138 120 98
-0.117482655 -0.31780568 1.5061879 141 120 99
-0.11640156 -0.3189705 1.5117085 138 116 96
-0.11447028 -0.31780568 1.5061879 138 116 96
-0.11337814 -0.3189705 1.5117085 135 115 95
-0.11186643 -0.3189705 1.5117085 136 115 95
-0.11035472 -0.3189705 1.5117085 129 109 91
-0.10884301 -0.3189705 1.5117085 128 108 90
-0.107331306 -0.3189705 1.5117085 124 104 87
-0.1058196 -0.3189705 1.5117085 126 106 89
-0.10430788 -0.3189705 1.5117085 126 107 90
-0.10279618 -0.3189705 1.5117085 131 110 92
