ply
format ascii 1.0
element vertex 1089
property float32 x
property float32 y
property float32 z
property uchar red
property uchar green
property uchar blue
element face 0
property list uint8 int32 vertex_indices
end_header
0.24115942 -0.2708406 1.8550725 212 188 169
0.2430145 -0.2708406 1.8550725 208 184 166
0.24486957 -0.2708406 1.8550725 207 184 165
0.24672464 -0.2708406 1.8550725 213 189 172
0.24857971 -0.2708406 1.8550725 212 191 171
0.2504348 -0.2708406 1.8550725 212 189 171
0.25228986 -0.2708406 1.8550725 215 191 173
0.25414494 -0.2708406 1.8550725 217 193 175
0.256 -0.2708406 1.8550725 198 177 160
0.25785506 -0.2708406 1.8550725 209 186 168
0.25971013 -0.2708406 1.8550725 215 191 175
0.2615652 -0.2708406 1.8550725 214 191 175
0.26342028 -0.2708406 1.8550725 215 192 176
0.26527536 -0.2708406 1.8550725 209 186 171
-0.26713043 -0.27269566 1.8550725 128 103 73
-0.26527536 -0.27269566 1.8550725 134 108 78
-0.26342028 -0.27269566 1.8550725 129 105 78
-0.2615652 -0.27269566 1.8550725 130 105 78
-0.25971013 -0.27269566 1.8550725 125 101 75
-0.25785506 -0.27269566 1.8550725 127 103 76
-0.25504407 -0.2716774 1.8481455 138 110 83
-0.25319594 -0.2716774 1.8481455 124 99 75
-0.25134778 -0.2716774 1.8481455 128 102 78
-0.24949963 -0.2716774 1.8481455 124 100 73
-0.24765149 -0.2716774 1.8481455 125 100 74
-0.24580334 -0.2716774 1.8481455 128 102 76
-0.2439552 -0.2716774 1.8481455 125 100 73
-0.24210705 -0.2716774 1.8481455 120 96 70
-0.24025892 -0.2716774 1.8481455 121 97 71
-0.23841077 -0.2716774 1.8481455 125 100 73
-0.23656262 -0.2716774 1.8481455 121 96 70
-0.23471448 -0.2716774 1.8481455 117 94 67
-0.23286633 -0.2716774 1.8481455 118 95 68
-0.23101819 -0.2716774 1.8481455 120 97 70
-0.22917004 -0.2716774 1.8481455 114 92 66
-0.2273219 -0.2716774 1.8481455 117 95 68
-0.22547376 -0.2716774 1.8481455 116 94 69
-0.22362562 -0.2716774 1.8481455 115 95 74
-0.22095238 -0.27066666 1.8412699 120 101 83
-0.21911111 -0.27066666 1.8412699 149 130 112
-0.21726984 -0.27066666 1.8412699 167 149 131
-0.21463011 -0.26966348 1.8344454 162 147 127
-0.21279566 -0.26966348 1.8344454 167 149 130
-0.21096121 -0.26966348 1.8344454 168 149 130
-0.20912677 -0.26966348 1.8344454 169 150 131
-0.20729233 -0.26966348 1.8344454 167 149 129
-0.20622224 -0.27066666 1.8412699 165 147 125
-0.20362343 -0.26966348 1.8344454 163 146 124
-0.20178899 -0.26966348 1.8344454 161 144 124
-0.19995454 -0.26966348 1.8344454 158 140 121
-0.19738849 -0.26866767 1.8276712 151 132 112
-0.19556083 -0.26866767 1.8276712 152 133 113
-0.19373314 -0.26866767 1.8276712 145 127 107
-0.19190547 -0.26866767 1.8276712 127 111 95
-0.19007781 -0.26866767 1.8276712 142 123 105
-0.18894787 -0.26966348 1.8344454 148 130 111
-0.18711343 -0.26966348 1.8344454 150 133 114
-0.18527898 -0.26966348 1.8344454 148 131 112
-0.18344453 -0.26966348 1.8344454 141 124 105
-0.18161009 -0.26966348 1.8344454 143 126 104
-0.17977566 -0.26966348 1.8344454 141 124 102
-0.17794119 -0.26966348 1.8344454 140 122 101
-0.17610675 -0.26966348 1.8344454 142 124 105
-0.17427231 -0.26966348 1.8344454 148 129 109
-0.17243786 -0.26966348 1.8344454 145 126 105
-0.17060342 -0.26966348 1.8344454 137 120 101
-0.16814575 -0.26866767 1.8276712 148 129 109
-0.16693452 -0.26966348 1.8344454 147 129 109
-0.16510008 -0.26966348 1.8344454 146 127 107
-0.16326565 -0.26966348 1.8344454 138 121 102
-0.16083507 -0.26866767 1.8276712 141 122 103
-0.15959674 -0.26966348 1.8344454 135 118 99
-0.1577623 -0.26966348 1.8344454 134 116 96
-0.15535206 -0.26866767 1.8276712 132 114 95
-0.15409341 -0.26966348 1.8344454 134 115 95
-0.1516967 -0.26866767 1.8276712 129 111 90
-0.14986904 -0.26866767 1.8276712 134 117 94
-0.14804137 -0.26866767 1.8276712 133 115 96
-0.14232448 -0.26152125 1.779056 113 99 91
-0.13642615 -0.25385627 1.7269133 93 80 77
-0.13266253 -0.25001788 1.7008018 90 77 74
-0.1304239 -0.2489911 1.693817 86 73 70
-0.12873009 -0.2489911 1.693817 82 71 67
-0.126603 -0.24814187 1.68804 78 68 65
-0.1244058 -0.24713045 1.6811595 76 66 63
-0.122309186 -0.24629384 1.6754683 74 63 61
-0.120145656 -0.24529737 1.6686896 74 64 62
-0.11847696 -0.24529737 1.6686896 75 65 63
-0.11641577 -0.24447313 1.6630825 72 62 59
-0.11429184 -0.2434913 1.6564034 70 61 58
-0.112635426 -0.2434913 1.6564034 71 61 59
-0.11060885 -0.24267912 1.6508784 69 59 56
-0.1085236 -0.24171165 1.6442969 70 61 58
-0.106879294 -0.24171165 1.6442969 67 57 54
-0.105235 -0.24171165 1.6442969 69 59 57
-0.103590705 -0.24171165 1.6442969 69 61 60
-0.101946406 -0.24171165 1.6442969 64 55 55
-0.10030211 -0.24171165 1.6442969 66 58 59
-0.09865782 -0.24171165 1.6442969 71 62 62
-0.09701352 -0.24171165 1.6442969 65 58 57
-0.09505342 -0.24091126 1.6388521 62 54 53
-0.092013046 -0.23729682 1.614264 76 69 67
-0.08715808 -0.22878994 1.5563942 120 117 107
-0.08527987 -0.22792983 1.5505431 152 151 138
-0.08341573 -0.22707616 1.5447358 149 151 138
-0.081870995 -0.22707616 1.5447358 147 149 135
-0.08002654 -0.22622886 1.5389719 145 148 131
-0.078195795 -0.22538786 1.5332508 144 148 131
-0.07666253 -0.22538786 1.5332508 140 144 131
-0.075129285 -0.22538786 1.5332508 138 135 120
-0.07332346 -0.22455308 1.527572 135 120 102
-0.07153095 -0.22372447 1.5219352 126 99 83
-0.070009016 -0.22372447 1.5219352 120 84 65
-0.068487085 -0.22372447 1.5219352 125 84 59
-0.06675986 -0.22303863 1.5172696 136 89 64
-0.06544322 -0.22372447 1.5219352 147 96 70
-0.063491754 -0.22222115 1.5117085 155 102 74
-0.06198005 -0.22222115 1.5117085 160 104 76
-0.06046834 -0.22222115 1.5117085 162 105 76
-0.05895663 -0.22222115 1.5117085 162 106 77
-0.05723514 -0.22140962 1.5061879 165 108 78
-0.055728953 -0.22140962 1.5061879 168 111 82
-0.05402547 -0.220604 1.5007075 171 114 84
-0.05252476 -0.220604 1.5007075 181 120 91
-0.051024057 -0.220604 1.5007075 186 124 93
-0.049523346 -0.220604 1.5007075 187 126 94
-0.04802264 -0.220604 1.5007075 190 128 96
-0.046521936 -0.220604 1.5007075 191 129 95
-0.04485801 -0.21980423 1.4952669 191 129 95
-0.04336274 -0.21980423 1.4952669 194 130 97
-0.041867472 -0.21980423 1.4952669 196 132 99
-0.040372208 -0.21980423 1.4952669 199 135 104
-0.039018396 -0.220604 1.5007075 198 133 104
-0.03751769 -0.220604 1.5007075 199 135 104
-0.03601698 -0.220604 1.5007075 202 136 105
-0.034516275 -0.220604 1.5007075 200 135 106
-0.033015564 -0.220604 1.5007075 205 137 104
-0.031514857 -0.220604 1.5007075 205 136 106
-0.03001415 -0.220604 1.5007075 203 136 106
-0.02861757 -0.22140962 1.5061879 204 135 106
-0.027012736 -0.220604 1.5007075 202 135 104
-0.025605194 -0.22140962 1.5061879 200 133 105
-0.024099007 -0.22140962 1.5061879 194 131 106
-0.022675626 -0.22222115 1.5117085 188 129 105
-0.021465512 -0.22538786 1.5332508 157 118 105
-0.020985432 -0.23729682 1.614264 93 74 66
-0.020636555 -0.25279778 1.7197129 99 83 74
-0.019569617 -0.26152125 1.779056 102 87 78
-0.017854739 -0.26246467 1.7854738 107 91 82
-0.016069263 -0.26246467 1.7854738 108 91 81
-0.014450609 -0.26552993 1.8063262 103 87 77
-0.0126442835 -0.26552993 1.8063262 108 91 81
-0.010837957 -0.26552993 1.8063262 105 89 78
-0.00903163 -0.26552993 1.8063262 104 89 79
-0.0072253044 -0.26552993 1.8063262 101 87 77
-0.0054189786 -0.26552993 1.8063262 91 77 68
-0.0036126522 -0.26552993 1.8063262 86 71 62
-0.0018063261 -0.26552993 1.8063262 83 67 55
0.0 -0.26552993 1.8063262 82 67 55
0.0018063261 -0.26552993 1.8063262 81 66 55
0.0036126522 -0.26552993 1.8063262 80 64 54
0.0054189786 -0.26552993 1.8063262 79 64 55
0.0072253044 -0.26552993 1.8063262 77 61 54
0.00903163 -0.26552993 1.8063262 75 61 51
0.010837957 -0.26552993 1.8063262 75 61 51
0.0126442835 -0.26552993 1.8063262 76 62 53
0.014450609 -0.26552993 1.8063262 77 62 52
0.016256936 -0.26552993 1.8063262 80 65 55
0.01806326 -0.26552993 1.8063262 81 67 56
0.019797333 -0.26456437 1.7997576 81 66 56
0.021597091 -0.26456437 1.7997576 81 67 57
0.02348224 -0.26552993 1.8063262 81 67 57
0.025288567 -0.26552993 1.8063262 83 69 59
0.026996365 -0.26456437 1.7997576 80 67 57
0.028691787 -0.2636058 1.7932367 81 66 58
0.030485023 -0.2636058 1.7932367 81 68 60
0.03239564 -0.26456437 1.7997576 77 64 56
0.034195393 -0.26456437 1.7997576 77 63 56
0.035864733 -0.2636058 1.7932367 77 64 58
0.03765797 -0.2636058 1.7932367 76 64 54
0.03945121 -0.2636058 1.7932367 76 64 54
0.041244447 -0.2636058 1.7932367 75 63 53
0.043037683 -0.2636058 1.7932367 72 60 51
0.04483092 -0.2636058 1.7932367 76 63 58
0.046624154 -0.2636058 1.7932367 74 62 57
0.048417393 -0.2636058 1.7932367 73 61 56
0.05021063 -0.2636058 1.7932367 67 54 52
0.05177874 -0.26246467 1.7854738 66 54 51
0.053797103 -0.2636058 1.7932367 64 53 52
0.05559034 -0.2636058 1.7932367 59 49 48
0.057592243 -0.26456437 1.7997576 59 50 49
0.059392 -0.26456437 1.7997576 52 45 43
0.061191756 -0.26456437 1.7997576 47 37 37
0.06276329 -0.2636058 1.7932367 44 36 35
0.06455652 -0.2636058 1.7932367 39 31 31
0.06634976 -0.2636058 1.7932367 42 35 35
0.068142995 -0.2636058 1.7932367 48 42 43
0.06993623 -0.2636058 1.7932367 38 31 33
0.07172947 -0.2636058 1.7932367 36 30 32
0.0735227 -0.2636058 1.7932367 37 30 33
0.0749899 -0.26246467 1.7854738 39 32 35
0.07677537 -0.26246467 1.7854738 42 37 40
0.07856085 -0.26246467 1.7854738 43 39 40
0.08034632 -0.26246467 1.7854738 44 37 38
0.081836574 -0.26152125 1.779056 46 39 40
0.08361563 -0.26152125 1.779056 46 39 40
0.08539468 -0.26152125 1.779056 47 39 40
0.087173745 -0.26152125 1.779056 47 39 40
0.088952795 -0.26152125 1.779056 46 39 41
0.09073186 -0.26152125 1.779056 46 40 42
0.09251091 -0.26152125 1.779056 45 38 41
0.094289966 -0.26152125 1.779056 46 41 43
0.09606902 -0.26152125 1.779056 47 41 42
0.09784807 -0.26152125 1.779056 49 42 44
0.09962714 -0.26152125 1.779056 49 42 44
0.10140619 -0.26152125 1.779056 49 42 44
0.103185244 -0.26152125 1.779056 50 42 45
0.105342954 -0.26246467 1.7854738 49 42 43
0.107128434 -0.26246467 1.7854738 49 42 43
0.108913906 -0.26246467 1.7854738 49 42 43
0.110301465 -0.26152125 1.779056 49 41 42
0.110805966 -0.25854728 1.758825 50 44 42
0.10803456 -0.24814187 1.68804 75 68 65
0.10148475 -0.2295117 1.561304 116 108 103
0.10272202 -0.22878994 1.5563942 98 90 84
0.104607366 -0.2295117 1.561304 63 49 41
0.10543693 -0.22792983 1.5505431 88 64 56
0.106189065 -0.22622886 1.5389719 142 99 85
0.108131506 -0.22707616 1.5447358 149 99 80
0.109267004 -0.22622886 1.5389719 154 102 86
0.10998518 -0.22455308 1.527572 165 110 92
0.11151276 -0.22455308 1.527572 182 123 101
0.11262321 -0.22372447 1.5219352 196 134 110
0.114145145 -0.22372447 1.5219352 204 137 115
0.115667075 -0.22372447 1.5219352 207 139 116
0.11718901 -0.22372447 1.5219352 211 143 118
0.118347034 -0.22303863 1.5172696 213 144 120
0.11986429 -0.22303863 1.5172696 216 145 121
0.121381566 -0.22303863 1.5172696 216 144 121
0.12289884 -0.22303863 1.5172696 217 146 121
0.124416105 -0.22303863 1.5172696 220 147 122
0.12593338 -0.22303863 1.5172696 220 148 123
0.12784256 -0.22372447 1.5219352 221 150 125
0.12936449 -0.22372447 1.5219352 220 150 125
0.13088644 -0.22372447 1.5219352 218 149 123
0.13240837 -0.22372447 1.5219352 219 148 122
0.13442634 -0.22455308 1.527572 219 147 121
0.13595392 -0.22455308 1.527572 217 146 120
0.13748148 -0.22455308 1.527572 214 144 120
0.13900904 -0.22455308 1.527572 211 143 119
0.14105909 -0.22538786 1.5332508 208 142 116
0.14259233 -0.22538786 1.5332508 206 137 115
0.14412558 -0.22538786 1.5332508 196 132 110
0.14565884 -0.22538786 1.5332508 182 123 104
0.14988518 -0.2295117 1.561304 151 102 87
0.15144649 -0.2295117 1.561304 120 85 73
0.15358919 -0.23038378 1.5672367 60 39 38
0.15744987 -0.23378922 1.5904028 63 45 39
0.16142641 -0.23729682 1.614264 79 61 49
0.16304067 -0.23729682 1.614264 113 102 92
0.17876488 -0.25763175 1.7525969 211 188 166
0.1867331 -0.26650256 1.8129426 213 188 167
0.19220713 -0.2716774 1.8481455 212 188 167
0.19405529 -0.2716774 1.8481455 205 182 162
0.19590342 -0.2716774 1.8481455 209 183 161
0.19775157 -0.2716774 1.8481455 209 184 160
0.19959971 -0.2716774 1.8481455 212 189 164
0.20144786 -0.2716774 1.8481455 214 190 165
0.203296 -0.2716774 1.8481455 209 186 165
0.20514415 -0.2716774 1.8481455 214 190 169
0.20622224 -0.27066666 1.8412699 217 192 171
0.2080635 -0.27066666 1.8412699 218 194 173
0.20990478 -0.27066666 1.8412699 212 188 169
0.21174604 -0.27066666 1.8412699 216 191 172
0.21438487 -0.2716774 1.8481455 220 197 176
0.21623302 -0.2716774 1.8481455 218 195 175
0.21808116 -0.2716774 1.8481455 218 194 175
0.21992931 -0.2716774 1.8481455 204 182 163
0.22177747 -0.2716774 1.8481455 210 186 167
0.22362562 -0.2716774 1.8481455 218 191 172
0.22547376 -0.2716774 1.8481455 213 190 170
0.2273219 -0.2716774 1.8481455 207 183 163
0.22917004 -0.2716774 1.8481455 214 189 168
0.23101819 -0.2716774 1.8481455 223 197 174
0.23286633 -0.2716774 1.8481455 207 181 161
0.23471448 -0.2716774 1.8481455 197 173 154
0.23656262 -0.2716774 1.8481455 206 182 163
0.23841077 -0.2716774 1.8481455 208 183 164
0.24025892 -0.2716774 1.8481455 214 190 170
0.24210705 -0.2716774 1.8481455 219 194 174
0.2439552 -0.2716774 1.8481455 211 187 167
0.24580334 -0.2716774 1.8481455 204 180 162
0.24765149 -0.2716774 1.8481455 214 190 172
0.24949963 -0.2716774 1.8481455 217 193 174
0.25134778 -0.2716774 1.8481455 211 188 169
0.25319594 -0.2716774 1.8481455 216 193 174
0.25504407 -0.2716774 1.8481455 211 188 170
0.2568922 -0.2716774 1.8481455 215 191 173
0.25874037 -0.2716774 1.8481455 213 190 174
0.2605885 -0.2716774 1.8481455 215 192 176
0.26243666 -0.2716774 1.8481455 219 195 178
0.2642848 -0.2716774 1.8481455 212 188 173
-0.26713043 -0.2745507 1.8550725 125 101 71
-0.26527536 -0.2745507 1.8550725 133 106 76
-0.26342028 -0.2745507 1.8550725 126 101 77
-0.2615652 -0.2745507 1.8550725 128 102 77
-0.25874037 -0.27352554 1.8481455 123 99 75
-0.2568922 -0.27352554 1.8481455 122 99 74
-0.25504407 -0.27352554 1.8481455 122 98 73
-0.25319594 -0.27352554 1.8481455 118 94 70
-0.25134778 -0.27352554 1.8481455 120 96 71
-0.24949963 -0.27352554 1.8481455 115 92 66
-0.24765149 -0.27352554 1.8481455 117 93 67
-0.24580334 -0.27352554 1.8481455 119 95 69
-0.24304762 -0.27250794 1.8412699 120 96 70
-0.24120635 -0.27250794 1.8412699 121 97 71
-0.23936509 -0.27250794 1.8412699 118 95 68
-0.23752381 -0.27250794 1.8412699 120 96 69
-0.23568255 -0.27250794 1.8412699 120 95 68
-0.23471448 -0.27352554 1.8481455 121 96 69
-0.23286633 -0.27352554 1.8481455 121 96 69
-0.23101819 -0.27352554 1.8481455 121 98 71
-0.22917004 -0.27352554 1.8481455 118 96 69
-0.2273219 -0.27352554 1.8481455 115 93 68
-0.22547376 -0.27352554 1.8481455 116 96 76
-0.22279365 -0.27250794 1.8412699 133 111 90
-0.22095238 -0.27250794 1.8412699 123 107 88
-0.21911111 -0.27250794 1.8412699 153 133 115
-0.21646455 -0.27149794 1.8344454 164 144 128
-0.21463011 -0.27149794 1.8344454 165 146 128
-0.21279566 -0.27149794 1.8344454 164 148 128
-0.21096121 -0.27149794 1.8344454 167 151 130
-0.20912677 -0.27149794 1.8344454 167 151 130
-0.20729233 -0.27149794 1.8344454 166 150 129
-0.20545788 -0.27149794 1.8344454 162 145 124
-0.2028715 -0.27049533 1.8276712 154 137 118
-0.20104383 -0.27049533 1.8276712 155 136 116
-0.19921616 -0.27049533 1.8276712 151 134 114
-0.19738849 -0.27049533 1.8276712 142 125 106
-0.19484131 -0.26950014 1.8209468 141 123 104
-0.19302036 -0.26950014 1.8209468 137 121 101
-0.19119942 -0.26950014 1.8209468 144 125 105
-0.19007781 -0.27049533 1.8276712 143 125 105
-0.18755752 -0.26950014 1.8209468 144 126 106
-0.18642245 -0.27049533 1.8276712 145 128 109
-0.18459478 -0.27049533 1.8276712 150 132 112
-0.18276712 -0.27049533 1.8276712 143 125 104
-0.18093945 -0.27049533 1.8276712 140 124 101
-0.17911176 -0.27049533 1.8276712 142 123 101
-0.1772841 -0.27049533 1.8276712 140 123 102
-0.17545643 -0.27049533 1.8276712 142 124 104
-0.17362875 -0.27049533 1.8276712 146 127 107
-0.17180109 -0.27049533 1.8276712 144 127 106
-0.17060342 -0.27149794 1.8344454 143 126 105
-0.16814575 -0.27049533 1.8276712 143 125 105
-0.16631807 -0.27049533 1.8276712 145 127 106
-0.1644904 -0.27049533 1.8276712 146 128 107
-0.16326565 -0.27149794 1.8344454 141 122 103
-0.16083507 -0.27049533 1.8276712 133 116 98
-0.15900739 -0.27049533 1.8276712 136 118 100
-0.15717971 -0.27049533 1.8276712 135 118 97
-0.15535206 -0.27049533 1.8276712 130 114 94
-0.15295954 -0.26950014 1.8209468 136 118 96
-0.15113857 -0.26950014 1.8209468 123 106 86
-0.14931764 -0.26950014 1.8209468 121 106 85
-0.14804137 -0.27049533 1.8276712 121 106 88
-0.14232448 -0.2633003 1.779056 119 105 96
-0.13690382 -0.25647807 1.7329599 95 83 80
-0.13266253 -0.25171867 1.7008018 88 74 71
-0.1304239 -0.25068492 1.693817 86 72 71
-0.12873009 -0.25068492 1.693817 80 69 65
-0.126603 -0.24982992 1.68804 79 69 65
-0.1244058 -0.2488116 1.6811595 77 67 64
-0.122309186 -0.24796931 1.6754683 77 65 64
-0.120145656 -0.24696606 1.6686896 76 66 64
-0.11847696 -0.24696606 1.6686896 75 65 62
-0.11641577 -0.2461362 1.6630825 73 62 61
-0.11429184 -0.2451477 1.6564034 72 63 60
-0.112635426 -0.2451477 1.6564034 72 63 60
-0.11016789 -0.24335594 1.6442969 71 62 59
-0.108164236 -0.2425501 1.6388521 68 59 55
-0.10652539 -0.2425501 1.6388521 70 61 58
-0.10488654 -0.2425501 1.6388521 73 64 61
-0.10324768 -0.2425501 1.6388521 67 59 58
-0.101608835 -0.2425501 1.6388521 69 60 61
-0.099969976 -0.2425501 1.6388521 69 61 61
-0.09833113 -0.2425501 1.6388521 65 57 56
-0.09669228 -0.2425501 1.6388521 60 53 52
-0.094677225 -0.24159016 1.632366 61 53 52
-0.091357514 -0.23720898 1.6027634 75 68 66
-0.08715808 -0.23034634 1.5563942 120 115 107
-0.08527987 -0.22948037 1.5505431 150 149 135
-0.08341573 -0.2286209 1.5447358 150 150 136
-0.081870995 -0.2286209 1.5447358 149 151 135
-0.08002654 -0.22776784 1.5389719 145 149 134
-0.078195795 -0.22692111 1.5332508 139 141 128
-0.07666253 -0.22692111 1.5332508 136 127 110
-0.075129285 -0.22692111 1.5332508 129 107 88
-0.07332346 -0.22608066 1.527572 120 88 65
-0.07179588 -0.22608066 1.527572 121 79 57
-0.07026831 -0.22608066 1.527572 133 87 62
-0.068487085 -0.22524641 1.5219352 146 95 67
-0.06696515 -0.22524641 1.5219352 154 101 74
-0.06544322 -0.22524641 1.5219352 161 104 79
-0.063491754 -0.22373286 1.5117085 164 107 80
-0.06198005 -0.22373286 1.5117085 164 107 79
-0.060247518 -0.22291581 1.5061879 165 108 80
-0.058741327 -0.22291581 1.5061879 167 109 82
-0.05723514 -0.22291581 1.5061879 169 110 83
-0.055728953 -0.22291581 1.5061879 173 114 86
-0.05402547 -0.2221047 1.5007075 178 118 91
-0.05252476 -0.2221047 1.5007075 182 121 93
-0.051024057 -0.2221047 1.5007075 186 124 95
-0.049523346 -0.2221047 1.5007075 188 126 96
-0.04802264 -0.2221047 1.5007075 190 128 97
-0.046353277 -0.2212995 1.4952669 191 128 95
-0.04485801 -0.2212995 1.4952669 191 128 96
-0.04336274 -0.2212995 1.4952669 193 128 97
-0.041867472 -0.2212995 1.4952669 192 129 97
-0.040519103 -0.2221047 1.5007075 192 131 99
-0.039018396 -0.2221047 1.5007075 199 133 103
-0.03738167 -0.2212995 1.4952669 198 135 103
-0.03601698 -0.2221047 1.5007075 203 137 105
-0.034516275 -0.2221047 1.5007075 202 136 108
-0.033015564 -0.2221047 1.5007075 205 136 106
-0.031514857 -0.2221047 1.5007075 205 136 106
-0.03001415 -0.2221047 1.5007075 205 137 106
-0.028513443 -0.2221047 1.5007075 205 135 105
-0.026914805 -0.2212995 1.4952669 203 134 104
-0.025512028 -0.2221047 1.5007075 203 134 106
-0.02401132 -0.2221047 1.5007075 198 132 106
-0.022510612 -0.2221047 1.5007075 190 129 105
-0.021386009 -0.22608066 1.527572 167 124 110
-0.020903617 -0.23797965 1.6079706 90 69 60
-0.020636555 -0.2545175 1.7197129 103 86 77
-0.019569617 -0.2633003 1.779056 111 94 86
-0.017932367 -0.26539904 1.7932367 107 90 81
-0.016069263 -0.26425013 1.7854738 106 88 78
-0.014450609 -0.26733628 1.8063262 107 90 80
-0.0126442835 -0.26733628 1.8063262 109 93 83
-0.010837957 -0.26733628 1.8063262 109 93 83
-0.00903163 -0.26733628 1.8063262 104 88 79
-0.0072253044 -0.26733628 1.8063262 97 82 72
-0.0054189786 -0.26733628 1.8063262 82 67 58
-0.0036126522 -0.26733628 1.8063262 83 68 59
-0.0018063261 -0.26733628 1.8063262 83 67 53
0.0 -0.26733628 1.8063262 84 68 55
0.0018063261 -0.26733628 1.8063262 81 65 54
0.0036126522 -0.26733628 1.8063262 80 66 54
0.0054189786 -0.26733628 1.8063262 78 64 54
0.0071990304 -0.26636413 1.7997576 77 64 54
0.008998788 -0.26636413 1.7997576 77 64 53
0.010798546 -0.26636413 1.7997576 76 63 52
0.012598303 -0.26636413 1.7997576 76 63 52
0.014398061 -0.26636413 1.7997576 79 65 54
0.01619782 -0.26636413 1.7997576 83 69 58
0.017997576 -0.26636413 1.7997576 82 67 58
0.019797333 -0.26636413 1.7997576 85 71 61
0.021597091 -0.26636413 1.7997576 84 70 60
0.023396848 -0.26636413 1.7997576 83 67 57
0.025196606 -0.26636413 1.7997576 81 65 55
0.026996365 -0.26636413 1.7997576 82 67 57
0.028691787 -0.26539904 1.7932367 82 68 60
0.030485023 -0.26539904 1.7932367 83 69 61
0.032138526 -0.26425013 1.7854738 80 66 58
0.034071498 -0.26539904 1.7932367 79 65 58
0.035864733 -0.26539904 1.7932367 79 65 58
0.03765797 -0.26539904 1.7932367 80 65 58
0.039280426 -0.26425013 1.7854738 79 65 57
0.041065898 -0.26425013 1.7854738 74 61 53
0.043037683 -0.26539904 1.7932367 73 62 55
0.044636846 -0.26425013 1.7854738 75 63 58
0.046422318 -0.26425013 1.7854738 77 64 59
0.048417393 -0.26539904 1.7932367 76 64 59
0.05021063 -0.26539904 1.7932367 70 58 55
0.05177874 -0.26425013 1.7854738 69 59 57
0.053797103 -0.26539904 1.7932367 68 58 56
0.05534969 -0.26425013 1.7854738 65 55 54
0.057383575 -0.26539904 1.7932367 58 48 47
0.05917681 -0.26539904 1.7932367 53 47 44
0.060970046 -0.26539904 1.7932367 52 42 41
0.06276329 -0.26539904 1.7932367 43 34 34
0.06455652 -0.26539904 1.7932367 39 30 30
0.06634976 -0.26539904 1.7932367 44 36 36
0.067848004 -0.26425013 1.7854738 47 38 40
0.06963348 -0.26425013 1.7854738 40 32 34
0.071418956 -0.26425013 1.7854738 37 30 32
0.0735227 -0.26539904 1.7932367 37 30 33
0.07531594 -0.26539904 1.7932367 39 32 35
0.07677537 -0.26425013 1.7854738 43 37 40
0.07856085 -0.26425013 1.7854738 44 39 41
0.08034632 -0.26425013 1.7854738 44 37 38
0.082131796 -0.26425013 1.7854738 46 38 40
0.08361563 -0.2633003 1.779056 47 39 40
0.08539468 -0.2633003 1.779056 46 40 41
0.087173745 -0.2633003 1.779056 47 39 40
0.088952795 -0.2633003 1.779056 47 39 41
0.09073186 -0.2633003 1.779056 46 40 41
0.09251091 -0.2633003 1.779056 47 39 41
0.094289966 -0.2633003 1.779056 47 41 42
0.09606902 -0.2633003 1.779056 47 41 42
0.09784807 -0.2633003 1.779056 49 42 44
0.09962714 -0.2633003 1.779056 48 42 44
0.10140619 -0.2633003 1.779056 49 42 44
0.103185244 -0.2633003 1.779056 50 42 45
0.105342954 -0.26425013 1.7854738 50 42 44
0.107128434 -0.26425013 1.7854738 50 42 43
0.108913906 -0.26425013 1.7854738 50 42 43
0.11069938 -0.26425013 1.7854738 49 42 43
0.111280516 -0.2614209 1.7663574 50 43 41
0.10968052 -0.2536362 1.7137581 57 49 45
0.10377634 -0.23629075 1.5965592 98 91 86
0.10304606 -0.23107298 1.561304 104 95 89
0.10311112 -0.22776784 1.5389719 69 56 49
0.10504203 -0.2286209 1.5447358 75 54 46
0.10540248 -0.22608066 1.527572 140 98 85
0.10693005 -0.22608066 1.527572 148 99 80
0.10845761 -0.22608066 1.527572 162 106 90
0.10957934 -0.22524641 1.5219352 181 122 100
0.11110127 -0.22524641 1.5219352 192 133 108
0.11262321 -0.22524641 1.5219352 202 137 113
0.114145145 -0.22524641 1.5219352 210 140 118
0.115312494 -0.22455591 1.5172696 212 141 118
0.11682976 -0.22455591 1.5172696 214 145 120
0.118347034 -0.22455591 1.5172696 216 145 121
0.11986429 -0.22455591 1.5172696 217 146 121
0.121381566 -0.22455591 1.5172696 218 146 121
0.12289884 -0.22455591 1.5172696 220 148 122
0.124416105 -0.22455591 1.5172696 223 149 123
0.12593338 -0.22455591 1.5172696 222 150 123
0.12745064 -0.22455591 1.5172696 222 150 125
0.12896791 -0.22455591 1.5172696 222 150 126
0.13088644 -0.22524641 1.5219352 222 150 123
0.13240837 -0.22524641 1.5219352 221 149 123
0.1339303 -0.22524641 1.5219352 219 148 122
0.13595392 -0.22608066 1.527572 219 147 121
0.13748148 -0.22608066 1.527572 217 147 120
0.13900904 -0.22608066 1.527572 215 147 119
0.14053662 -0.22608066 1.527572 212 145 119
0.14259233 -0.22692111 1.5332508 211 145 119
0.14412558 -0.22692111 1.5332508 209 142 118
0.14565884 -0.22692111 1.5332508 203 139 115
0.14885214 -0.22948037 1.5505431 187 129 107
0.15040268 -0.22948037 1.5505431 147 104 91
0.15300778 -0.23107298 1.561304 71 48 47
0.15867358 -0.23720898 1.6027634 76 57 52
0.16508785 -0.24433 1.6508784 105 89 78
0.16922231 -0.24796931 1.6754683 185 163 146
0.17876488 -0.25938433 1.7525969 207 185 164
0.18537503 -0.26636413 1.7997576 208 184 163
0.19149207 -0.27250794 1.8412699 205 180 160
0.19333333 -0.27250794 1.8412699 204 181 161
0.19590342 -0.27352554 1.8481455 198 173 151
0.19775157 -0.27352554 1.8481455 201 175 153
0.19959971 -0.27352554 1.8481455 207 181 159
0.20144786 -0.27352554 1.8481455 204 182 158
0.203296 -0.27352554 1.8481455 208 183 163
0.20514415 -0.27352554 1.8481455 215 190 170
0.2069923 -0.27352554 1.8481455 210 186 167
0.20884044 -0.27352554 1.8481455 219 195 174
0.21068858 -0.27352554 1.8481455 210 187 167
0.21253672 -0.27352554 1.8481455 201 177 160
0.21438487 -0.27352554 1.8481455 203 181 162
0.21623302 -0.27352554 1.8481455 215 191 172
0.21808116 -0.27352554 1.8481455 212 190 171
0.21992931 -0.27352554 1.8481455 220 194 175
0.22177747 -0.27352554 1.8481455 215 191 171
0.22362562 -0.27352554 1.8481455 216 189 170
0.22547376 -0.27352554 1.8481455 210 184 167
0.2273219 -0.27352554 1.8481455 212 189 169
0.22917004 -0.27352554 1.8481455 209 183 164
0.23101819 -0.27352554 1.8481455 218 191 170
0.23286633 -0.27352554 1.8481455 212 187 166
0.23471448 -0.27352554 1.8481455 199 174 155
0.23656262 -0.27352554 1.8481455 207 183 164
0.23841077 -0.27352554 1.8481455 205 182 163
0.24025892 -0.27352554 1.8481455 211 186 167
0.24210705 -0.27352554 1.8481455 209 188 169
0.2439552 -0.27352554 1.8481455 213 191 171
0.24580334 -0.27352554 1.8481455 211 188 169
0.24765149 -0.27352554 1.8481455 209 186 168
0.24949963 -0.27352554 1.8481455 206 185 167
0.25134778 -0.27352554 1.8481455 213 190 172
0.25319594 -0.27352554 1.8481455 207 187 168
0.25504407 -0.27352554 1.8481455 206 184 166
0.2568922 -0.27352554 1.8481455 210 187 170
0.25874037 -0.27352554 1.8481455 216 192 176
0.2605885 -0.27352554 1.8481455 214 191 174
0.26243666 -0.27352554 1.8481455 214 190 176
0.2642848 -0.27352554 1.8481455 214 190 176
-0.26514286 -0.2743492 1.8412699 130 105 79
-0.26330158 -0.2743492 1.8412699 110 88 61
-0.26146033 -0.2743492 1.8412699 121 98 72
-0.25961906 -0.2743492 1.8412699 126 101 75
-0.25777778 -0.2743492 1.8412699 127 101 77
-0.2559365 -0.2743492 1.8412699 124 99 75
-0.25409526 -0.2743492 1.8412699 120 97 72
-0.25225398 -0.2743492 1.8412699 122 98 72
-0.24948457 -0.27333236 1.8344454 121 97 73
-0.24765012 -0.27333236 1.8344454 117 93 68
-0.24581568 -0.27333236 1.8344454 117 94 69
-0.24398123 -0.27333236 1.8344454 119 94 70
-0.24214679 -0.27333236 1.8344454 117 92 68
-0.24031235 -0.27333236 1.8344454 116 91 65
-0.23847789 -0.27333236 1.8344454 115 90 63
-0.23664345 -0.27333236 1.8344454 116 93 65
-0.23480901 -0.27333236 1.8344454 117 93 64
-0.23297456 -0.27333236 1.8344454 116 93 63
-0.23114012 -0.27333236 1.8344454 119 95 67
-0.22930567 -0.27333236 1.8344454 118 95 66
-0.22747122 -0.27333236 1.8344454 117 94 64
-0.22563678 -0.27333236 1.8344454 115 94 64
-0.22380234 -0.27333236 1.8344454 139 115 87
-0.22196789 -0.27333236 1.8344454 157 135 108
-0.22013344 -0.27333236 1.8344454 165 146 120
-0.218299 -0.27333236 1.8344454 156 139 119
-0.21566519 -0.272323 1.8276712 150 134 118
-0.21383752 -0.272323 1.8276712 170 149 131
-0.21200986 -0.272323 1.8276712 167 148 129
-0.21018219 -0.272323 1.8276712 168 150 129
-0.2083545 -0.272323 1.8276712 168 149 129
-0.20652685 -0.272323 1.8276712 165 146 126
-0.20469917 -0.272323 1.8276712 160 142 121
-0.20212509 -0.2713211 1.8209468 154 137 116
-0.20030415 -0.2713211 1.8209468 155 137 116
-0.1984832 -0.2713211 1.8209468 147 130 110
-0.19666226 -0.2713211 1.8209468 143 125 105
-0.19398487 -0.27012846 1.8129426 140 122 102
-0.19217192 -0.27012846 1.8129426 141 123 103
-0.19035898 -0.27012846 1.8129426 139 122 102
-0.18937847 -0.2713211 1.8209468 149 131 109
-0.18755752 -0.2713211 1.8209468 146 130 109
-0.18573657 -0.2713211 1.8209468 145 128 107
-0.18391563 -0.2713211 1.8209468 146 128 107
-0.18209468 -0.2713211 1.8209468 140 123 102
-0.18027373 -0.2713211 1.8209468 137 120 99
-0.17845279 -0.2713211 1.8209468 140 123 100
-0.17663184 -0.2713211 1.8209468 145 126 103
-0.1748109 -0.2713211 1.8209468 140 123 103
-0.17362875 -0.272323 1.8276712 144 125 107
-0.17116901 -0.2713211 1.8209468 145 127 107
-0.16934805 -0.2713211 1.8209468 146 129 109
-0.1675271 -0.2713211 1.8209468 143 126 107
-0.16570616 -0.2713211 1.8209468 143 126 106
-0.16316484 -0.27012846 1.8129426 143 125 107
-0.1613519 -0.27012846 1.8129426 143 125 106
-0.16083507 -0.272323 1.8276712 141 123 104
-0.15842238 -0.2713211 1.8209468 135 118 99
-0.15591307 -0.27012846 1.8129426 136 120 98
-0.15478048 -0.2713211 1.8209468 133 117 97
-0.15295954 -0.2713211 1.8209468 124 110 89
-0.15047425 -0.27012846 1.8129426 118 102 82
-0.14931764 -0.2713211 1.8209468 118 101 81
-0.14804137 -0.272323 1.8276712 120 104 87
-0.14232448 -0.26507935 1.779056 127 110 96
-0.13738488 -0.2591183 1.739049 101 87 83
-0.13266253 -0.2534195 1.7008018 90 77 75
-0.1304239 -0.25237873 1.693817 86 73 72
-0.12873009 -0.25237873 1.693817 81 69 66
-0.126603 -0.25151795 1.68804 79 68 64
-0.1244058 -0.25049278 1.6811595 77 67 62
-0.122309186 -0.24964477 1.6754683 75 64 62
-0.120145656 -0.24863476 1.6686896 76 65 63
-0.11847696 -0.24863476 1.6686896 76 66 64
-0.11641577 -0.24779929 1.6630825 74 64 62
-0.11429184 -0.2468041 1.6564034 71 62 59
-0.11225974 -0.24598087 1.6508784 71 61 59
-0.11016789 -0.24500023 1.6442969 72 63 60
-0.108164236 -0.24418896 1.6388521 74 64 62
-0.10652539 -0.24418896 1.6388521 73 62 59
-0.10488654 -0.24418896 1.6388521 74 65 63
-0.10324768 -0.24418896 1.6388521 70 60 60
-0.101608835 -0.24418896 1.6388521 70 61 62
-0.099969976 -0.24418896 1.6388521 67 59 59
-0.09833113 -0.24418896 1.6388521 65 57 57
-0.096309595 -0.24322252 1.632366 67 59 59
-0.094677225 -0.24322252 1.632366 64 57 56
-0.091357514 -0.23881175 1.6027634 71 64 61
-0.08715808 -0.23190273 1.5563942 116 113 104
-0.08527987 -0.23103091 1.5505431 149 149 134
-0.08341573 -0.23016563 1.5447358 149 151 137
-0.081870995 -0.23016563 1.5447358 149 146 133
-0.08002654 -0.2293068 1.5389719 147 143 131
-0.078195795 -0.22845438 1.5332508 128 117 107
-0.07666253 -0.22845438 1.5332508 121 100 88
-0.075129285 -0.22845438 1.5332508 114 74 56
-0.07332346 -0.22760823 1.527572 121 77 52
-0.07179588 -0.22760823 1.527572 133 88 60
-0.07026831 -0.22760823 1.527572 150 97 73
-0.068487085 -0.22676834 1.5219352 159 103 78
-0.06696515 -0.22676834 1.5219352 165 108 80
-0.06524259 -0.22607316 1.5172696 168 111 81
-0.063491754 -0.22524457 1.5117085 168 110 81
-0.061753705 -0.224422 1.5061879 167 109 80
-0.060247518 -0.224422 1.5061879 168 110 81
-0.058741327 -0.224422 1.5061879 170 110 81
-0.05723514 -0.224422 1.5061879 171 111 83
-0.055728953 -0.224422 1.5061879 174 114 88
-0.05402547 -0.22360542 1.5007075 179 119 95
-0.05252476 -0.22360542 1.5007075 181 120 94
-0.051024057 -0.22360542 1.5007075 186 121 95
-0.049343806 -0.22279477 1.4952669 189 124 97
-0.04784854 -0.22279477 1.4952669 190 124 97
-0.046353277 -0.22279477 1.4952669 188 125 98
-0.044695966 -0.22198996 1.4898655 191 126 98
-0.0432061 -0.22198996 1.4898655 192 129 97
-0.041867472 -0.22279477 1.4952669 193 128 96
-0.040372208 -0.22279477 1.4952669 195 131 100
-0.03887694 -0.22279477 1.4952669 196 133 101
-0.03738167 -0.22279477 1.4952669 200 135 103
-0.035886407 -0.22279477 1.4952669 201 135 105
-0.03439114 -0.22279477 1.4952669 204 138 109
-0.032895874 -0.22279477 1.4952669 205 137 106
-0.031400606 -0.22279477 1.4952669 203 134 105
-0.029905338 -0.22279477 1.4952669 203 135 104
-0.028513443 -0.22360542 1.5007075 204 134 104
-0.027012736 -0.22360542 1.5007075 204 134 105
-0.025512028 -0.22360542 1.5007075 203 133 104
-0.02401132 -0.22360542 1.5007075 199 132 105
-0.022510612 -0.22360542 1.5007075 193 131 104
-0.02116392 -0.22524457 1.5117085 174 127 107
-0.02075527 -0.23788731 1.5965592 98 77 64
-0.02048 -0.25429332 1.7066667 109 94 82
-0.019499524 -0.26412988 1.7726839 113 97 86
-0.017854739 -0.26603562 1.7854738 109 94 81
-0.016069263 -0.26603562 1.7854738 108 93 79
-0.014398061 -0.2681639 1.7997576 112 96 82
-0.012598303 -0.2681639 1.7997576 108 93 80
-0.010798546 -0.2681639 1.7997576 108 93 80
-0.008998788 -0.2681639 1.7997576 98 83 72
-0.0071990304 -0.2681639 1.7997576 88 71 60
-0.005399273 -0.2681639 1.7997576 87 72 60
-0.0035995152 -0.2681639 1.7997576 83 67 57
-0.0017997576 -0.2681639 1.7997576 85 67 55
0.0 -0.2681639 1.7997576 85 68 56
0.0017997576 -0.2681639 1.7997576 80 64 53
0.0035995152 -0.2681639 1.7997576 82 64 54
0.005399273 -0.2681639 1.7997576 81 66 56
0.0071990304 -0.2681639 1.7997576 80 66 56
0.008966183 -0.26719227 1.7932367 79 65 55
0.010759421 -0.26719227 1.7932367 77 63 54
0.012552657 -0.26719227 1.7932367 77 62 53
0.014345894 -0.26719227 1.7932367 79 63 52
0.01613913 -0.26719227 1.7932367 82 67 57
0.017932367 -0.26719227 1.7932367 80 65 54
0.019725606 -0.26719227 1.7932367 84 70 60
0.021518841 -0.26719227 1.7932367 88 73 62
0.023211159 -0.26603562 1.7854738 86 70 60
0.025105314 -0.26719227 1.7932367 87 70 59
0.026898552 -0.26719227 1.7932367 83 69 58
0.028691787 -0.26719227 1.7932367 84 70 60
0.030485023 -0.26719227 1.7932367 86 71 62
0.032138526 -0.26603562 1.7854738 84 68 61
0.033924002 -0.26603562 1.7854738 80 65 57
0.035709478 -0.26603562 1.7854738 78 63 56
0.03749495 -0.26603562 1.7854738 80 66 57
0.039280426 -0.26603562 1.7854738 80 65 56
0.040918287 -0.26507935 1.779056 78 64 55
0.042851374 -0.26603562 1.7854738 79 65 57
0.044636846 -0.26603562 1.7854738 76 64 56
0.046422318 -0.26603562 1.7854738 77 64 56
0.048207793 -0.26603562 1.7854738 76 67 56
0.05021063 -0.26719227 1.7932367 75 64 54
0.052003864 -0.26719227 1.7932367 71 60 50
0.053564217 -0.26603562 1.7854738 70 57 48
0.05534969 -0.26603562 1.7854738 71 60 55
0.05713516 -0.26603562 1.7854738 67 54 49
0.058920637 -0.26603562 1.7854738 55 49 46
0.06070611 -0.26603562 1.7854738 52 44 41
0.062491585 -0.26603562 1.7854738 46 39 37
0.06427705 -0.26603562 1.7854738 42 36 34
0.06606253 -0.26603562 1.7854738 48 42 41
0.067848004 -0.26603562 1.7854738 43 37 36
0.06963348 -0.26603562 1.7854738 38 30 31
0.071418956 -0.26603562 1.7854738 37 30 31
0.07320443 -0.26603562 1.7854738 36 30 33
0.0749899 -0.26603562 1.7854738 38 31 34
0.07677537 -0.26603562 1.7854738 38 31 34
0.07856085 -0.26603562 1.7854738 41 33 36
0.08034632 -0.26603562 1.7854738 44 37 40
0.081836574 -0.26507935 1.779056 46 39 40
0.08361563 -0.26507935 1.779056 45 40 40
0.08539468 -0.26507935 1.779056 46 40 41
0.087173745 -0.26507935 1.779056 46 39 40
0.088952795 -0.26507935 1.779056 46 39 40
0.09073186 -0.26507935 1.779056 46 40 41
0.09251091 -0.26507935 1.779056 46 40 41
0.094289966 -0.26507935 1.779056 49 40 42
0.09606902 -0.26507935 1.779056 45 40 40
0.09784807 -0.26507935 1.779056 47 41 43
0.09962714 -0.26507935 1.779056 48 41 44
0.10140619 -0.26507935 1.779056 50 43 45
0.103185244 -0.26507935 1.779056 51 43 44
0.105342954 -0.26603562 1.7854738 50 42 45
0.107128434 -0.26603562 1.7854738 50 42 45
0.108913906 -0.26603562 1.7854738 50 42 45
0.11069938 -0.26603562 1.7854738 50 43 45
0.111679085 -0.26412988 1.7726839 51 43 44
0.112166196 -0.26113692 1.7525969 50 42 42
0.10810036 -0.24779929 1.6630825 71 64 62
0.10496659 -0.23697002 1.5904028 103 94 93
0.1034973 -0.23016563 1.5447358 86 75 69
0.10465009 -0.2293068 1.5389719 77 59 52
0.10540248 -0.22760823 1.527572 138 97 84
0.10693005 -0.22760823 1.527572 150 102 83
0.108860806 -0.22845438 1.5332508 171 115 97
0.10957934 -0.22676834 1.5219352 189 132 109
0.11110127 -0.22676834 1.5219352 201 135 112
0.112277955 -0.22607316 1.5172696 207 138 115
0.11379522 -0.22607316 1.5172696 212 141 118
0.115312494 -0.22607316 1.5172696 213 143 118
0.11682976 -0.22607316 1.5172696 214 143 120
0.118347034 -0.22607316 1.5172696 216 144 120
0.11942497 -0.22524457 1.5117085 218 146 121
0.120495036 -0.224422 1.5061879 221 149 122
0.122448385 -0.22524457 1.5117085 223 149 123
0.1239601 -0.22524457 1.5117085 222 150 123
0.1254718 -0.22524457 1.5117085 223 149 123
0.12698351 -0.22524457 1.5117085 222 151 125
0.12849523 -0.22524457 1.5117085 222 150 125
0.13000692 -0.22524457 1.5117085 220 149 125
0.13151865 -0.22524457 1.5117085 220 149 125
0.13351972 -0.22607316 1.5172696 220 149 123
0.135037 -0.22607316 1.5172696 220 149 124
0.13655426 -0.22607316 1.5172696 215 147 123
0.13807154 -0.22607316 1.5172696 215 147 122
0.14001803 -0.22676834 1.5219352 213 146 121
0.14153998 -0.22676834 1.5219352 216 146 121
0.14359176 -0.22760823 1.527572 216 145 121
0.14511934 -0.22760823 1.527572 209 145 119
0.1477413 -0.2293068 1.5389719 208 141 117
0.14928028 -0.2293068 1.5389719 181 121 101
0.15195322 -0.23103091 1.5505431 125 92 76
0.16160423 -0.24322252 1.632366 126 106 97
0.17066666 -0.25429332 1.7066667 190 168 148
0.17502895 -0.25821102 1.7329599 214 191 169
0.18146372 -0.26507935 1.779056 210 187 165
0.1867331 -0.27012846 1.8129426 205 185 163
0.19149207 -0.2743492 1.8412699 211 188 167
0.19333333 -0.2743492 1.8412699 205 180 160
0.1951746 -0.2743492 1.8412699 201 174 156
0.19701587 -0.2743492 1.8412699 208 179 161
0.19885714 -0.2743492 1.8412699 207 182 161
0.2006984 -0.2743492 1.8412699 212 185 165
0.20253968 -0.2743492 1.8412699 212 186 165
0.20438094 -0.2743492 1.8412699 205 182 162
0.20622224 -0.2743492 1.8412699 199 176 158
0.2080635 -0.2743492 1.8412699 213 189 169
0.20990478 -0.2743492 1.8412699 220 195 175
0.21174604 -0.2743492 1.8412699 218 192 173
0.2135873 -0.2743492 1.8412699 215 194 173
0.21542858 -0.2743492 1.8412699 215 192 172
0.21726984 -0.2743492 1.8412699 215 191 172
0.21911111 -0.2743492 1.8412699 219 196 175
0.22095238 -0.2743492 1.8412699 216 192 172
0.22279365 -0.2743492 1.8412699 219 194 174
0.22463492 -0.2743492 1.8412699 212 186 167
0.22647619 -0.2743492 1.8412699 209 183 166
0.22831745 -0.2743492 1.8412699 212 187 169
0.23015873 -0.2743492 1.8412699 211 186 166
0.232 -0.2743492 1.8412699 213 189 168
0.23384129 -0.2743492 1.8412699 215 188 169
0.23568255 -0.2743492 1.8412699 210 187 166
0.23752381 -0.2743492 1.8412699 213 187 168
0.23936509 -0.2743492 1.8412699 211 187 168
0.24120635 -0.2743492 1.8412699 215 192 172
0.24304762 -0.2743492 1.8412699 213 190 170
0.24488889 -0.2743492 1.8412699 207 184 167
0.24673016 -0.2743492 1.8412699 210 187 168
0.24857143 -0.2743492 1.8412699 211 189 171
0.2504127 -0.2743492 1.8412699 212 189 171
0.25225398 -0.2743492 1.8412699 213 189 171
0.25409526 -0.2743492 1.8412699 216 192 174
0.2559365 -0.2743492 1.8412699 212 189 171
0.25777778 -0.2743492 1.8412699 212 189 173
0.25961906 -0.2743492 1.8412699 212 189 175
0.26146033 -0.2743492 1.8412699 211 190 174
0.26330158 -0.2743492 1.8412699 210 187 172
-0.26416013 -0.2751668 1.8344454 120 97 72
-0.26232567 -0.2751668 1.8344454 130 104 80
-0.26049125 -0.2751668 1.8344454 133 106 81
-0.2586568 -0.2751668 1.8344454 122 98 74
-0.25682235 -0.2751668 1.8344454 123 98 74
-0.2549879 -0.2751668 1.8344454 122 98 74
-0.25315344 -0.2751668 1.8344454 124 98 75
-0.25131902 -0.2751668 1.8344454 132 103 80
-0.24948457 -0.2751668 1.8344454 120 94 71
-0.24673562 -0.27415067 1.8276712 121 95 73
-0.24490795 -0.27415067 1.8276712 116 92 67
-0.24308026 -0.27415067 1.8276712 112 89 62
-0.2412526 -0.27415067 1.8276712 117 93 66
-0.23942493 -0.27415067 1.8276712 118 94 70
-0.23759726 -0.27415067 1.8276712 119 95 70
-0.23576957 -0.27415067 1.8276712 117 93 67
-0.23394191 -0.27415067 1.8276712 113 90 62
-0.23211424 -0.27415067 1.8276712 115 91 64
-0.23028655 -0.27415067 1.8276712 118 94 68
-0.2284589 -0.27415067 1.8276712 115 93 65
-0.22663122 -0.27415067 1.8276712 116 94 66
-0.22480355 -0.27415067 1.8276712 115 94 65
-0.22297588 -0.27415067 1.8276712 118 99 73
-0.22114821 -0.27415067 1.8276712 139 120 100
-0.21932054 -0.27415067 1.8276712 152 135 114
-0.21749288 -0.27415067 1.8276712 163 145 124
-0.21566519 -0.27415067 1.8276712 165 147 128
-0.21305078 -0.27314204 1.8209468 165 146 127
-0.21122983 -0.27314204 1.8209468 164 146 126
-0.2094089 -0.27314204 1.8209468 166 146 128
-0.20758794 -0.27314204 1.8209468 163 145 125
-0.20576698 -0.27314204 1.8209468 162 142 122
-0.20394604 -0.27314204 1.8209468 158 138 119
-0.20212509 -0.27314204 1.8209468 154 135 115
-0.19942369 -0.2719414 1.8129426 155 136 116
-0.19761075 -0.2719414 1.8129426 149 133 112
-0.1957978 -0.2719414 1.8129426 145 127 106
-0.19398487 -0.2719414 1.8129426 138 122 102
-0.19147056 -0.27094892 1.8063262 135 119 100
-0.19035898 -0.2719414 1.8129426 145 127 107
-0.18854603 -0.2719414 1.8129426 144 128 107
-0.1867331 -0.2719414 1.8129426 145 128 107
-0.18573657 -0.27314204 1.8209468 145 128 107
-0.18310721 -0.2719414 1.8129426 141 125 105
-0.18209468 -0.27314204 1.8209468 140 122 103
-0.17948133 -0.2719414 1.8129426 138 122 100
-0.17766838 -0.2719414 1.8129426 138 121 99
-0.17585544 -0.2719414 1.8129426 144 126 104
-0.1748109 -0.27314204 1.8209468 147 129 107
-0.17298995 -0.27314204 1.8209468 141 124 105
-0.17116901 -0.27314204 1.8209468 145 126 106
-0.16860367 -0.2719414 1.8129426 139 122 102
-0.16679072 -0.2719414 1.8129426 143 125 105
-0.16497779 -0.2719414 1.8129426 144 125 107
-0.16316484 -0.2719414 1.8129426 142 124 106
-0.16076303 -0.27094892 1.8063262 144 124 106
-0.15953895 -0.2719414 1.8129426 144 125 107
-0.15842238 -0.27314204 1.8209468 145 128 107
-0.15591307 -0.2719414 1.8129426 135 118 98
-0.15410013 -0.2719414 1.8129426 128 112 94
-0.15295954 -0.27314204 1.8209468 125 110 90
-0.15047425 -0.2719414 1.8129426 118 103 83
-0.14811875 -0.27094892 1.8063262 121 104 85
-0.14749669 -0.27314204 1.8209468 128 111 93
-0.14232448 -0.2668584 1.779056 127 111 95
-0.13738488 -0.26085734 1.739049 102 88 80
-0.13266253 -0.25512028 1.7008018 89 76 73
-0.1304239 -0.25407255 1.693817 87 74 71
-0.12873009 -0.25407255 1.693817 80 68 64
-0.126603 -0.253206 1.68804 79 67 64
-0.1244058 -0.25217393 1.6811595 78 68 64
-0.122309186 -0.25132024 1.6754683 76 66 63
-0.120145656 -0.25030345 1.6686896 73 63 63
-0.11807886 -0.24946237 1.6630825 74 64 64
-0.115948245 -0.24846052 1.6564034 74 65 64
-0.11429184 -0.24846052 1.6564034 75 66 64
-0.11181219 -0.24664453 1.6442969 72 62 60
-0.109803095 -0.24582782 1.6388521 74 64 62
-0.108164236 -0.24582782 1.6388521 71 60 58
-0.10652539 -0.24582782 1.6388521 73 63 60
-0.10488654 -0.24582782 1.6388521 75 65 63
-0.10324768 -0.24582782 1.6388521 68 59 58
-0.101608835 -0.24582782 1.6388521 74 64 66
-0.099969976 -0.24582782 1.6388521 68 60 61
-0.09833113 -0.24582782 1.6388521 68 59 58
-0.096309595 -0.24485488 1.632366 66 59 58
-0.094677225 -0.24485488 1.632366 63 56 55
-0.09165433 -0.24119559 1.6079706 71 64 61
-0.08715808 -0.23345913 1.5563942 111 108 100
-0.08527987 -0.23258147 1.5505431 149 149 135
-0.08341573 -0.23171037 1.5447358 146 143 130
-0.081870995 -0.23171037 1.5447358 140 135 123
-0.08002654 -0.23084578 1.5389719 130 116 107
-0.078195795 -0.22998762 1.5332508 91 79 72
-0.07666253 -0.22998762 1.5332508 70 49 41
-0.075129285 -0.22998762 1.5332508 109 68 55
-0.07332346 -0.2291358 1.527572 132 86 63
-0.07179588 -0.2291358 1.527572 147 97 71
-0.070009016 -0.22829029 1.5219352 164 106 79
-0.068487085 -0.22829029 1.5219352 168 109 78
-0.06675986 -0.22759044 1.5172696 168 110 78
-0.06524259 -0.22759044 1.5172696 171 111 78
-0.06325989 -0.22592819 1.5061879 170 111 78
-0.061753705 -0.22592819 1.5061879 170 111 78
-0.060247518 -0.22592819 1.5061879 172 112 78
-0.058741327 -0.22592819 1.5061879 175 113 79
-0.05723514 -0.22592819 1.5061879 176 114 83
-0.055728953 -0.22592819 1.5061879 180 117 89
-0.05402547 -0.22510612 1.5007075 183 119 94
-0.052334342 -0.22429004 1.4952669 184 121 94
-0.050839074 -0.22429004 1.4952669 185 121 94
-0.049343806 -0.22429004 1.4952669 187 122 95
-0.0476757 -0.22347982 1.4898655 186 122 95
-0.046521936 -0.22510612 1.5007075 187 124 96
-0.04485801 -0.22429004 1.4952669 189 125 95
-0.04336274 -0.22429004 1.4952669 193 128 96
-0.041867472 -0.22429004 1.4952669 192 128 96
-0.040372208 -0.22429004 1.4952669 193 130 100
-0.03887694 -0.22429004 1.4952669 197 131 102
-0.03738167 -0.22429004 1.4952669 197 134 103
-0.035886407 -0.22429004 1.4952669 202 136 105
-0.03439114 -0.22429004 1.4952669 203 136 107
-0.032895874 -0.22429004 1.4952669 205 135 105
-0.031400606 -0.22429004 1.4952669 204 136 107
-0.029905338 -0.22429004 1.4952669 206 136 106
-0.028410072 -0.22429004 1.4952669 206 136 106
-0.027012736 -0.22510612 1.5007075 205 135 106
-0.025512028 -0.22510612 1.5007075 205 134 105
-0.02392427 -0.22429004 1.4952669 201 134 104
-0.022347983 -0.22347982 1.4898655 197 134 104
-0.021009905 -0.22510612 1.5007075 179 129 106
-0.020296952 -0.2341956 1.561304 119 96 82
-0.020173915 -0.25217393 1.6811595 111 95 83
-0.01921054 -0.26196188 1.7464126 112 95 84
-0.017726839 -0.26590258 1.7726839 111 96 83
-0.016011503 -0.2668584 1.779056 109 96 80
-0.014345894 -0.2689855 1.7932367 113 97 84
-0.012552657 -0.2689855 1.7932367 106 90 77
-0.010759421 -0.2689855 1.7932367 104 89 76
-0.008966183 -0.2689855 1.7932367 90 74 62
-0.007172947 -0.2689855 1.7932367 89 73 61
-0.0053797103 -0.2689855 1.7932367 87 70 59
-0.0035864734 -0.2689855 1.7932367 85 71 59
-0.0017932367 -0.2689855 1.7932367 85 68 54
0.0 -0.2689855 1.7932367 86 69 56
0.0017932367 -0.2689855 1.7932367 85 68 56
0.0035864734 -0.2689855 1.7932367 85 68 57
0.0053797103 -0.2689855 1.7932367 80 65 54
0.007172947 -0.2689855 1.7932367 81 65 56
0.0089273695 -0.26782107 1.7854738 79 63 54
0.010759421 -0.2689855 1.7932367 79 64 54
0.012552657 -0.2689855 1.7932367 79 65 55
0.01428379 -0.26782107 1.7854738 82 66 56
0.016069263 -0.26782107 1.7854738 84 70 59
0.017854739 -0.26782107 1.7854738 86 71 61
0.019640213 -0.26782107 1.7854738 86 72 62
0.021425687 -0.26782107 1.7854738 86 71 61
0.023211159 -0.26782107 1.7854738 86 70 60
0.025105314 -0.2689855 1.7932367 87 71 61
0.026782108 -0.26782107 1.7854738 84 69 58
0.028464895 -0.2668584 1.779056 84 69 60
0.030353054 -0.26782107 1.7854738 87 72 64
0.032138526 -0.26782107 1.7854738 83 67 58
0.033802062 -0.2668584 1.779056 83 68 59
0.03558112 -0.2668584 1.779056 79 65 57
0.03749495 -0.26782107 1.7854738 80 66 57
0.039280426 -0.26782107 1.7854738 80 67 56
0.040918287 -0.2668584 1.779056 77 63 54
0.042851374 -0.26782107 1.7854738 80 65 57
0.044636846 -0.26782107 1.7854738 76 64 56
0.046422318 -0.26782107 1.7854738 77 64 56
0.048207793 -0.26782107 1.7854738 77 66 54
0.049993265 -0.26782107 1.7854738 76 65 55
0.05177874 -0.26782107 1.7854738 73 61 51
0.053564217 -0.26782107 1.7854738 72 62 52
0.05534969 -0.26782107 1.7854738 73 61 55
0.057383575 -0.2689855 1.7932367 72 59 55
0.05917681 -0.2689855 1.7932367 59 49 47
0.060487904 -0.2668584 1.779056 55 45 43
0.062491585 -0.26782107 1.7854738 50 41 39
0.06404601 -0.2668584 1.779056 47 39 37
0.06606253 -0.26782107 1.7854738 54 47 45
0.067848004 -0.26782107 1.7854738 54 47 46
0.06993623 -0.2689855 1.7932367 42 35 34
0.071418956 -0.26782107 1.7854738 39 31 31
0.07294129 -0.2668584 1.779056 38 31 33
0.07472035 -0.2668584 1.779056 37 30 31
0.0764994 -0.2668584 1.779056 36 29 30
0.07856085 -0.26782107 1.7854738 40 33 34
0.08034632 -0.26782107 1.7854738 44 37 38
0.081836574 -0.2668584 1.779056 45 39 40
0.08361563 -0.2668584 1.779056 45 40 40
0.08539468 -0.2668584 1.779056 45 40 41
0.087173745 -0.2668584 1.779056 47 40 41
0.088952795 -0.2668584 1.779056 45 40 41
0.09073186 -0.2668584 1.779056 46 39 40
0.09251091 -0.2668584 1.779056 45 38 40
0.094289966 -0.2668584 1.779056 48 40 41
0.09606902 -0.2668584 1.779056 49 41 43
0.09784807 -0.2668584 1.779056 49 41 44
0.09962714 -0.2668584 1.779056 49 42 44
0.10140619 -0.2668584 1.779056 48 41 44
0.103185244 -0.2668584 1.779056 49 42 44
0.105342954 -0.26782107 1.7854738 51 43 45
0.107128434 -0.26782107 1.7854738 52 44 45
0.108913906 -0.26782107 1.7854738 52 44 45
0.11069938 -0.26782107 1.7854738 52 43 46
0.111679085 -0.26590258 1.7726839 52 44 48
0.11304688 -0.2649536 1.7663574 52 46 48
0.11303818 -0.26085734 1.739049 52 46 46
0.110580906 -0.25132024 1.6754683 75 67 68
