ply
format ascii 1.0
element vertex 1083
property float32 x
property float32 y
property float32 z
property uchar red
property uchar green
property uchar blue
element face 0
property list uint8 int32 vertex_indices
end_header
-0.13905983 -0.32746345 1.4952669 179 155 134
-0.13756455 -0.32746345 1.4952669 186 160 140
-0.1370631 -0.32985517 1.5061879 196 169 146
-0.13555692 -0.32985517 1.5061879 195 169 148
-0.13405073 -0.32985517 1.5061879 198 175 149
-0.13303035 -0.33106413 1.5117085 204 179 156
-0.13151865 -0.33106413 1.5117085 203 178 153
-0.13000692 -0.33106413 1.5117085 198 178 153
-0.12849523 -0.33106413 1.5117085 190 168 145
-0.12698351 -0.33106413 1.5117085 188 167 143
-0.12593338 -0.33228204 1.5172696 183 163 139
-0.124416105 -0.33228204 1.5172696 193 171 150
-0.122448385 -0.33106413 1.5117085 196 172 151
-0.121754825 -0.3333038 1.5219352 195 173 151
-0.12023288 -0.3333038 1.5219352 196 174 150
-0.11871094 -0.3333038 1.5219352 196 175 152
-0.11682976 -0.33228204 1.5172696 198 174 152
-0.115312494 -0.33228204 1.5172696 193 171 148
-0.114145145 -0.3333038 1.5219352 193 171 148
-0.11262321 -0.3333038 1.5219352 192 170 151
-0.11110127 -0.3333038 1.5219352 195 172 150
-0.10957934 -0.3333038 1.5219352 190 167 145
-0.1080574 -0.3333038 1.5219352 176 155 135
-0.10653547 -0.3333038 1.5219352 175 153 131
-0.10501353 -0.3333038 1.5219352 169 144 123
-0.10349159 -0.3333038 1.5219352 142 120 101
-0.10196966 -0.3333038 1.5219352 136 113 95
-0.10044772 -0.3333038 1.5219352 134 112 95
-0.09892579 -0.3333038 1.5219352 130 109 90
-0.097403854 -0.3333038 1.5219352 127 107 88
-0.09588192 -0.3333038 1.5219352 126 105 87
-0.09435999 -0.3333038 1.5219352 120 101 81
-0.09283805 -0.3333038 1.5219352 120 102 85
-0.09103618 -0.33228204 1.5172696 120 101 85
-0.089518905 -0.33228204 1.5172696 126 105 89
-0.08800164 -0.33228204 1.5172696 123 103 88
-0.086484365 -0.33228204 1.5172696 125 102 89
-0.0849671 -0.33228204 1.5172696 116 96 84
-0.083449826 -0.33228204 1.5172696 121 100 89
-0.08193256 -0.33228204 1.5172696 124 104 91
-0.08041529 -0.33228204 1.5172696 120 101 90
-0.07889802 -0.33228204 1.5172696 113 95 85
-0.07709713 -0.33106413 1.5117085 107 91 80
-0.075309396 -0.32985517 1.5061879 104 87 76
-0.07380321 -0.32985517 1.5061879 103 86 77
-0.07229702 -0.32985517 1.5061879 107 91 82
-0.070790835 -0.32985517 1.5061879 107 92 78
-0.06928465 -0.32985517 1.5061879 100 85 73
-0.06753184 -0.32865494 1.5007075 73 59 50
-0.06627227 -0.32985517 1.5061879 64 52 43
-0.06476608 -0.32985517 1.5061879 64 53 50
-0.06280121 -0.32746345 1.4952669 66 53 48
-0.061305944 -0.32746345 1.4952669 66 55 49
-0.0600283 -0.32865494 1.5007075 61 50 44
-0.05831541 -0.32746345 1.4952669 60 49 42
-0.057026885 -0.32865494 1.5007075 65 53 47
-0.055728953 -0.32985517 1.5061879 65 54 48
-0.053442113 -0.3251062 1.4845031 70 58 51
-0.051771272 -0.32394025 1.4791791 71 60 53
-0.05029209 -0.32394025 1.4791791 74 61 55
-0.04881291 -0.32394025 1.4791791 79 67 61
-0.046802208 -0.3203026 1.462569 94 82 77
-0.045020346 -0.31804696 1.4522692 104 90 86
-0.043263406 -0.31582284 1.4421135 108 92 89
-0.04167557 -0.31472245 1.4370887 107 92 88
-0.040238485 -0.31472245 1.4370887 106 89 86
-0.038644303 -0.31344825 1.4312705 105 89 83
-0.03721303 -0.31344825 1.4312705 105 88 83
-0.03592722 -0.31472245 1.4370887 104 87 82
-0.034490127 -0.31472245 1.4370887 103 84 81
-0.03305304 -0.31472245 1.4370887 103 86 81
-0.03161595 -0.31472245 1.4370887 105 87 83
-0.030178864 -0.31472245 1.4370887 102 86 83
-0.02862541 -0.31344825 1.4312705 103 86 82
-0.027194139 -0.31344825 1.4312705 104 87 81
-0.025958044 -0.31582284 1.4421135 104 87 83
-0.024601951 -0.31693104 1.4471736 104 87 83
-0.023073817 -0.31582284 1.4421135 98 81 77
-0.021631703 -0.31582284 1.4421135 93 76 72
-0.020189589 -0.31582284 1.4421135 97 80 77
-0.018747477 -0.31582284 1.4421135 102 85 84
-0.017305363 -0.31582284 1.4421135 102 86 85
-0.01586325 -0.31582284 1.4421135 108 95 93
-0.014471736 -0.31693104 1.4471736 109 96 94
-0.013024563 -0.31693104 1.4471736 101 90 87
-0.011577389 -0.31693104 1.4471736 105 93 90
-0.0101302145 -0.31693104 1.4471736 108 95 93
-0.008713615 -0.31804696 1.4522692 104 91 89
-0.007261346 -0.31804696 1.4522692 110 95 93
-0.0058090766 -0.31804696 1.4522692 112 99 98
-0.0043568076 -0.31804696 1.4522692 121 106 106
-0.002914802 -0.3191708 1.4574009 111 97 99
-0.001462569 -0.3203026 1.462569 110 97 97
0.0 -0.3203026 1.462569 118 105 105
0.001462569 -0.3203026 1.462569 119 104 105
0.0029355478 -0.32144248 1.4677739 123 108 108
0.0044033215 -0.32144248 1.4677739 122 108 110
0.0058710957 -0.32144248 1.4677739 129 112 116
0.0073388694 -0.32144248 1.4677739 131 113 117
0.008838096 -0.32259047 1.4730159 137 118 121
0.010354253 -0.32394025 1.4791791 149 130 132
0.011833433 -0.32394025 1.4791791 158 137 139
0.013360528 -0.3251062 1.4845031 165 145 137
0.0150618795 -0.32985517 1.5061879 196 174 144
0.016689966 -0.33228204 1.5172696 198 174 153
0.018207235 -0.33228204 1.5172696 200 177 154
0.019785158 -0.3333038 1.5219352 198 175 152
0.021307092 -0.3333038 1.5219352 198 173 151
0.02282903 -0.3333038 1.5219352 198 173 153
0.024350964 -0.3333038 1.5219352 199 176 154
0.025968725 -0.33453828 1.527572 206 182 159
0.027394835 -0.3333038 1.5219352 212 191 166
0.028916769 -0.3333038 1.5219352 207 187 163
0.030551441 -0.33453828 1.527572 209 187 164
0.032079015 -0.33453828 1.527572 205 181 159
0.033482574 -0.3333038 1.5219352 181 158 140
0.035004508 -0.3333038 1.5219352 180 157 138
0.036526445 -0.3333038 1.5219352 185 161 142
0.038048383 -0.3333038 1.5219352 189 168 147
0.039570317 -0.3333038 1.5219352 221 199 172
0.04109225 -0.3333038 1.5219352 219 197 172
0.042614184 -0.3333038 1.5219352 216 193 170
0.04413612 -0.3333038 1.5219352 210 186 164
0.04565806 -0.3333038 1.5219352 208 186 164
0.047179993 -0.3333038 1.5219352 209 189 168
0.048701927 -0.3333038 1.5219352 204 184 163
0.05022386 -0.3333038 1.5219352 205 183 162
0.051745795 -0.3333038 1.5219352 214 190 168
0.053267736 -0.3333038 1.5219352 215 194 171
0.054621704 -0.33228204 1.5172696 222 202 176
0.056138977 -0.33228204 1.5172696 214 192 169
0.057656247 -0.33228204 1.5172696 207 186 163
0.059173517 -0.33228204 1.5172696 215 192 170
0.060690783 -0.33228204 1.5172696 212 190 166
0.06198005 -0.33106413 1.5117085 212 189 167
0.063491754 -0.33106413 1.5117085 211 192 169
0.06500346 -0.33106413 1.5117085 216 196 174
0.06627227 -0.32985517 1.5061879 213 193 172
0.06777846 -0.32985517 1.5061879 213 194 171
0.06928465 -0.32985517 1.5061879 215 192 171
0.070790835 -0.32985517 1.5061879 211 188 167
0.07229702 -0.32985517 1.5061879 197 176 156
0.07380321 -0.32985517 1.5061879 156 138 122
0.07503538 -0.32865494 1.5007075 139 123 111
0.07653608 -0.32865494 1.5007075 128 111 96
0.07775388 -0.32746345 1.4952669 118 102 85
0.07924914 -0.32746345 1.4952669 118 101 85
0.08045273 -0.32628053 1.4898655 114 98 84
0.0819426 -0.32628053 1.4898655 109 95 82
0.08313218 -0.3251062 1.4845031 117 102 88
0.084616676 -0.3251062 1.4845031 116 100 88
0.08610118 -0.3251062 1.4845031 111 97 85
0.08758569 -0.3251062 1.4845031 110 96 83
0.08875075 -0.32394025 1.4791791 107 94 85
0.09022993 -0.32394025 1.4791791 99 85 75
0.09170911 -0.32394025 1.4791791 93 77 71
0.093188286 -0.32394025 1.4791791 93 78 73
0.094667464 -0.32394025 1.4791791 89 73 68
0.09614664 -0.32394025 1.4791791 90 75 68
0.09762582 -0.32394025 1.4791791 81 66 60
0.099105 -0.32394025 1.4791791 77 62 55
0.10058418 -0.32394025 1.4791791 69 57 50
0.102063365 -0.32394025 1.4791791 65 53 46
0.103542544 -0.32394025 1.4791791 65 52 48
0.10539973 -0.3251062 1.4845031 66 53 48
0.10765922 -0.32746345 1.4952669 64 50 43
0.108760186 -0.32628053 1.4898655 61 46 39
0.110250056 -0.32628053 1.4898655 64 47 39
0.11173991 -0.32628053 1.4898655 65 48 37
0.11322978 -0.32628053 1.4898655 61 46 40
0.11471965 -0.32628053 1.4898655 62 48 42
0.116209514 -0.32628053 1.4898655 62 49 45
0.11769938 -0.32628053 1.4898655 62 49 44
0.11962135 -0.32746345 1.4952669 65 51 45
0.12111662 -0.32746345 1.4952669 69 55 49
0.12261189 -0.32746345 1.4952669 66 52 46
0.12410715 -0.32746345 1.4952669 67 51 47
0.12560242 -0.32746345 1.4952669 64 48 44
0.12709768 -0.32746345 1.4952669 63 46 44
0.12906085 -0.32865494 1.5007075 71 54 49
0.13008823 -0.32746345 1.4952669 72 55 50
0.13206226 -0.32865494 1.5007075 71 53 48
0.13356297 -0.32865494 1.5007075 74 55 51
0.13506368 -0.32865494 1.5007075 73 55 49
0.13656437 -0.32865494 1.5007075 72 54 47
0.1380651 -0.32865494 1.5007075 78 59 52
0.1395658 -0.32865494 1.5007075 89 68 59
0.1410665 -0.32865494 1.5007075 93 72 64
0.14308785 -0.32985517 1.5061879 83 62 52
0.14565788 -0.33228204 1.5172696 83 60 51
0.14717516 -0.33228204 1.5172696 89 67 56
0.14814743 -0.33106413 1.5117085 96 72 61
0.14965913 -0.33106413 1.5117085 93 70 56
0.15172696 -0.33228204 1.5172696 115 93 81
0.15268256 -0.33106413 1.5117085 109 87 74
0.15419427 -0.33106413 1.5117085 105 83 71
0.15570597 -0.33106413 1.5117085 99 79 67
0.15721768 -0.33106413 1.5117085 104 85 73
0.15872939 -0.33106413 1.5117085 134 111 99
0.1602411 -0.33106413 1.5117085 133 112 100
0.1617528 -0.33106413 1.5117085 146 124 111
0.16326451 -0.33106413 1.5117085 158 135 121
0.16417448 -0.32985517 1.5061879 171 148 132
0.16568066 -0.32985517 1.5061879 169 148 129
0.16718686 -0.32985517 1.5061879 168 147 128
0.1699342 -0.33228204 1.5172696 169 145 128
0.17082305 -0.33106413 1.5117085 171 146 129
0.17233476 -0.33106413 1.5117085 163 139 124
0.17384648 -0.33106413 1.5117085 180 154 138
0.17535819 -0.33106413 1.5117085 190 167 149
0.17752054 -0.33228204 1.5172696 190 168 149
0.17903781 -0.33228204 1.5172696 193 170 150
0.18055509 -0.33228204 1.5172696 196 172 151
0.18207236 -0.33228204 1.5172696 181 159 140
0.18358964 -0.33228204 1.5172696 189 162 142
0.18510689 -0.33228204 1.5172696 174 149 132
0.18662415 -0.33228204 1.5172696 175 149 132
0.18814144 -0.33228204 1.5172696 175 149 131
0.18896356 -0.33106413 1.5117085 177 151 134
0.19117597 -0.33228204 1.5172696 182 157 137
0.19328576 -0.3333038 1.5219352 184 160 141
0.19421051 -0.33228204 1.5172696 186 162 144
0.19632965 -0.3333038 1.5219352 176 153 137
0.19785158 -0.3333038 1.5219352 193 169 149
0.19876231 -0.33228204 1.5172696 198 173 153
0.2002796 -0.33228204 1.5172696 193 167 147
0.20179686 -0.33228204 1.5172696 194 169 148
0.20331413 -0.33228204 1.5172696 179 157 137
0.20483139 -0.33228204 1.5172696 177 155 135
0.20634866 -0.33228204 1.5172696 179 156 137
0.20786594 -0.33228204 1.5172696 179 155 136
0.2093832 -0.33228204 1.5172696 173 151 131
0.21090049 -0.33228204 1.5172696 180 156 133
0.21241774 -0.33228204 1.5172696 174 150 129
0.21393502 -0.33228204 1.5172696 162 140 121
0.21466261 -0.33106413 1.5117085 163 142 123
0.21538487 -0.32985517 1.5061879 185 161 140
-0.20178482 -0.30828238 1.4012835 249 179 0
-0.20038354 -0.30828238 1.4012835 249 179 0
-0.19898225 -0.30828238 1.4012835 249 179 0
-0.19758098 -0.30828238 1.4012835 249 179 0
-0.19617969 -0.30828238 1.4012835 249 179 0
-0.19477841 -0.30828238 1.4012835 248 179 0
-0.19337712 -0.30828238 1.4012835 249 179 0
-0.19197585 -0.30828238 1.4012835 249 179 0
-0.19122426 -0.30933335 1.4060607 249 179 0
-0.1904675 -0.31039152 1.4108704 249 179 0
-0.18905663 -0.31039152 1.4108704 249 179 0
-0.18764576 -0.31039152 1.4108704 249 179 0
-0.18623489 -0.31039152 1.4108704 249 179 0
-0.18482402 -0.31039152 1.4108704 249 179 0
-0.18341316 -0.31039152 1.4108704 249 179 0
-0.18200229 -0.31039152 1.4108704 249 179 0
-0.18059142 -0.31039152 1.4108704 249 179 0
-0.17918055 -0.31039152 1.4108704 249 179 0
-0.17776968 -0.31039152 1.4108704 249 179 0
-0.1763588 -0.31039152 1.4108704 248 180 0
-0.17494793 -0.31039152 1.4108704 249 181 0
-0.17353706 -0.31039152 1.4108704 249 181 0
-0.17212619 -0.31039152 1.4108704 249 181 0
-0.17071532 -0.31039152 1.4108704 249 181 0
-0.16998284 -0.3116352 1.4165236 249 181 0
-0.1685663 -0.3116352 1.4165236 249 181 0
-0.16714978 -0.3116352 1.4165236 249 181 0
-0.16573326 -0.3116352 1.4165236 249 181 0
-0.16431674 -0.3116352 1.4165236 250 180 0
-0.16346161 -0.31270915 1.4214053 251 180 0
-0.1620402 -0.31270915 1.4214053 251 180 0
-0.16061881 -0.31270915 1.4214053 251 180 0
-0.15919739 -0.31270915 1.4214053 251 180 0
-0.15777598 -0.31270915 1.4214053 251 181 0
-0.15635458 -0.31270915 1.4214053 251 180 0
-0.15493318 -0.31270915 1.4214053 248 182 0
-0.15351178 -0.31270915 1.4214053 249 182 0
-0.15261634 -0.3137906 1.4263209 249 181 0
-0.15171468 -0.3148795 1.4312705 249 180 0
-0.1497637 -0.3137906 1.4263209 247 182 0
-0.14833738 -0.3137906 1.4263209 245 175 0
-0.14742085 -0.3148795 1.4312705 218 131 0
-0.1459896 -0.3148795 1.4312705 213 114 0
-0.14455833 -0.3148795 1.4312705 207 113 0
-0.14421135 -0.31726497 1.4421135 208 119 0
-0.14377464 -0.31949922 1.4522692 205 143 54
-0.14333175 -0.32176515 1.462569 203 175 145
-0.14288254 -0.3240635 1.4730159 197 176 153
-0.1420012 -0.3254194 1.4791791 201 177 157
-0.14153723 -0.3277704 1.4898655 201 179 154
-0.14004736 -0.3277704 1.4898655 201 176 151
-0.1385575 -0.3277704 1.4898655 200 173 148
-0.13706763 -0.3277704 1.4898655 193 166 144
-0.13606928 -0.32895872 1.4952669 185 165 141
-0.13506368 -0.33015564 1.5007075 191 166 143
-0.13356297 -0.33015564 1.5007075 193 170 144
-0.13254455 -0.33136132 1.5061879 194 172 150
-0.13103834 -0.33136132 1.5061879 204 179 155
-0.13000692 -0.33257586 1.5117085 202 180 154
-0.12849523 -0.33257586 1.5117085 188 168 143
-0.12651978 -0.33136132 1.5061879 193 171 147
-0.12501359 -0.33136132 1.5061879 193 170 148
-0.12350741 -0.33136132 1.5061879 197 172 150
-0.122448385 -0.33257586 1.5117085 185 165 145
-0.12093668 -0.33257586 1.5117085 189 167 146
-0.11942497 -0.33257586 1.5117085 198 174 150
-0.11791326 -0.33257586 1.5117085 196 173 152
-0.11640156 -0.33257586 1.5117085 194 171 148
-0.114889845 -0.33257586 1.5117085 194 172 151
-0.11379522 -0.3337993 1.5172696 198 177 152
-0.11262321 -0.33482575 1.5219352 196 174 149
-0.11110127 -0.33482575 1.5219352 196 174 151
-0.10957934 -0.33482575 1.5219352 189 166 144
-0.1080574 -0.33482575 1.5219352 176 156 133
-0.10653547 -0.33482575 1.5219352 176 153 132
-0.10501353 -0.33482575 1.5219352 172 147 126
-0.1038749 -0.33606586 1.527572 142 120 102
-0.10165706 -0.3337993 1.5172696 140 117 99
-0.1001398 -0.3337993 1.5172696 138 115 98
-0.09862253 -0.3337993 1.5172696 139 115 101
-0.097403854 -0.33482575 1.5219352 134 109 92
-0.095587984 -0.3337993 1.5172696 128 105 86
-0.09407072 -0.3337993 1.5172696 129 108 88
-0.092553444 -0.3337993 1.5172696 128 107 91
-0.09103618 -0.3337993 1.5172696 128 108 93
-0.089518905 -0.3337993 1.5172696 128 107 92
-0.08800164 -0.3337993 1.5172696 126 105 91
-0.08616738 -0.33257586 1.5117085 119 99 86
-0.08465568 -0.33257586 1.5117085 125 104 91
-0.083143964 -0.33257586 1.5117085 117 99 86
-0.08163226 -0.33257586 1.5117085 119 100 88
-0.08041529 -0.3337993 1.5172696 116 98 86
-0.07889802 -0.3337993 1.5172696 111 95 84
-0.077380754 -0.3337993 1.5172696 105 90 80
-0.075585425 -0.33257586 1.5117085 104 87 76
-0.07380321 -0.33136132 1.5061879 103 86 76
-0.07229702 -0.33136132 1.5061879 103 87 78
-0.070790835 -0.33136132 1.5061879 103 89 75
-0.069538586 -0.33257586 1.5117085 103 88 76
-0.06777846 -0.33136132 1.5061879 88 74 66
-0.06627227 -0.33136132 1.5061879 76 65 54
-0.06429648 -0.32895872 1.4952669 72 60 52
-0.063029714 -0.33015564 1.5007075 67 55 46
-0.061305944 -0.32895872 1.4952669 68 55 46
-0.059810676 -0.32895872 1.4952669 68 57 48
-0.05831541 -0.32895872 1.4952669 71 58 51
-0.057026885 -0.33015564 1.5007075 66 54 47
-0.055324875 -0.32895872 1.4952669 67 55 49
-0.053635158 -0.3277704 1.4898655 69 58 50
-0.052145295 -0.3277704 1.4898655 70 58 51
-0.050473105 -0.3265907 1.4845031 66 54 47
-0.048988607 -0.3265907 1.4845031 68 55 49
-0.0476757 -0.3277704 1.4898655 77 65 60
-0.045663495 -0.3240635 1.4730159 92 79 74
-0.043722026 -0.3206282 1.4574009 104 90 86
-0.042115808 -0.31949922 1.4522692 105 90 87
-0.040379178 -0.31726497 1.4421135 108 92 88
-0.038801394 -0.31615952 1.4370887 105 86 82
-0.037364308 -0.31615952 1.4370887 104 86 82
-0.036052838 -0.31726497 1.4421135 103 85 83
-0.034610726 -0.31726497 1.4421135 103 84 82
-0.033284992 -0.3183782 1.4471736 104 86 83
-0.031837817 -0.3183782 1.4471736 106 87 83
-0.030390646 -0.3183782 1.4471736 105 87 83
-0.02884227 -0.31726497 1.4421135 105 87 84
-0.027400156 -0.31726497 1.4421135 102 86 81
-0.026049126 -0.3183782 1.4471736 100 83 80
-0.024601951 -0.3183782 1.4471736 100 84 83
-0.023073817 -0.31726497 1.4421135 98 83 79
-0.021631703 -0.31726497 1.4421135 93 77 73
-0.020189589 -0.31726497 1.4421135 92 75 77
-0.018747477 -0.31726497 1.4421135 99 83 86
-0.017305363 -0.31726497 1.4421135 100 85 83
-0.01586325 -0.31726497 1.4421135 105 91 88
-0.014471736 -0.3183782 1.4471736 109 96 93
-0.013024563 -0.3183782 1.4471736 106 94 92
-0.011577389 -0.3183782 1.4471736 107 95 92
-0.0101302145 -0.3183782 1.4471736 111 98 96
-0.008683042 -0.3183782 1.4471736 103 91 89
-0.007261346 -0.31949922 1.4522692 105 92 90
-0.0058090766 -0.31949922 1.4522692 107 94 92
-0.0043568076 -0.31949922 1.4522692 114 99 97
-0.0029045383 -0.31949922 1.4522692 108 94 94
-0.001457401 -0.3206282 1.4574009 110 94 95
0.0 -0.32176515 1.462569 115 99 100
0.001462569 -0.32176515 1.462569 109 96 96
0.0029355478 -0.32291025 1.4677739 115 100 101
0.0044033215 -0.32291025 1.4677739 114 100 99
0.0058710957 -0.32291025 1.4677739 129 110 112
0.0073388694 -0.32291025 1.4677739 127 110 113
0.008838096 -0.3240635 1.4730159 128 113 115
0.010311112 -0.3240635 1.4730159 147 129 130
0.011876025 -0.3265907 1.4845031 153 134 135
0.013457403 -0.32895872 1.4952669 168 148 140
0.015007075 -0.33015564 1.5007075 193 172 147
0.016568068 -0.33136132 1.5061879 199 176 154
0.018207235 -0.3337993 1.5172696 197 172 150
0.019785158 -0.33482575 1.5219352 199 174 151
0.021307092 -0.33482575 1.5219352 201 176 154
0.02282903 -0.33482575 1.5219352 187 163 144
0.024350964 -0.33482575 1.5219352 184 159 140
0.025968725 -0.33606586 1.527572 193 167 147
0.027394835 -0.33482575 1.5219352 205 185 160
0.028916769 -0.33482575 1.5219352 213 190 165
0.030438706 -0.33482575 1.5219352 210 188 164
0.03196064 -0.33482575 1.5219352 215 191 166
0.033482574 -0.33482575 1.5219352 218 193 168
0.035004508 -0.33482575 1.5219352 199 177 154
0.036526445 -0.33482575 1.5219352 193 170 148
0.038048383 -0.33482575 1.5219352 199 177 156
0.039570317 -0.33482575 1.5219352 189 167 148
0.04109225 -0.33482575 1.5219352 221 198 173
0.042614184 -0.33482575 1.5219352 215 192 169
0.043839548 -0.33257586 1.5117085 207 185 162
0.04551809 -0.3337993 1.5172696 199 176 157
0.04703536 -0.3337993 1.5172696 207 183 162
0.04855263 -0.3337993 1.5172696 211 186 166
0.0500699 -0.3337993 1.5172696 208 186 163
0.051745795 -0.33482575 1.5219352 209 189 166
0.053104434 -0.3337993 1.5172696 212 191 168
0.054621704 -0.3337993 1.5172696 210 190 166
0.055933215 -0.33257586 1.5117085 197 177 156
0.057444923 -0.33257586 1.5117085 204 184 162
0.05895663 -0.33257586 1.5117085 215 196 171
0.06046834 -0.33257586 1.5117085 212 192 168
0.061753705 -0.33136132 1.5061879 206 186 164
0.06325989 -0.33136132 1.5061879 207 188 168
0.06476608 -0.33136132 1.5061879 207 188 166
0.06627227 -0.33136132 1.5061879 208 188 168
0.06753184 -0.33015564 1.5007075 200 181 162
0.06903255 -0.33015564 1.5007075 196 176 156
0.07053325 -0.33015564 1.5007075 209 187 166
0.07229702 -0.33136132 1.5061879 189 168 152
0.07380321 -0.33136132 1.5061879 164 145 130
0.07503538 -0.33015564 1.5007075 139 122 110
0.07653608 -0.33015564 1.5007075 129 111 97
0.07775388 -0.32895872 1.4952669 120 102 86
0.07896288 -0.3277704 1.4898655 118 100 84
0.08045273 -0.3277704 1.4898655 113 97 82
0.0819426 -0.3277704 1.4898655 112 97 82
0.08313218 -0.3265907 1.4845031 114 98 84
0.084616676 -0.3265907 1.4845031 117 100 86
0.08610118 -0.3265907 1.4845031 112 97 84
0.08758569 -0.3265907 1.4845031 112 100 91
0.08875075 -0.3254194 1.4791791 112 100 94
0.09022993 -0.3254194 1.4791791 108 94 88
0.09170911 -0.3254194 1.4791791 91 75 67
0.093188286 -0.3254194 1.4791791 90 77 69
0.094667464 -0.3254194 1.4791791 86 71 63
0.09614664 -0.3254194 1.4791791 84 67 62
0.09762582 -0.3254194 1.4791791 84 69 63
0.099105 -0.3254194 1.4791791 78 63 58
0.10058418 -0.3254194 1.4791791 72 58 53
0.102063365 -0.3254194 1.4791791 67 53 48
0.103542544 -0.3254194 1.4791791 67 53 48
0.10502172 -0.3254194 1.4791791 68 55 48
0.107270315 -0.3277704 1.4898655 74 61 54
0.108760186 -0.3277704 1.4898655 71 59 51
0.110250056 -0.3277704 1.4898655 65 51 44
0.11173991 -0.3277704 1.4898655 64 49 41
0.11322978 -0.3277704 1.4898655 63 49 44
0.11471965 -0.3277704 1.4898655 63 48 42
0.116209514 -0.3277704 1.4898655 65 51 46
0.11769938 -0.3277704 1.4898655 66 52 47
0.11962135 -0.32895872 1.4952669 67 52 47
0.12111662 -0.32895872 1.4952669 69 55 48
0.12261189 -0.32895872 1.4952669 72 56 50
0.12410715 -0.32895872 1.4952669 71 55 50
0.12560242 -0.32895872 1.4952669 70 52 49
0.12709768 -0.32895872 1.4952669 70 53 48
0.12859295 -0.32895872 1.4952669 75 59 54
0.13008823 -0.32895872 1.4952669 76 57 51
0.1315835 -0.32895872 1.4952669 76 57 51
0.13307875 -0.32895872 1.4952669 78 59 52
0.13555692 -0.33136132 1.5061879 77 57 51
0.1370631 -0.33136132 1.5061879 76 55 48
0.1385693 -0.33136132 1.5061879 80 59 53
0.1395658 -0.33015564 1.5007075 89 69 59
0.1410665 -0.33015564 1.5007075 97 77 63
0.14256722 -0.33015564 1.5007075 92 71 62
0.14565788 -0.3337993 1.5172696 95 73 65
0.14717516 -0.3337993 1.5172696 98 72 61
0.14869243 -0.3337993 1.5172696 105 81 68
0.15020968 -0.3337993 1.5172696 111 90 76
0.15117085 -0.33257586 1.5117085 124 102 87
0.15268256 -0.33257586 1.5117085 127 105 90
0.15419427 -0.33257586 1.5117085 128 105 93
0.15570597 -0.33257586 1.5117085 126 104 93
0.15721768 -0.33257586 1.5117085 119 101 90
0.15872939 -0.33257586 1.5117085 131 110 99
0.1602411 -0.33257586 1.5117085 161 135 121
0.1617528 -0.33257586 1.5117085 160 136 123
0.16266829 -0.33136132 1.5061879 171 148 134
0.16417448 -0.33136132 1.5061879 169 147 133
0.16568066 -0.33136132 1.5061879 166 143 127
0.16718686 -0.33136132 1.5061879 175 152 134
0.1699342 -0.3337993 1.5172696 192 165 144
0.17082305 -0.33257586 1.5117085 162 140 123
0.17233476 -0.33257586 1.5117085 140 120 108
0.17384648 -0.33257586 1.5117085 166 141 127
0.17535819 -0.33257586 1.5117085 186 161 144
0.17686988 -0.33257586 1.5117085 192 168 150
0.17903781 -0.3337993 1.5172696 191 170 149
0.18055509 -0.3337993 1.5172696 194 175 153
0.18207236 -0.3337993 1.5172696 191 167 147
0.18358964 -0.3337993 1.5172696 151 131 117
0.18510689 -0.3337993 1.5172696 150 128 114
0.18662415 -0.3337993 1.5172696 165 139 123
0.18745185 -0.33257586 1.5117085 155 130 116
0.18827349 -0.33136132 1.5061879 158 132 117
0.18977968 -0.33136132 1.5061879 181 154 134
0.19198698 -0.33257586 1.5117085 190 166 145
0.19349869 -0.33257586 1.5117085 192 167 150
0.1950104 -0.33257586 1.5117085 196 170 151
0.19652212 -0.33257586 1.5117085 173 152 135
0.19803381 -0.33257586 1.5117085 177 154 136
0.19954552 -0.33257586 1.5117085 196 171 150
0.20105724 -0.33257586 1.5117085 188 163 143
0.20256893 -0.33257586 1.5117085 179 155 135
0.20333537 -0.33136132 1.5061879 175 152 133
0.20484155 -0.33136132 1.5061879 178 154 137
0.20634775 -0.33136132 1.5061879 180 156 137
0.20861576 -0.33257586 1.5117085 171 150 130
0.21012749 -0.33257586 1.5117085 171 148 128
0.2116392 -0.33257586 1.5117085 177 153 131
0.2123725 -0.33136132 1.5061879 179 155 133
0.21387868 -0.33136132 1.5061879 163 142 122
0.21460117 -0.33015564 1.5007075 168 146 127
-0.20110159 -0.30863512 1.3965389 249 179 0
-0.19970506 -0.30863512 1.3965389 249 179 0
-0.19830851 -0.30863512 1.3965389 249 179 0
-0.19691198 -0.30863512 1.3965389 249 179 0
-0.19551544 -0.30863512 1.3965389 249 179 0
-0.1941189 -0.30863512 1.3965389 249 179 0
-0.19272237 -0.30863512 1.3965389 249 179 0
-0.19132581 -0.30863512 1.3965389 249 179 0
-0.19057456 -0.30968365 1.4012835 249 179 0
-0.18981819 -0.3107394 1.4060607 249 179 0
-0.18841214 -0.3107394 1.4060607 249 179 0
-0.18700607 -0.3107394 1.4060607 249 179 0
-0.18560001 -0.3107394 1.4060607 249 179 0
-0.18419395 -0.3107394 1.4060607 249 179 0
-0.18278788 -0.3107394 1.4060607 249 179 0
-0.18138184 -0.3107394 1.4060607 249 179 0
-0.17997576 -0.3107394 1.4060607 249 179 0
-0.1785697 -0.3107394 1.4060607 249 179 0
-0.17716365 -0.3107394 1.4060607 246 181 0
-0.17575759 -0.3107394 1.4060607 246 181 0
-0.17435153 -0.3107394 1.4060607 247 180 0
-0.17353706 -0.31180236 1.4108704 249 181 0
-0.17212619 -0.31180236 1.4108704 249 181 0
-0.17071532 -0.31180236 1.4108704 249 181 0
-0.16998284 -0.3130517 1.4165236 249 181 0
-0.1685663 -0.3130517 1.4165236 249 181 0
-0.16714978 -0.3130517 1.4165236 249 181 0
-0.16573326 -0.3130517 1.4165236 249 181 0
-0.16431674 -0.3130517 1.4165236 249 181 0
-0.16290021 -0.3130517 1.4165236 249 181 0
-0.16148369 -0.3130517 1.4165236 249 181 0
-0.16006717 -0.3130517 1.4165236 248 182 0
-0.15865064 -0.3130517 1.4165236 249 181 0
-0.15660661 -0.31180236 1.4108704 249 181 0
-0.15519576 -0.31180236 1.4108704 251 180 0
-0.15378489 -0.31180236 1.4108704 249 182 0
-0.15237401 -0.31180236 1.4108704 249 180 0
-0.15156803 -0.3130517 1.4165236 251 180 0
-0.1501515 -0.3130517 1.4165236 248 180 0
-0.14873497 -0.3130517 1.4165236 244 180 0
-0.14833738 -0.31521693 1.4263209 236 154 0
-0.14640476 -0.31413057 1.4214053 217 120 0
-0.14498334 -0.31413057 1.4214053 216 119 0
-0.1440584 -0.31521693 1.4263209 229 137 0
-0.14312704 -0.3163108 1.4312705 219 132 0
-0.14276925 -0.31870708 1.4421135 205 144 56
-0.14232239 -0.32095152 1.4522692 202 174 147
-0.14237407 -0.324378 1.4677739 198 174 153
-0.1420012 -0.3268986 1.4791791 202 178 158
-0.14102781 -0.3280752 1.4845031 202 177 152
-0.1395433 -0.3280752 1.4845031 196 175 148
-0.1385575 -0.3292603 1.4898655 200 178 150
-0.13706763 -0.3292603 1.4898655 204 179 153
-0.13606928 -0.330454 1.4952669 192 173 144
-0.13457403 -0.330454 1.4952669 200 173 149
-0.13307875 -0.330454 1.4952669 198 177 154
-0.13206226 -0.33165637 1.5007075 190 169 149
-0.13056156 -0.33165637 1.5007075 200 176 151
-0.12953216 -0.33286753 1.5061879 191 168 144
-0.12802596 -0.33286753 1.5061879 190 169 144
-0.12651978 -0.33286753 1.5061879 199 176 152
-0.1254718 -0.33408758 1.5117085 196 174 152
-0.12350741 -0.33286753 1.5061879 204 179 157
-0.12200122 -0.33286753 1.5061879 209 186 165
-0.120495036 -0.33286753 1.5061879 206 185 163
-0.11898885 -0.33286753 1.5061879 199 175 153
-0.11791326 -0.33408758 1.5117085 201 177 157
-0.11640156 -0.33408758 1.5117085 202 179 157
-0.114889845 -0.33408758 1.5117085 200 177 160
-0.11337814 -0.33408758 1.5117085 205 180 160
-0.112277955 -0.3353166 1.5172696 198 176 152
-0.11076068 -0.3353166 1.5172696 197 173 152
-0.10924341 -0.3353166 1.5172696 191 170 149
-0.10772614 -0.3353166 1.5172696 176 154 135
-0.10620887 -0.3353166 1.5172696 181 157 137
-0.1046916 -0.3353166 1.5172696 171 147 129
-0.10317433 -0.3353166 1.5172696 144 121 108
-0.10165706 -0.3353166 1.5172696 138 116 103
-0.09977276 -0.33408758 1.5117085 137 116 101
-0.09826106 -0.33408758 1.5117085 138 115 100
-0.09710526 -0.3353166 1.5172696 125 104 88
-0.095587984 -0.3353166 1.5172696 125 103 84
-0.09407072 -0.3353166 1.5172696 132 110 91
-0.092553444 -0.3353166 1.5172696 132 110 94
-0.09103618 -0.3353166 1.5172696 125 104 91
-0.0891908 -0.33408758 1.5117085 131 110 96
-0.087679096 -0.33408758 1.5117085 127 108 93
-0.08616738 -0.33408758 1.5117085 125 106 92
-0.08465568 -0.33408758 1.5117085 128 107 92
-0.083143964 -0.33408758 1.5117085 118 100 86
-0.08163226 -0.33408758 1.5117085 112 96 82
-0.08012055 -0.33408758 1.5117085 112 95 82
-0.07889802 -0.3353166 1.5172696 108 93 82
-0.077380754 -0.3353166 1.5172696 107 91 80
-0.07586348 -0.3353166 1.5172696 101 83 72
-0.07407372 -0.33408758 1.5117085 103 85 75
-0.07229702 -0.33286753 1.5061879 104 88 79
-0.070790835 -0.33286753 1.5061879 104 89 77
-0.06928465 -0.33286753 1.5061879 104 91 79
-0.06753184 -0.33165637 1.5007075 99 86 78
-0.06603113 -0.33165637 1.5007075 88 77 65
-0.064530425 -0.33165637 1.5007075 81 73 61
-0.063029714 -0.33165637 1.5007075 74 63 53
-0.061305944 -0.330454 1.4952669 75 65 56
-0.059810676 -0.330454 1.4952669 73 62 54
-0.058527593 -0.33165637 1.5007075 79 67 58
-0.056820143 -0.330454 1.4952669 74 61 52
-0.055324875 -0.330454 1.4952669 74 60 52
-0.053635158 -0.3292603 1.4898655 71 59 50
-0.052145295 -0.3292603 1.4898655 67 56 49
-0.050473105 -0.3280752 1.4845031 63 52 46
-0.048988607 -0.3280752 1.4845031 61 49 43
-0.04784854 -0.330454 1.4952669 64 52 46
-0.046019595 -0.3280752 1.4845031 71 59 53
-0.044190474 -0.32553652 1.4730159 92 80 74
-0.042264625 -0.3220856 1.4574009 102 89 85
-0.040520858 -0.31982538 1.4471736 102 88 84
-0.039073687 -0.31982538 1.4471736 102 85 80
-0.037494954 -0.31870708 1.4421135 103 85 81
-0.036052838 -0.31870708 1.4421135 104 86 83
-0.034490127 -0.3175966 1.4370887 103 85 82
-0.03316861 -0.31870708 1.4421135 102 84 82
-0.0317265 -0.31870708 1.4421135 104 86 84
-0.030178864 -0.3175966 1.4370887 105 86 84
-0.02884227 -0.31870708 1.4421135 106 88 86
-0.027496297 -0.31982538 1.4471736 104 87 85
-0.026049126 -0.31982538 1.4471736 101 84 81
-0.024601951 -0.31982538 1.4471736 100 83 80
-0.023073817 -0.31870708 1.4421135 107 91 88
-0.021631703 -0.31870708 1.4421135 95 79 75
-0.020189589 -0.31870708 1.4421135 98 81 79
-0.018747477 -0.31870708 1.4421135 103 86 85
-0.017305363 -0.31870708 1.4421135 97 83 82
-0.01586325 -0.31870708 1.4421135 98 84 83
-0.014471736 -0.31982538 1.4471736 101 89 86
-0.013024563 -0.31982538 1.4471736 108 96 94
-0.011577389 -0.31982538 1.4471736 105 93 91
-0.0101302145 -0.31982538 1.4471736 109 96 94
-0.008683042 -0.31982538 1.4471736 109 96 94
-0.007261346 -0.32095152 1.4522692 101 89 85
-0.0058090766 -0.32095152 1.4522692 101 89 85
-0.0043568076 -0.32095152 1.4522692 104 93 90
-0.0029045383 -0.32095152 1.4522692 105 92 90
-0.001457401 -0.3220856 1.4574009 105 90 89
0.0 -0.32322776 1.462569 113 96 96
0.001462569 -0.32322776 1.462569 110 96 96
0.0029355478 -0.324378 1.4677739 120 102 102
0.0044033215 -0.324378 1.4677739 116 98 100
0.0058710957 -0.324378 1.4677739 118 100 103
0.0073388694 -0.324378 1.4677739 120 103 106
0.008838096 -0.32553652 1.4730159 126 109 110
0.010311112 -0.32553652 1.4730159 137 121 121
0.011876025 -0.3280752 1.4845031 149 131 131
0.013408789 -0.3292603 1.4898655 164 142 134
0.014952669 -0.330454 1.4952669 186 163 146
0.016568068 -0.33286753 1.5061879 185 162 144
0.018140502 -0.33408758 1.5117085 184 158 139
0.019724505 -0.3353166 1.5172696 197 170 149
0.021241775 -0.3353166 1.5172696 212 188 163
0.022759045 -0.3353166 1.5172696 207 185 161
0.024276314 -0.3353166 1.5172696 185 161 141
0.025872897 -0.3363477 1.5219352 193 170 149
0.027310852 -0.3353166 1.5172696 205 185 161
0.028828124 -0.3353166 1.5172696 207 186 162
0.030345391 -0.3353166 1.5172696 204 180 157
0.03186266 -0.3353166 1.5172696 208 185 161
0.03337993 -0.3353166 1.5172696 207 186 162
0.0348972 -0.3353166 1.5172696 215 194 168
0.03641447 -0.3353166 1.5172696 216 195 170
0.03793174 -0.3353166 1.5172696 216 190 170
0.03944901 -0.3353166 1.5172696 212 191 169
0.04096628 -0.3353166 1.5172696 205 185 164
0.04232784 -0.33408758 1.5117085 219 197 173
0.04367945 -0.33286753 1.5061879 204 181 160
0.045351252 -0.33408758 1.5117085 186 166 146
0.046862964 -0.33408758 1.5117085 207 181 159
0.04855263 -0.3353166 1.5172696 209 184 161
0.0500699 -0.3353166 1.5172696 209 186 163
0.051587164 -0.3353166 1.5172696 208 185 164
0.053104434 -0.3353166 1.5172696 211 191 167
0.054421507 -0.33408758 1.5117085 216 192 169
0.055933215 -0.33408758 1.5117085 205 180 158
0.057444923 -0.33408758 1.5117085 213 190 168
0.058741327 -0.33286753 1.5061879 197 177 156
0.060247518 -0.33286753 1.5061879 213 190 168
0.061753705 -0.33286753 1.5061879 217 193 170
0.06325989 -0.33286753 1.5061879 212 191 169
0.06476608 -0.33286753 1.5061879 207 185 165
0.06627227 -0.33286753 1.5061879 195 175 157
0.06777846 -0.33286753 1.5061879 196 176 158
0.06928465 -0.33286753 1.5061879 200 181 162
0.070790835 -0.33286753 1.5061879 200 182 164
0.07229702 -0.33286753 1.5061879 202 183 162
0.07353467 -0.33165637 1.5007075 185 167 148
0.07503538 -0.33165637 1.5007075 155 135 121
0.076258615 -0.330454 1.4952669 132 113 98
0.07775388 -0.330454 1.4952669 124 104 88
0.07896288 -0.3292603 1.4898655 121 101 86
0.08045273 -0.3292603 1.4898655 116 99 83
0.08164767 -0.3280752 1.4845031 113 97 82
0.08313218 -0.3280752 1.4845031 110 96 80
0.084616676 -0.3280752 1.4845031 113 97 82
0.08610118 -0.3280752 1.4845031 114 98 81
0.08758569 -0.3280752 1.4845031 111 97 86
0.08875075 -0.3268986 1.4791791 114 100 91
0.09022993 -0.3268986 1.4791791 116 100 94
0.09170911 -0.3268986 1.4791791 106 90 82
0.093188286 -0.3268986 1.4791791 92 79 69
0.094667464 -0.3268986 1.4791791 91 76 68
0.09614664 -0.3268986 1.4791791 85 68 61
0.09762582 -0.3268986 1.4791791 85 69 63
0.099105 -0.3268986 1.4791791 83 68 63
0.10058418 -0.3268986 1.4791791 80 67 60
0.102063365 -0.3268986 1.4791791 72 59 53
0.103542544 -0.3268986 1.4791791 72 57 53
0.10502172 -0.3268986 1.4791791 85 71 67
0.107270315 -0.3292603 1.4898655 84 71 65
0.108760186 -0.3292603 1.4898655 69 55 48
0.110250056 -0.3292603 1.4898655 67 53 47
0.11173991 -0.3292603 1.4898655 70 54 48
0.11322978 -0.3292603 1.4898655 68 56 48
0.11471965 -0.3292603 1.4898655 68 53 48
0.116209514 -0.3292603 1.4898655 65 51 46
0.11769938 -0.3292603 1.4898655 71 57 53
0.11962135 -0.330454 1.4952669 73 58 53
0.12111662 -0.330454 1.4952669 71 57 50
0.12261189 -0.330454 1.4952669 70 55 48
0.12410715 -0.330454 1.4952669 71 56 50
0.12560242 -0.330454 1.4952669 71 54 51
0.12709768 -0.330454 1.4952669 73 56 53
0.12859295 -0.330454 1.4952669 74 56 50
0.13008823 -0.330454 1.4952669 75 56 50
0.1315835 -0.330454 1.4952669 76 57 50
0.13307875 -0.330454 1.4952669 78 58 52
0.13506368 -0.33165637 1.5007075 80 59 53
0.13656437 -0.33165637 1.5007075 76 56 49
0.1380651 -0.33165637 1.5007075 81 61 53
0.1395658 -0.33165637 1.5007075 83 63 51
0.1410665 -0.33165637 1.5007075 90 71 59
0.14256722 -0.33165637 1.5007075 98 77 64
0.14565788 -0.3353166 1.5172696 104 84 71
0.14717516 -0.3353166 1.5172696 106 80 69
0.14869243 -0.3353166 1.5172696 110 85 73
0.15020968 -0.3353166 1.5172696 119 93 82
0.15172696 -0.3353166 1.5172696 124 100 88
0.15268256 -0.33408758 1.5117085 139 116 99
0.15419427 -0.33408758 1.5117085 150 125 109
0.15570597 -0.33408758 1.5117085 143 120 106
0.15721768 -0.33408758 1.5117085 146 125 110
0.15872939 -0.33408758 1.5117085 163 139 123
0.15965591 -0.33286753 1.5061879 165 143 126
0.16116211 -0.33286753 1.5061879 178 155 136
0.16266829 -0.33286753 1.5061879 178 156 141
0.16417448 -0.33286753 1.5061879 178 158 142
0.16568066 -0.33286753 1.5061879 175 153 136
0.16718686 -0.33286753 1.5061879 170 147 130
0.16931136 -0.33408758 1.5117085 175 152 133
0.17019923 -0.33286753 1.5061879 175 153 134
0.17170542 -0.33286753 1.5061879 171 148 132
0.1732116 -0.33286753 1.5061879 167 147 131
0.1747178 -0.33286753 1.5061879 181 162 144
0.17622398 -0.33286753 1.5061879 184 162 144
0.1783816 -0.33408758 1.5117085 188 165 147
0.17989331 -0.33408758 1.5117085 197 176 155
0.18140501 -0.33408758 1.5117085 185 162 144
0.18224873 -0.33286753 1.5061879 183 158 141
0.18442844 -0.33408758 1.5117085 183 156 138
0.18594015 -0.33408758 1.5117085 176 149 132
0.18745185 -0.33408758 1.5117085 148 123 110
0.18827349 -0.33286753 1.5061879 159 134 118
0.18977968 -0.33286753 1.5061879 174 146 127
0.19128586 -0.33286753 1.5061879 176 154 135
0.19279206 -0.33286753 1.5061879 187 164 146
0.19429825 -0.33286753 1.5061879 196 169 152
0.19580443 -0.33286753 1.5061879 199 174 154
0.19731063 -0.33286753 1.5061879 194 170 149
0.1988168 -0.33286753 1.5061879 180 158 138
0.200323 -0.33286753 1.5061879 185 162 141
0.20182918 -0.33286753 1.5061879 184 161 141
0.20259552 -0.33165637 1.5007075 185 160 139
0.20409623 -0.33165637 1.5007075 181 157 140
0.20559692 -0.33165637 1.5007075 179 155 137
0.20709763 -0.33165637 1.5007075 183 159 138
0.20936012 -0.33286753 1.5061879 182 158 136
0.21009904 -0.33165637 1.5007075 179 154 131
0.21159977 -0.33165637 1.5007075 176 154 130
0.21310046 -0.33165637 1.5007075 177 155 132
0.21382317 -0.330454 1.4952669 177 154 132
-0.20031029 -0.3088117 1.3910437 249 179 0
-0.19891925 -0.3088117 1.3910437 249 179 0
-0.1975282 -0.3088117 1.3910437 249 179 0
-0.19613716 -0.3088117 1.3910437 249 179 0
-0.1947461 -0.3088117 1.3910437 249 179 0
-0.19335507 -0.3088117 1.3910437 249 179 0
-0.19196402 -0.3088117 1.3910437 249 179 0
-0.19057298 -0.3088117 1.3910437 249 179 0
-0.18992929 -0.31003162 1.3965389 249 179 0
-0.18853274 -0.31003162 1.3965389 249 179 0
-0.1871362 -0.31003162 1.3965389 249 179 0
-0.18573967 -0.31003162 1.3965389 249 179 0
-0.18434313 -0.31003162 1.3965389 249 179 0
-0.1829466 -0.31003162 1.3965389 249 179 0
-0.18155006 -0.31003162 1.3965389 249 179 0
-0.18015352 -0.31003162 1.3965389 249 180 0
-0.1793643 -0.31108493 1.4012835 249 181 0
-0.177963 -0.31108493 1.4012835 249 181 0
-0.17656173 -0.31108493 1.4012835 249 181 0
-0.17516044 -0.31108493 1.4012835 249 179 0
-0.17375916 -0.31108493 1.4012835 249 179 0
-0.17294547 -0.31214547 1.4060607 249 181 0
-0.1715394 -0.31214547 1.4060607 249 181 0
-0.17013335 -0.31214547 1.4060607 250 180 0
-0.16930446 -0.31321323 1.4108704 251 180 0
-0.16789359 -0.31321323 1.4108704 251 180 0
-0.16648272 -0.31321323 1.4108704 251 180 0
-0.16507185 -0.31321323 1.4108704 251 180 0
-0.16366096 -0.31321323 1.4108704 249 181 0
-0.16290021 -0.31446823 1.4165236 249 181 0
-0.16148369 -0.31446823 1.4165236 251 180 0
-0.16006717 -0.31446823 1.4165236 251 180 0
-0.15865064 -0.31446823 1.4165236 248 182 0
-0.15723412 -0.31446823 1.4165236 248 182 0
-0.1558176 -0.31446823 1.4165236 251 182 0
-0.15493318 -0.31555197 1.4214053 251 181 0
-0.15351178 -0.31555197 1.4214053 248 182 0
-0.15156803 -0.31446823 1.4165236 251 180 0
-0.1501515 -0.31446823 1.4165236 247 179 0
-0.14924756 -0.31555197 1.4214053 240 168 0
-0.14782615 -0.31555197 1.4214053 215 124 0
-0.14640476 -0.31555197 1.4214053 209 113 0
-0.14498334 -0.31555197 1.4214053 209 113 0
-0.1440584 -0.31664324 1.4263209 209 115 0
-0.14370888 -0.31903368 1.4370887 204 120 0
-0.1432702 -0.32127255 1.4471736 205 147 64
-0.14232239 -0.32240376 1.4522692 198 173 152
-0.14237407 -0.3258458 1.4677739 201 176 150
-0.14140953 -0.32700953 1.4730159 198 174 148
-0.14052202 -0.32837778 1.4791791 200 175 147
-0.13904284 -0.32837778 1.4791791 200 176 146
-0.1380588 -0.32955968 1.4845031 198 177 149
-0.1365743 -0.32955968 1.4845031 202 179 153
-0.13557775 -0.33075017 1.4898655 202 177 150
-0.13457403 -0.33194926 1.4952669 199 175 149
-0.13307875 -0.33194926 1.4952669 205 180 157
-0.13110816 -0.33075017 1.4898655 196 171 146
-0.13008823 -0.33194926 1.4952669 201 176 148
-0.12859295 -0.33194926 1.4952669 190 166 144
-0.12709768 -0.33194926 1.4952669 196 169 147
-0.12560242 -0.33194926 1.4952669 203 177 154
-0.124558724 -0.33315706 1.5007075 203 178 155
-0.12305801 -0.33315706 1.5007075 203 179 155
-0.12200122 -0.3343737 1.5061879 203 180 158
-0.12093668 -0.33559927 1.5117085 205 180 160
-0.11942497 -0.33559927 1.5117085 196 174 156
-0.11791326 -0.33559927 1.5117085 194 175 149
-0.11640156 -0.33559927 1.5117085 204 181 155
-0.114889845 -0.33559927 1.5117085 205 182 158
-0.11337814 -0.33559927 1.5117085 205 180 160
-0.11186643 -0.33559927 1.5117085 206 180 160
-0.11035472 -0.33559927 1.5117085 196 174 152
-0.10884301 -0.33559927 1.5117085 197 174 152
-0.107331306 -0.33559927 1.5117085 190 165 146
-0.1058196 -0.33559927 1.5117085 176 157 139
-0.10430788 -0.33559927 1.5117085 170 147 134
-0.10317433 -0.33683386 1.5172696 163 139 124
-0.10165706 -0.33683386 1.5172696 151 129 106
-0.1001398 -0.33683386 1.5172696 145 122 102
-0.09862253 -0.33683386 1.5172696 140 118 98
-0.09710526 -0.33683386 1.5172696 126 107 88
-0.095587984 -0.33683386 1.5172696 130 110 90
-0.09372593 -0.33559927 1.5117085 127 108 91
-0.09221422 -0.33559927 1.5117085 134 112 95
-0.090702504 -0.33559927 1.5117085 131 111 94
-0.0891908 -0.33559927 1.5117085 125 106 91
-0.087679096 -0.33559927 1.5117085 130 110 93
-0.08616738 -0.33559927 1.5117085 126 107 92
-0.08465568 -0.33559927 1.5117085 120 101 88
-0.083143964 -0.33559927 1.5117085 119 101 86
-0.08163226 -0.33559927 1.5117085 111 94 80
-0.08012055 -0.33559927 1.5117085 108 92 78
-0.07860884 -0.33559927 1.5117085 111 94 83
-0.077380754 -0.33683386 1.5172696 110 94 82
-0.07586348 -0.33683386 1.5172696 101 84 72
-0.074346215 -0.33683386 1.5172696 110 94 82
-0.07229702 -0.3343737 1.5061879 101 85 73
-0.070790835 -0.3343737 1.5061879 104 87 77
-0.06928465 -0.3343737 1.5061879 109 92 81
-0.06753184 -0.33315706 1.5007075 107 93 82
-0.06603113 -0.33315706 1.5007075 97 87 79
-0.06476608 -0.3343737 1.5061879 89 80 75
-0.063029714 -0.33315706 1.5007075 90 79 72
-0.061305944 -0.33194926 1.4952669 87 77 69
-0.059810676 -0.33194926 1.4952669 83 72 64
-0.05831541 -0.33194926 1.4952669 85 73 64
-0.056820143 -0.33194926 1.4952669 83 70 61
-0.055324875 -0.33194926 1.4952669 84 74 63
-0.053635158 -0.33075017 1.4898655 77 68 59
-0.052145295 -0.33075017 1.4898655 71 59 53
-0.050473105 -0.32955968 1.4845031 70 59 54
-0.048988607 -0.32955968 1.4845031 65 52 48
-0.04802264 -0.33315706 1.5007075 64 52 47
-0.046353277 -0.33194926 1.4952669 69 56 54
-0.044695966 -0.33075017 1.4898655 72 59 56
-0.042896196 -0.32837778 1.4791791 86 74 67
-0.04109767 -0.3258458 1.4677739 87 74 68
-0.039489366 -0.3246903 1.462569 90 76 70
-0.037759 -0.32240376 1.4522692 94 79 74
-0.036306728 -0.32240376 1.4522692 98 83 77
-0.03485446 -0.32240376 1.4522692 99 84 78
-0.033284992 -0.32127255 1.4471736 100 84 78
-0.0317265 -0.3201492 1.4421135 102 86 81
-0.030178864 -0.31903368 1.4370887 102 89 86
-0.028741775 -0.31903368 1.4370887 103 89 87
-0.027304685 -0.31903368 1.4370887 102 88 86
-0.026049126 -0.32127255 1.4471736 98 85 83
-0.024601951 -0.32127255 1.4471736 103 87 85
-0.023073817 -0.3201492 1.4421135 104 88 86
-0.021631703 -0.3201492 1.4421135 99 84 80
-0.020189589 -0.3201492 1.4421135 103 86 83
-0.018747477 -0.3201492 1.4421135 104 87 85
-0.017305363 -0.3201492 1.4421135 99 84 81
-0.01586325 -0.3201492 1.4421135 101 85 83
-0.014471736 -0.32127255 1.4471736 101 86 83
-0.013024563 -0.32127255 1.4471736 108 92 91
-0.011577389 -0.32127255 1.4471736 102 87 87
-0.0101302145 -0.32127255 1.4471736 110 95 95
-0.008683042 -0.32127255 1.4471736 109 95 94
-0.007235868 -0.32127255 1.4471736 106 92 90
-0.0058090766 -0.32240376 1.4522692 103 89 87
-0.0043568076 -0.32240376 1.4522692 107 92 90
-0.0029045383 -0.32240376 1.4522692 111 94 93
-0.0014522691 -0.32240376 1.4522692 110 93 94
0.0 -0.3246903 1.462569 105 92 90
0.001462569 -0.3246903 1.462569 102 88 88
0.0029355478 -0.3258458 1.4677739 106 90 89
0.0044033215 -0.3258458 1.4677739 112 94 97
0.0058710957 -0.3258458 1.4677739 111 94 97
0.0073388694 -0.3258458 1.4677739 114 98 99
0.008838096 -0.32700953 1.4730159 124 105 103
0.010311112 -0.32700953 1.4730159 128 112 110
0.011876025 -0.32955968 1.4845031 147 129 129
0.013360528 -0.32955968 1.4845031 154 136 126
0.014952669 -0.33194926 1.4952669 179 158 142
0.016507782 -0.33315706 1.5007075 180 156 139
0.018074255 -0.3343737 1.5061879 190 166 146
0.01965221 -0.33559927 1.5117085 183 160 140
0.02116392 -0.33559927 1.5117085 190 167 147
0.022675626 -0.33559927 1.5117085 201 176 156
0.024099007 -0.3343737 1.5061879 207 181 161
0.025699046 -0.33559927 1.5117085 202 177 157
0.027210753 -0.33559927 1.5117085 211 185 164
0.02861757 -0.3343737 1.5061879 215 194 171
0.030123759 -0.3343737 1.5061879 212 190 168
0.031629946 -0.3343737 1.5061879 200 178 158
0.033136137 -0.3343737 1.5061879 197 173 153
0.034642324 -0.3343737 1.5061879 204 184 163
0.036281005 -0.33559927 1.5117085 211 188 166
0.037792712 -0.33559927 1.5117085 204 182 160
0.03930442 -0.33559927 1.5117085 211 190 169
0.04081613 -0.33559927 1.5117085 219 195 173
0.04232784 -0.33559927 1.5117085 216 191 170
0.043839548 -0.33559927 1.5117085 211 187 164
0.045351252 -0.33559927 1.5117085 205 180 156
0.046862964 -0.33559927 1.5117085 201 177 152
0.04837467 -0.33559927 1.5117085 204 181 155
0.04988638 -0.33559927 1.5117085 205 180 160
0.05139809 -0.33559927 1.5117085 206 184 163
0.0529098 -0.33559927 1.5117085 212 187 165
0.054421507 -0.33559927 1.5117085 220 200 176
0.055728953 -0.3343737 1.5061879 214 196 171
0.05723514 -0.3343737 1.5061879 215 194 172
0.058741327 -0.3343737 1.5061879 209 189 166
0.0600283 -0.33315706 1.5007075 210 190 167
0.061305944 -0.33194926 1.4952669 208 188 167
0.06280121 -0.33194926 1.4952669 207 186 167
0.06429648 -0.33194926 1.4952669 213 191 171
0.06603113 -0.33315706 1.5007075 194 173 157
0.06753184 -0.33315706 1.5007075 190 169 153
0.06903255 -0.33315706 1.5007075 211 188 169
0.07053325 -0.33315706 1.5007075 210 187 168
0.07203396 -0.33315706 1.5007075 205 180 161
0.07353467 -0.33315706 1.5007075 196 174 153
0.07503538 -0.33315706 1.5007075 166 146 130
0.076258615 -0.33194926 1.4952669 138 117 105
0.07775388 -0.33194926 1.4952669 124 106 90
0.07896288 -0.33075017 1.4898655 124 104 88
0.08045273 -0.33075017 1.4898655 122 103 88
0.08164767 -0.32955968 1.4845031 110 94 80
0.08313218 -0.32955968 1.4845031 112 97 85
0.084616676 -0.32955968 1.4845031 113 97 86
0.08610118 -0.32955968 1.4845031 115 99 89
0.08758569 -0.32955968 1.4845031 109 94 80
0.08875075 -0.32837778 1.4791791 117 101 86
0.09022993 -0.32837778 1.4791791 111 98 84
0.09170911 -0.32837778 1.4791791 113 100 86
0.093188286 -0.32837778 1.4791791 110 96 85
0.094667464 -0.32837778 1.4791791 97 82 72
0.09614664 -0.32837778 1.4791791 89 74 65
0.09762582 -0.32837778 1.4791791 90 76 68
0.099105 -0.32837778 1.4791791 87 73 64
0.10058418 -0.32837778 1.4791791 78 63 56
0.102063365 -0.32837778 1.4791791 75 62 55
0.103542544 -0.32837778 1.4791791 73 58 51
0.10502172 -0.32837778 1.4791791 83 70 64
0.107270315 -0.33075017 1.4898655 81 68 64
0.108760186 -0.33075017 1.4898655 72 57 52
0.110250056 -0.33075017 1.4898655 72 57 53
0.11173991 -0.33075017 1.4898655 73 58 52
0.11322978 -0.33075017 1.4898655 79 63 56
0.11471965 -0.33075017 1.4898655 74 57 50
0.116209514 -0.33075017 1.4898655 71 55 48
0.11769938 -0.33075017 1.4898655 74 55 50
0.11962135 -0.33194926 1.4952669 76 60 55
0.12111662 -0.33194926 1.4952669 79 63 57
0.12216897 -0.33075017 1.4898655 74 55 48
0.123658836 -0.33075017 1.4898655 74 55 51
0.12560242 -0.33194926 1.4952669 74 55 52
0.12709768 -0.33194926 1.4952669 78 62 58
0.12859295 -0.33194926 1.4952669 80 60 54
0.13008823 -0.33194926 1.4952669 80 60 52
0.13110816 -0.33075017 1.4898655 84 62 54
0.13307875 -0.33194926 1.4952669 82 61 53
0.13457403 -0.33194926 1.4952669 84 64 56
0.13656437 -0.33315706 1.5007075 81 61 52
0.1380651 -0.33315706 1.5007075 82 63 53
0.1395658 -0.33315706 1.5007075 81 62 49
0.1410665 -0.33315706 1.5007075 81 64 50
0.14256722 -0.33315706 1.5007075 93 74 61
0.14512402 -0.33559927 1.5117085 104 82 71
0.14663573 -0.33559927 1.5117085 103 78 64
0.14814743 -0.33559927 1.5117085 102 77 61
0.14965913 -0.33559927 1.5117085 109 83 70
0.15117085 -0.33559927 1.5117085 115 91 80
0.15268256 -0.33559927 1.5117085 125 102 89
0.15363117 -0.3343737 1.5061879 147 122 107
0.15513736 -0.3343737 1.5061879 143 122 107
0.15664354 -0.3343737 1.5061879 148 124 110
0.15814973 -0.3343737 1.5061879 174 143 126
0.15965591 -0.3343737 1.5061879 174 152 131
0.16116211 -0.3343737 1.5061879 189 165 143
0.16207641 -0.33315706 1.5007075 184 163 144
0.16357712 -0.33315706 1.5007075 175 153 135
0.16507782 -0.33315706 1.5007075 189 165 148
0.16657853 -0.33315706 1.5007075 195 169 154
0.16869305 -0.3343737 1.5061879 185 161 146
0.16957994 -0.33315706 1.5007075 178 154 140
0.17108066 -0.33315706 1.5007075 178 154 140
0.17258136 -0.33315706 1.5007075 177 155 140
0.17408207 -0.33315706 1.5007075 173 152 138
0.17558278 -0.33315706 1.5007075 193 170 154
0.17773017 -0.3343737 1.5061879 184 161 146
0.17923635 -0.3343737 1.5061879 191 170 153
0.18074255 -0.3343737 1.5061879 187 163 147
0.1815856 -0.33315706 1.5007075 183 159 145
0.18375494 -0.3343737 1.5061879 178 156 140
0.18594015 -0.33559927 1.5117085 198 173 154
0.18608774 -0.33315706 1.5007075 178 153 136
0.18690836 -0.33194926 1.4952669 153 129 115
