ply
format ascii 1.0
element vertex 1152
property float32 x
property float32 y
property float32 z
property uchar red
property uchar green
property uchar blue
element face 0
property list uint8 int32 vertex_indices
end_header
0.03741764 0.19559221 1.7008018 66 54 50
0.039253335 0.19626668 1.7066667 65 54 51
0.04096 0.19626668 1.7066667 64 54 51
0.042666666 0.19626668 1.7066667 65 52 49
0.044373333 0.19626668 1.7066667 65 53 49
0.04608 0.19626668 1.7066667 67 54 51
0.047786668 0.19626668 1.7066667 67 54 50
0.049493335 0.19626668 1.7066667 64 52 47
0.051200002 0.19626668 1.7066667 62 51 47
0.052724857 0.19559221 1.7008018 71 58 53
0.05442566 0.19559221 1.7008018 70 60 54
0.05612646 0.19559221 1.7008018 75 65 59
0.057827264 0.19559221 1.7008018 75 63 58
0.059528064 0.19559221 1.7008018 77 64 60
0.061695293 0.19708218 1.7137581 77 64 61
0.06340905 0.19708218 1.7137581 81 68 65
0.06512281 0.19708218 1.7137581 86 73 69
0.066836566 0.19708218 1.7137581 91 79 75
0.068550326 0.19708218 1.7137581 102 92 88
0.070264086 0.19708218 1.7137581 108 97 92
0.07197785 0.19708218 1.7137581 105 93 88
0.0736916 0.19708218 1.7137581 105 92 86
0.07566737 0.19776699 1.7197129 108 93 87
0.07738708 0.19776699 1.7197129 100 87 79
0.07943801 0.19859503 1.7269133 110 96 88
0.080826506 0.19776699 1.7197129 116 101 93
0.08289184 0.19859503 1.7269133 117 99 93
0.084915034 0.1992904 1.7329599 116 101 94
0.086647995 0.1992904 1.7329599 126 110 103
0.088691495 0.19999063 1.739049 128 113 104
0.09043054 0.19999063 1.739049 123 106 99
0.09255987 0.20083745 1.7464126 96 76 70
0.094640225 0.20154865 1.7525969 111 90 84
0.09639283 0.20154865 1.7525969 114 93 88
0.09704576 0.1992904 1.7329599 104 85 80
0.12076713 0.24365297 2.1187215 84 66 62
-0.07841441 0.26291892 2.3063064 82 64 55
-0.07278431 0.2514367 2.2055852 79 62 54
-0.065662794 0.2339237 2.0519624 76 61 54
-0.060027126 0.22074492 1.9363589 73 58 52
-0.055444367 0.21068858 1.8481455 71 56 48
-0.052575335 0.20667545 1.8129426 71 57 49
-0.049993265 0.20354402 1.7854738 72 59 54
-0.04803451 0.20281237 1.779056 72 59 54
-0.046255454 0.20281237 1.779056 70 57 53
-0.044317096 0.20208596 1.7726839 64 51 47
-0.04254441 0.20208596 1.7726839 62 50 46
-0.04062622 0.20136474 1.7663574 70 58 53
-0.03869415 0.20050605 1.758825 74 62 57
-0.036804534 0.19979604 1.7525969 72 60 55
-0.03505194 0.19979604 1.7525969 65 53 48
-0.03318184 0.19909103 1.7464126 66 54 50
-0.03130288 0.19825159 1.739049 60 48 45
-0.029689014 0.19909103 1.7464126 60 48 45
-0.027824784 0.19825159 1.739049 61 48 45
-0.026085736 0.19825159 1.739049 60 48 44
-0.024346685 0.19825159 1.739049 58 46 42
-0.022607636 0.19825159 1.739049 60 48 45
-0.020868588 0.19825159 1.739049 62 50 46
-0.019129539 0.19825159 1.739049 61 50 44
-0.0173296 0.19755742 1.7329599 60 49 44
-0.015596638 0.19755742 1.7329599 64 52 48
-0.013863679 0.19755742 1.7329599 61 50 46
-0.012088393 0.19686812 1.7269133 64 52 48
-0.010318277 0.19604728 1.7197129 62 48 44
-0.008598564 0.19604728 1.7197129 61 49 46
-0.0068788514 0.19604728 1.7197129 61 50 46
-0.0051412745 0.19536842 1.7137581 61 49 46
-0.0034275162 0.19536842 1.7137581 63 52 47
-0.0017137581 0.19536842 1.7137581 61 50 45
0.0 0.19536842 1.7137581 59 47 43
0.0017137581 0.19536842 1.7137581 57 47 42
0.0034133333 0.19455999 1.7066667 58 47 44
0.00512 0.19455999 1.7066667 60 49 46
0.0068266666 0.19455999 1.7066667 60 49 46
0.008533333 0.19455999 1.7066667 62 49 47
0.01024 0.19455999 1.7066667 63 50 48
0.011905613 0.19389142 1.7008018 63 50 47
0.013606415 0.19389142 1.7008018 62 49 46
0.015307217 0.19389142 1.7008018 61 49 46
0.017008018 0.19389142 1.7008018 64 52 47
0.01870882 0.19389142 1.7008018 61 50 45
0.020409621 0.19389142 1.7008018 60 47 44
0.022186667 0.19455999 1.7066667 59 48 45
0.023811227 0.19389142 1.7008018 61 48 45
0.025407255 0.19309513 1.693817 59 47 44
0.027101072 0.19309513 1.693817 62 48 47
0.028913632 0.19389142 1.7008018 63 51 50
0.030614434 0.19389142 1.7008018 63 50 49
0.032426666 0.19455999 1.7066667 62 51 48
0.034016035 0.19389142 1.7008018 62 50 47
0.03571684 0.19389142 1.7008018 63 50 46
0.03754667 0.19455999 1.7066667 62 51 48
0.039253335 0.19455999 1.7066667 62 51 49
0.040819243 0.19389142 1.7008018 65 53 51
0.042520046 0.19389142 1.7008018 65 51 49
0.04422085 0.19389142 1.7008018 65 53 51
0.04592165 0.19389142 1.7008018 65 53 51
0.047622453 0.19389142 1.7008018 64 54 50
0.049323253 0.19389142 1.7008018 64 53 49
0.051024057 0.19389142 1.7008018 60 49 45
0.052724857 0.19389142 1.7008018 71 60 55
0.05442566 0.19389142 1.7008018 70 59 54
0.05612646 0.19389142 1.7008018 74 60 56
0.057827264 0.19389142 1.7008018 80 66 61
0.059528064 0.19389142 1.7008018 76 64 60
0.061228868 0.19389142 1.7008018 72 61 56
0.063146666 0.19455999 1.7066667 74 61 57
0.06485333 0.19455999 1.7066667 80 67 62
0.06656001 0.19455999 1.7066667 85 73 67
0.06826667 0.19455999 1.7066667 91 79 74
0.069973335 0.19455999 1.7066667 97 84 79
0.07197785 0.19536842 1.7137581 93 78 73
0.0736916 0.19536842 1.7137581 97 81 75
0.07540536 0.19536842 1.7137581 100 83 77
0.07711912 0.19536842 1.7137581 98 83 76
0.079106785 0.19604728 1.7197129 111 95 88
0.08116493 0.19686812 1.7269133 113 97 91
0.08289184 0.19686812 1.7269133 105 91 84
0.084618755 0.19686812 1.7269133 109 95 90
0.086647995 0.19755742 1.7329599 123 107 100
0.08838095 0.19755742 1.7329599 117 103 96
0.09043054 0.19825159 1.739049 122 105 98
0.09216959 0.19825159 1.739049 93 75 69
0.09430628 0.19909103 1.7464126 104 83 77
0.0960527 0.19909103 1.7464126 115 91 85
0.09704576 0.19755742 1.7329599 112 91 85
0.111242905 0.22248581 1.9516299 100 82 77
-0.07593742 0.25238028 2.2334538 81 63 53
-0.069917805 0.23941553 2.1187215 79 61 53
-0.062649794 0.22123207 1.957806 74 59 52
-0.057507247 0.2096232 1.8550725 72 57 52
-0.054628402 0.20576698 1.8209468 71 57 48
-0.052003864 0.20263575 1.7932367 72 57 51
-0.04981357 0.20103332 1.779056 73 59 54
-0.04803451 0.20103332 1.779056 73 59 55
-0.04608978 0.20031328 1.7726839 69 57 52
-0.044317096 0.20031328 1.7726839 61 50 45
-0.042392578 0.19959839 1.7663574 67 56 51
-0.040452972 0.19874722 1.758825 71 57 53
-0.038557127 0.19804344 1.7525969 71 57 54
-0.036804534 0.19804344 1.7525969 73 61 57
-0.034928255 0.19734463 1.7464126 65 53 50
-0.03304193 0.19651252 1.739049 67 55 54
-0.03130288 0.19651252 1.739049 63 51 49
-0.029563831 0.19651252 1.739049 62 51 48
-0.027824784 0.19651252 1.739049 60 48 44
-0.026085736 0.19651252 1.739049 60 47 43
-0.02426144 0.19582446 1.7329599 60 47 43
-0.022528479 0.19582446 1.7329599 62 49 45
-0.020795519 0.19582446 1.7329599 62 50 46
-0.01906256 0.19582446 1.7329599 62 50 46
-0.0173296 0.19582446 1.7329599 61 50 45
-0.01554222 0.19514121 1.7269133 62 51 46
-0.013815307 0.19514121 1.7269133 61 49 45
-0.012088393 0.19514121 1.7269133 64 53 48
-0.01036148 0.19514121 1.7269133 64 52 46
-0.008634566 0.19514121 1.7269133 60 48 44
-0.0068788514 0.19432755 1.7197129 62 50 47
-0.0051591387 0.19432755 1.7197129 64 53 49
-0.0034394257 0.19432755 1.7197129 63 51 46
-0.0017137581 0.19365466 1.7137581 60 49 44
0.0 0.19365466 1.7137581 59 47 43
0.0017197129 0.19432755 1.7197129 59 46 43
0.0034275162 0.19365466 1.7137581 59 48 45
0.0051412745 0.19365466 1.7137581 59 48 45
0.0068266666 0.19285333 1.7066667 61 50 47
0.008504009 0.19219062 1.7008018 61 50 47
0.010204811 0.19219062 1.7008018 62 49 46
0.011946667 0.19285333 1.7066667 62 50 47
0.013653333 0.19285333 1.7066667 61 48 45
0.015307217 0.19219062 1.7008018 58 46 44
0.017008018 0.19219062 1.7008018 62 50 47
0.01870882 0.19219062 1.7008018 58 47 44
0.020409621 0.19219062 1.7008018 58 46 44
0.022278856 0.19365466 1.7137581 59 48 46
0.023893334 0.19285333 1.7066667 58 46 45
0.025512028 0.19219062 1.7008018 59 46 45
0.02721283 0.19219062 1.7008018 60 48 46
0.028913632 0.19219062 1.7008018 61 49 47
0.030720001 0.19285333 1.7066667 62 49 47
0.032315236 0.19219062 1.7008018 61 49 47
0.034016035 0.19219062 1.7008018 61 49 46
0.03571684 0.19219062 1.7008018 62 49 46
0.03741764 0.19219062 1.7008018 61 50 47
0.039118443 0.19219062 1.7008018 60 50 46
0.040819243 0.19219062 1.7008018 63 51 48
0.042520046 0.19219062 1.7008018 66 52 50
0.04422085 0.19219062 1.7008018 63 51 50
0.04592165 0.19219062 1.7008018 63 51 49
0.047622453 0.19219062 1.7008018 62 50 47
0.049323253 0.19219062 1.7008018 64 53 50
0.051200002 0.19285333 1.7066667 60 49 45
0.05290667 0.19285333 1.7066667 70 58 52
0.054613333 0.19285333 1.7066667 71 60 52
0.05632 0.19285333 1.7066667 71 59 51
0.057827264 0.19219062 1.7008018 76 62 54
0.059528064 0.19219062 1.7008018 78 65 56
0.061440002 0.19285333 1.7066667 76 63 56
0.06340905 0.19365466 1.7137581 75 61 56
0.06512281 0.19365466 1.7137581 76 62 57
0.066836566 0.19365466 1.7137581 81 67 61
0.068550326 0.19365466 1.7137581 84 70 66
0.070264086 0.19365466 1.7137581 86 71 65
0.07222794 0.19432755 1.7197129 86 70 64
0.0736916 0.19365466 1.7137581 92 74 68
0.07566737 0.19432755 1.7197129 95 76 69
0.07738708 0.19432755 1.7197129 100 83 74
0.079106785 0.19432755 1.7197129 110 93 84
0.080826506 0.19432755 1.7197129 110 93 85
0.08289184 0.19514121 1.7269133 101 86 78
0.084618755 0.19514121 1.7269133 105 91 84
0.086345665 0.19514121 1.7269133 126 109 102
0.08838095 0.19582446 1.7329599 114 100 93
0.09043054 0.19651252 1.739049 109 95 89
0.09216959 0.19651252 1.739049 92 74 68
0.09430628 0.19734463 1.7464126 94 74 67
0.0960527 0.19734463 1.7464126 103 79 72
0.09670714 0.19514121 1.7269133 116 93 85
0.10177201 0.20175855 1.7854738 109 88 81
0.12384009 0.24127467 2.135174 89 72 64
-0.07938894 0.25404462 2.2682555 82 64 54
-0.07291045 0.24017562 2.1444252 80 62 52
-0.066447526 0.22551885 2.0135612 79 62 53
-0.060774624 0.21271119 1.899207 72 58 50
-0.057079364 0.20622224 1.8412699 71 57 49
-0.054189786 0.20230854 1.8063262 73 58 49
-0.05177874 0.19997306 1.7854738 75 60 54
-0.049635146 0.19854058 1.7726839 74 59 56
-0.04769165 0.19783203 1.7663574 70 57 53
-0.045925293 0.19783203 1.7663574 65 54 50
-0.043970622 0.19698839 1.758825 63 51 48
-0.0422118 0.19698839 1.758825 71 59 55
-0.040452972 0.19698839 1.758825 71 58 54
-0.038557127 0.19629085 1.7525969 69 55 51
-0.036804534 0.19629085 1.7525969 70 58 54
-0.03505194 0.19629085 1.7525969 69 57 54
-0.03318184 0.19559821 1.7464126 70 59 56
-0.031435426 0.19559821 1.7464126 67 56 54
-0.029689014 0.19559821 1.7464126 64 52 50
-0.027824784 0.19477348 1.739049 60 48 45
-0.026085736 0.19477348 1.739049 60 48 43
-0.02426144 0.19409151 1.7329599 61 50 45
-0.022528479 0.19409151 1.7329599 62 50 46
-0.020795519 0.19409151 1.7329599 62 50 46
-0.018996047 0.19341429 1.7269133 62 51 47
-0.017269133 0.19341429 1.7269133 63 52 47
-0.01554222 0.19341429 1.7269133 62 50 46
-0.013815307 0.19341429 1.7269133 61 49 44
-0.012088393 0.19341429 1.7269133 62 50 46
-0.01036148 0.19341429 1.7269133 64 53 47
-0.008634566 0.19341429 1.7269133 63 51 47
-0.0068550324 0.1919409 1.7137581 62 51 47
-0.0051412745 0.1919409 1.7137581 68 56 52
-0.0034275162 0.1919409 1.7137581 61 49 45
-0.0017137581 0.1919409 1.7137581 57 46 42
0.0 0.1919409 1.7137581 57 46 42
0.0017137581 0.1919409 1.7137581 59 47 44
0.0034133333 0.19114667 1.7066667 59 48 45
0.00512 0.19114667 1.7066667 60 49 46
0.0068266666 0.19114667 1.7066667 61 50 47
0.008533333 0.19114667 1.7066667 62 50 47
0.01024 0.19114667 1.7066667 63 50 47
0.011946667 0.19114667 1.7066667 62 49 47
0.013606415 0.19048981 1.7008018 60 47 44
0.015307217 0.19048981 1.7008018 60 48 46
0.017008018 0.19048981 1.7008018 60 48 45
0.01870882 0.19048981 1.7008018 58 46 43
0.020409621 0.19048981 1.7008018 59 47 44
0.022019621 0.1897075 1.693817 57 46 43
0.023713438 0.1897075 1.693817 58 46 44
0.025407255 0.1897075 1.693817 59 47 46
0.027306667 0.19114667 1.7066667 60 48 46
0.029013334 0.19114667 1.7066667 61 49 47
0.030614434 0.19048981 1.7008018 61 49 46
0.032315236 0.19048981 1.7008018 61 49 46
0.034016035 0.19048981 1.7008018 60 48 45
0.03571684 0.19048981 1.7008018 60 49 45
0.03754667 0.19114667 1.7066667 60 50 46
0.03895779 0.1897075 1.693817 59 48 46
0.040819243 0.19048981 1.7008018 61 49 46
0.042520046 0.19048981 1.7008018 64 50 48
0.04422085 0.19048981 1.7008018 62 50 47
0.04592165 0.19048981 1.7008018 61 48 46
0.047622453 0.19048981 1.7008018 60 47 45
0.049323253 0.19048981 1.7008018 64 51 49
0.051024057 0.19048981 1.7008018 63 52 49
0.052724857 0.19048981 1.7008018 64 52 50
0.05442566 0.19048981 1.7008018 69 59 57
0.05612646 0.19048981 1.7008018 69 59 57
0.057827264 0.19048981 1.7008018 68 56 54
0.059528064 0.19048981 1.7008018 71 57 55
0.061228868 0.19048981 1.7008018 73 62 58
0.063146666 0.19114667 1.7066667 76 64 60
0.06485333 0.19114667 1.7066667 78 64 61
0.06656001 0.19114667 1.7066667 76 63 59
0.06826667 0.19114667 1.7066667 80 65 61
0.070264086 0.1919409 1.7137581 84 67 61
0.07197785 0.1919409 1.7137581 87 70 64
0.07394765 0.19260783 1.7197129 90 72 66
0.07566737 0.19260783 1.7197129 94 76 68
0.07738708 0.19260783 1.7197129 101 83 74
0.079106785 0.19260783 1.7197129 109 92 82
0.080826506 0.19260783 1.7197129 104 87 77
0.08289184 0.19341429 1.7269133 97 80 72
0.084618755 0.19341429 1.7269133 105 90 83
0.086345665 0.19341429 1.7269133 126 109 101
0.08838095 0.19409151 1.7329599 113 99 92
0.090113916 0.19409151 1.7329599 102 87 80
0.09216959 0.19477348 1.739049 88 69 64
0.093908645 0.19477348 1.739049 85 65 58
0.0960527 0.19559821 1.7464126 98 76 68
0.09704576 0.19409151 1.7329599 106 83 74
0.099545516 0.19559821 1.7464126 111 89 80
0.109732926 0.21189807 1.891947 99 80 70
-0.08444361 0.26036778 2.3456557 82 64 57
-0.07754104 0.24591585 2.2154582 80 63 56
-0.07064539 0.23063645 2.0778058 79 62 55
-0.063650824 0.21409822 1.9288127 78 61 55
-0.058920637 0.20438094 1.8412699 72 56 50
-0.05599611 0.2005022 1.8063262 70 56 48
-0.053564217 0.19818759 1.7854738 73 58 51
-0.051407833 0.19676791 1.7726839 76 61 55
-0.04945801 0.19606568 1.7663574 72 59 55
-0.04769165 0.19606568 1.7663574 67 53 50
-0.045925293 0.19606568 1.7663574 61 49 45
-0.043970622 0.19522958 1.758825 67 54 52
-0.0422118 0.19522958 1.758825 69 58 55
-0.040452972 0.19522958 1.758825 71 58 53
-0.038557127 0.19453825 1.7525969 68 56 50
-0.036804534 0.19453825 1.7525969 66 55 51
-0.03505194 0.19453825 1.7525969 68 56 54
-0.03318184 0.19385181 1.7464126 72 60 59
-0.031435426 0.19385181 1.7464126 68 58 56
-0.029689014 0.19385181 1.7464126 64 53 50
-0.027824784 0.19303444 1.739049 59 47 43
-0.025994398 0.19235855 1.7329599 63 50 47
-0.02426144 0.19235855 1.7329599 63 50 46
-0.022528479 0.19235855 1.7329599 62 50 46
-0.02072296 0.19168738 1.7269133 63 50 46
-0.018996047 0.19168738 1.7269133 64 51 47
-0.017269133 0.19168738 1.7269133 62 51 46
-0.01554222 0.19168738 1.7269133 62 51 46
-0.013815307 0.19168738 1.7269133 62 49 45
-0.012088393 0.19168738 1.7269133 62 50 45
-0.01036148 0.19168738 1.7269133 64 52 47
-0.008568791 0.19022715 1.7137581 62 49 45
-0.0068550324 0.19022715 1.7137581 63 52 48
-0.0051412745 0.19022715 1.7137581 65 53 49
-0.0034275162 0.19022715 1.7137581 60 48 45
-0.0017137581 0.19022715 1.7137581 57 44 42
0.0 0.19022715 1.7137581 58 46 42
0.0017137581 0.19022715 1.7137581 58 47 44
0.0034133333 0.18944 1.7066667 59 48 46
0.00512 0.18944 1.7066667 61 49 47
0.0068266666 0.18944 1.7066667 62 49 46
0.008533333 0.18944 1.7066667 63 50 47
0.01024 0.18944 1.7066667 63 50 47
0.011905613 0.188789 1.7008018 60 48 45
0.013606415 0.188789 1.7008018 58 47 45
0.015307217 0.188789 1.7008018 58 47 45
0.017008018 0.188789 1.7008018 58 46 44
0.01870882 0.188789 1.7008018 57 45 42
0.020409621 0.188789 1.7008018 58 47 44
0.022019621 0.18801369 1.693817 55 44 42
0.023713438 0.18801369 1.693817 57 45 43
0.025407255 0.18801369 1.693817 59 47 46
0.027101072 0.18801369 1.693817 60 47 45
0.02879489 0.18801369 1.693817 60 49 45
0.030488707 0.18801369 1.693817 58 48 45
0.032182522 0.18801369 1.693817 60 47 45
0.034016035 0.188789 1.7008018 59 48 44
0.03571684 0.188789 1.7008018 59 48 45
0.037263975 0.18801369 1.693817 61 49 46
0.03895779 0.18801369 1.693817 59 47 44
0.040819243 0.188789 1.7008018 60 48 45
0.042520046 0.188789 1.7008018 61 49 48
0.04422085 0.188789 1.7008018 61 49 48
0.04592165 0.188789 1.7008018 60 48 46
0.047622453 0.188789 1.7008018 58 45 44
0.049323253 0.188789 1.7008018 63 50 49
0.051024057 0.188789 1.7008018 64 50 49
0.052724857 0.188789 1.7008018 63 50 49
0.05442566 0.188789 1.7008018 65 53 52
0.05612646 0.188789 1.7008018 66 55 52
0.057827264 0.188789 1.7008018 67 54 50
0.059528064 0.188789 1.7008018 68 56 50
0.061228868 0.188789 1.7008018 68 56 51
0.063146666 0.18944 1.7066667 72 60 56
0.06485333 0.18944 1.7066667 76 62 59
0.06633127 0.188789 1.7008018 74 61 58
0.06826667 0.18944 1.7066667 75 60 56
0.069973335 0.18944 1.7066667 81 63 58
0.07197785 0.19022715 1.7137581 90 73 68
0.0736916 0.19022715 1.7137581 89 72 66
0.07540536 0.19022715 1.7137581 94 76 66
0.07711912 0.19022715 1.7137581 106 89 80
0.07883287 0.19022715 1.7137581 111 93 85
0.080826506 0.19088812 1.7197129 99 82 74
0.08289184 0.19168738 1.7269133 92 72 64
0.084618755 0.19168738 1.7269133 103 87 80
0.086345665 0.19168738 1.7269133 129 111 102
0.08838095 0.19235855 1.7329599 115 101 93
0.090113916 0.19235855 1.7329599 90 74 66
0.09216959 0.19303444 1.739049 85 65 59
0.093908645 0.19303444 1.739049 82 60 54
0.0960527 0.19385181 1.7464126 103 83 75
0.09630392 0.19088812 1.7197129 100 77 67
0.09877871 0.19235855 1.7329599 110 87 77
0.10476691 0.2005022 1.8063262 104 83 71
0.12909402 0.2428718 2.1880343 86 63 56
-0.08678926 0.25802213 2.3456557 83 65 59
-0.080404334 0.24567991 2.2334538 82 65 58
-0.07415525 0.23305936 2.1187215 82 64 57
-0.066829756 0.21621393 1.9655812 80 62 55
-0.060761906 0.20253968 1.8412699 77 61 54
-0.057802435 0.19869588 1.8063262 71 58 50
-0.05534969 0.19640212 1.7854738 72 57 50
-0.053180516 0.19499522 1.7726839 73 60 53
-0.051224366 0.19429931 1.7663574 76 61 57
-0.049635146 0.19499522 1.7726839 72 59 56
-0.047862466 0.19499522 1.7726839 63 49 46
-0.045925293 0.19429931 1.7663574 62 51 48
-0.044158936 0.19429931 1.7663574 69 57 54
-0.0422118 0.19347075 1.758825 70 58 55
-0.040309727 0.19278567 1.7525969 69 57 52
-0.038557127 0.19278567 1.7525969 67 54 50
-0.036804534 0.19278567 1.7525969 66 53 51
-0.034928255 0.1921054 1.7464126 68 56 54
-0.03318184 0.1921054 1.7464126 74 64 62
-0.031435426 0.1921054 1.7464126 68 59 56
-0.029563831 0.19129539 1.739049 61 51 47
-0.027727358 0.19062558 1.7329599 63 51 48
-0.025994398 0.19062558 1.7329599 64 53 49
-0.02426144 0.19062558 1.7329599 64 51 47
-0.022449873 0.18996046 1.7269133 64 51 47
-0.02072296 0.18996046 1.7269133 65 52 48
-0.018996047 0.18996046 1.7269133 65 52 48
-0.017269133 0.18996046 1.7269133 62 51 46
-0.01554222 0.18996046 1.7269133 62 51 46
-0.013815307 0.18996046 1.7269133 62 49 45
-0.01203799 0.18916841 1.7197129 64 52 47
-0.010282549 0.1885134 1.7137581 66 54 49
-0.008568791 0.1885134 1.7137581 63 51 47
-0.0068550324 0.1885134 1.7137581 64 51 47
-0.0051412745 0.1885134 1.7137581 62 51 49
-0.0034275162 0.1885134 1.7137581 59 48 46
-0.0017137581 0.1885134 1.7137581 56 45 41
0.0 0.1885134 1.7137581 57 46 42
0.0017137581 0.1885134 1.7137581 58 47 44
0.0034133333 0.18773334 1.7066667 59 50 47
0.00512 0.18773334 1.7066667 61 50 47
0.0068266666 0.18773334 1.7066667 63 50 47
0.008533333 0.18773334 1.7066667 63 50 47
0.010204811 0.18708819 1.7008018 62 49 46
0.011905613 0.18708819 1.7008018 62 50 46
0.013606415 0.18708819 1.7008018 57 46 43
0.015307217 0.18708819 1.7008018 58 47 44
0.017008018 0.18708819 1.7008018 58 47 45
0.01870882 0.18708819 1.7008018 56 45 42
0.020409621 0.18708819 1.7008018 59 48 45
0.022019621 0.18631987 1.693817 56 45 42
0.023713438 0.18631987 1.693817 55 44 41
0.025407255 0.18631987 1.693817 58 47 46
0.027101072 0.18631987 1.693817 57 45 42
0.02879489 0.18631987 1.693817 57 46 43
0.030488707 0.18631987 1.693817 60 47 45
0.032182522 0.18631987 1.693817 60 47 45
0.034016035 0.18708819 1.7008018 59 46 43
0.035570156 0.18631987 1.693817 58 46 44
0.037263975 0.18631987 1.693817 58 48 45
0.03895779 0.18631987 1.693817 60 49 45
0.040819243 0.18708819 1.7008018 58 48 44
0.042520046 0.18708819 1.7008018 60 47 46
0.04422085 0.18708819 1.7008018 59 48 47
0.04592165 0.18708819 1.7008018 58 47 45
0.047622453 0.18708819 1.7008018 59 46 45
0.049323253 0.18708819 1.7008018 60 47 46
0.051024057 0.18708819 1.7008018 63 50 49
0.052724857 0.18708819 1.7008018 63 51 49
0.05442566 0.18708819 1.7008018 61 49 48
0.05612646 0.18708819 1.7008018 64 52 49
0.057827264 0.18708819 1.7008018 64 52 47
0.059528064 0.18708819 1.7008018 66 53 48
0.061228868 0.18708819 1.7008018 67 54 49
0.063146666 0.18773334 1.7066667 65 53 49
0.06485333 0.18773334 1.7066667 65 53 49
0.06633127 0.18708819 1.7008018 70 57 52
0.06826667 0.18773334 1.7066667 71 57 52
0.069973335 0.18773334 1.7066667 76 58 52
0.07168 0.18773334 1.7066667 89 74 66
0.0736916 0.1885134 1.7137581 93 76 69
0.07540536 0.1885134 1.7137581 102 85 76
0.07711912 0.1885134 1.7137581 114 96 87
0.07883287 0.1885134 1.7137581 104 87 78
0.08054663 0.1885134 1.7137581 97 77 69
0.08226039 0.1885134 1.7137581 94 73 65
0.084618755 0.18996046 1.7269133 102 86 77
0.08598564 0.18916841 1.7197129 131 113 103
0.08838095 0.19062558 1.7329599 115 100 93
0.090113916 0.19062558 1.7329599 91 73 66
0.09216959 0.19129539 1.739049 89 68 62
0.093908645 0.19129539 1.739049 80 58 52
0.0960527 0.1921054 1.7464126 106 86 78
0.09738674 0.19129539 1.739049 96 76 65
0.09843406 0.18996046 1.7269133 104 81 71
0.09939797 0.1885134 1.7137581 109 87 74
0.10986105 0.20482568 1.8620517 91 67 61
-0.083925456 0.24723986 2.2682555 83 65 59
-0.07537056 0.22820531 2.0936267 83 65 58
-0.068523206 0.21340086 1.957806 82 64 57
-0.062836945 0.20144786 1.8481455 77 61 52
-0.059392 0.19617358 1.7997576 73 58 51
-0.05713516 0.19461666 1.7854738 69 55 50
-0.054953203 0.19322254 1.7726839 72 58 54
-0.052990723 0.19253296 1.7663574 75 63 58
-0.051407833 0.19322254 1.7726839 73 60 57
-0.049635146 0.19322254 1.7726839 65 52 49
-0.04769165 0.19253296 1.7663574 61 49 46
-0.045925293 0.19253296 1.7663574 69 57 54
-0.043970622 0.19171192 1.758825 70 57 54
-0.042062324 0.19103305 1.7525969 70 57 53
-0.040309727 0.19103305 1.7525969 70 56 50
-0.038557127 0.19103305 1.7525969 66 52 49
-0.036674663 0.19035898 1.7464126 64 50 47
-0.034928255 0.19035898 1.7464126 65 53 48
-0.03318184 0.19035898 1.7464126 75 64 60
-0.03130288 0.18955633 1.739049 68 57 53
-0.029563831 0.18955633 1.739049 62 52 46
-0.027727358 0.18889262 1.7329599 67 55 51
-0.025994398 0.18889262 1.7329599 68 57 53
-0.024176786 0.18823355 1.7269133 65 53 49
-0.022449873 0.18823355 1.7269133 63 52 48
-0.02072296 0.18823355 1.7269133 65 52 48
-0.018996047 0.18823355 1.7269133 65 52 48
-0.017269133 0.18823355 1.7269133 61 49 45
-0.01554222 0.18823355 1.7269133 62 51 46
-0.013757703 0.1874487 1.7197129 63 50 46
-0.0119963065 0.18679963 1.7137581 65 54 49
-0.010282549 0.18679963 1.7137581 68 55 51
-0.008568791 0.18679963 1.7137581 64 53 49
-0.0068550324 0.18679963 1.7137581 63 51 47
-0.0051412745 0.18679963 1.7137581 62 50 47
-0.0034275162 0.18679963 1.7137581 61 49 46
-0.0017137581 0.18679963 1.7137581 57 46 42
0.0 0.18679963 1.7137581 59 46 43
0.0017137581 0.18679963 1.7137581 60 48 47
0.0034133333 0.18602668 1.7066667 61 48 46
0.00512 0.18602668 1.7066667 63 49 46
0.0068032076 0.1853874 1.7008018 63 50 47
0.008504009 0.1853874 1.7008018 62 49 46
0.010204811 0.1853874 1.7008018 63 50 47
0.011905613 0.1853874 1.7008018 61 50 46
0.013606415 0.1853874 1.7008018 58 46 43
0.015307217 0.1853874 1.7008018 57 46 44
0.017008018 0.1853874 1.7008018 58 45 43
0.018631987 0.18462606 1.693817 59 47 45
0.020409621 0.1853874 1.7008018 59 47 44
0.022019621 0.18462606 1.693817 57 46 44
0.023713438 0.18462606 1.693817 56 45 42
0.025512028 0.1853874 1.7008018 57 46 44
0.027101072 0.18462606 1.693817 56 45 42
0.02879489 0.18462606 1.693817 57 46 43
0.030488707 0.18462606 1.693817 58 47 44
0.032315236 0.1853874 1.7008018 60 49 46
0.034016035 0.1853874 1.7008018 58 46 44
0.035570156 0.18462606 1.693817 57 46 42
0.037263975 0.18462606 1.693817 57 45 42
0.03895779 0.18462606 1.693817 60 47 45
0.040819243 0.1853874 1.7008018 59 47 45
0.042520046 0.1853874 1.7008018 59 48 46
0.04422085 0.1853874 1.7008018 59 47 46
0.04592165 0.1853874 1.7008018 60 47 46
0.047622453 0.1853874 1.7008018 59 46 45
0.049323253 0.1853874 1.7008018 59 47 46
0.05081451 0.18462606 1.693817 61 49 48
0.052508328 0.18462606 1.693817 61 49 48
0.054202143 0.18462606 1.693817 60 49 49
0.05612646 0.1853874 1.7008018 62 50 48
0.05758978 0.18462606 1.693817 62 50 47
0.059283596 0.18462606 1.693817 65 51 48
0.060977414 0.18462606 1.693817 65 51 48
0.06292967 0.1853874 1.7008018 63 50 47
0.06463047 0.1853874 1.7008018 64 50 47
0.06656001 0.18602668 1.7066667 66 52 48
0.06803207 0.1853874 1.7008018 70 55 49
0.06973288 0.1853874 1.7008018 76 58 51
0.07168 0.18602668 1.7066667 89 73 65
0.0736916 0.18679963 1.7137581 103 85 78
0.07509334 0.18602668 1.7066667 110 93 85
0.07711912 0.18679963 1.7137581 111 93 84
0.07883287 0.18679963 1.7137581 100 81 70
0.08054663 0.18679963 1.7137581 95 74 64
0.08226039 0.18679963 1.7137581 93 73 63
0.083974145 0.18679963 1.7137581 105 88 79
0.08598564 0.1874487 1.7197129 122 104 96
0.08770535 0.1874487 1.7197129 103 87 79
0.08979949 0.18823355 1.7269133 89 70 62
0.091526404 0.18823355 1.7269133 93 71 64
0.093579836 0.18889262 1.7329599 79 56 48
0.09531279 0.18889262 1.7329599 99 79 71
0.09738674 0.18955633 1.739049 103 84 74
0.10025302 0.19171192 1.758825 95 71 62
0.10129193 0.19035898 1.7464126 105 82 69
0.10303835 0.19035898 1.7464126 101 77 70
0.11308454 0.20543692 1.8847424 82 63 59
-0.087967575 0.2500131 2.3149362 83 66 58
-0.07805855 0.22784658 2.1096904 83 65 58
-0.07048102 0.21144305 1.957806 83 65 58
-0.06468509 0.19959971 1.8481455 81 64 55
-0.061191756 0.19437383 1.7997576 75 59 50
-0.058920637 0.19283117 1.7854738 69 56 49
-0.05713516 0.19283117 1.7854738 70 57 52
-0.055150732 0.19213805 1.779056 73 60 57
-0.053180516 0.19144987 1.7726839 74 61 58
-0.051407833 0.19144987 1.7726839 68 55 52
-0.04945801 0.1907666 1.7663574 61 48 46
-0.04769165 0.1907666 1.7663574 65 53 50
-0.04572945 0.18995309 1.758825 71 58 55
-0.043970622 0.18995309 1.758825 69 57 53
-0.042062324 0.18928045 1.7525969 68 55 50
-0.040309727 0.18928045 1.7525969 65 53 47
-0.03842108 0.18861257 1.7464126 61 49 45
-0.036674663 0.18861257 1.7464126 61 48 43
-0.034928255 0.18861257 1.7464126 69 58 53
-0.03304193 0.18781729 1.739049 77 64 60
-0.03130288 0.18781729 1.739049 68 56 52
-0.029563831 0.18781729 1.739049 64 54 49
-0.027727358 0.18715967 1.7329599 69 58 54
-0.0259037 0.18650664 1.7269133 69 58 54
-0.02407598 0.18572898 1.7197129 65 54 49
-0.022356268 0.18572898 1.7197129 64 53 48
-0.020636555 0.18572898 1.7197129 66 54 50
-0.018916842 0.18572898 1.7197129 65 54 49
-0.017197128 0.18572898 1.7197129 61 49 45
-0.015477416 0.18572898 1.7197129 65 54 49
-0.013757703 0.18572898 1.7197129 63 50 46
-0.01203799 0.18572898 1.7197129 65 53 48
-0.010318277 0.18572898 1.7197129 69 56 51
-0.008568791 0.18508588 1.7137581 67 54 50
-0.0068550324 0.18508588 1.7137581 64 53 47
-0.00512 0.18432 1.7066667 60 48 44
-0.0034133333 0.18432 1.7066667 62 48 46
-0.0017066667 0.18432 1.7066667 61 48 45
0.0 0.18432 1.7066667 59 47 43
0.0017066667 0.18432 1.7066667 60 48 47
0.0034016038 0.1836866 1.7008018 63 49 47
0.0051024053 0.1836866 1.7008018 64 51 47
0.006775268 0.18293224 1.693817 64 50 45
0.008469084 0.18293224 1.693817 62 49 44
0.010162902 0.18293224 1.693817 62 49 45
0.011856719 0.18293224 1.693817 61 49 44
0.013550536 0.18293224 1.693817 59 47 43
0.015244354 0.18293224 1.693817 58 46 43
0.016938169 0.18293224 1.693817 57 45 43
0.018631987 0.18293224 1.693817 58 46 43
0.020325804 0.18293224 1.693817 58 47 44
0.022110425 0.1836866 1.7008018 57 46 42
0.023811227 0.1836866 1.7008018 55 44 42
0.025407255 0.18293224 1.693817 57 45 43
0.027101072 0.18293224 1.693817 55 46 43
0.02879489 0.18293224 1.693817 56 45 43
0.030614434 0.1836866 1.7008018 58 47 45
0.032182522 0.18293224 1.693817 58 47 44
0.033876337 0.18293224 1.693817 57 46 43
0.035570156 0.18293224 1.693817 56 44 42
0.037263975 0.18293224 1.693817 58 45 43
0.039118443 0.1836866 1.7008018 58 47 44
0.040819243 0.1836866 1.7008018 59 47 44
0.042345423 0.18293224 1.693817 60 48 47
0.044039242 0.18293224 1.693817 60 47 46
0.04592165 0.1836866 1.7008018 60 48 46
0.047426876 0.18293224 1.693817 59 46 44
0.04895316 0.18230832 1.68804 60 47 46
0.05081451 0.18293224 1.693817 58 47 45
0.052508328 0.18293224 1.693817 60 47 46
0.054202143 0.18293224 1.693817 60 48 47
0.05589596 0.18293224 1.693817 63 50 48
0.05758978 0.18293224 1.693817 63 51 48
0.059283596 0.18293224 1.693817 63 50 48
0.060977414 0.18293224 1.693817 63 50 48
0.06292967 0.1836866 1.7008018 62 51 47
0.06463047 0.1836866 1.7008018 62 49 45
0.06633127 0.1836866 1.7008018 68 55 49
0.06803207 0.1836866 1.7008018 72 56 50
0.06973288 0.1836866 1.7008018 78 60 55
0.07168 0.18432 1.7066667 92 74 68
0.07338666 0.18432 1.7066667 109 89 83
0.07509334 0.18432 1.7066667 107 87 80
0.07711912 0.18508588 1.7137581 101 82 72
0.07883287 0.18508588 1.7137581 99 77 66
0.08054663 0.18508588 1.7137581 98 76 66
0.08226039 0.18508588 1.7137581 98 76 67
0.083974145 0.18508588 1.7137581 107 88 80
0.08598564 0.18572898 1.7197129 119 100 93
0.08770535 0.18572898 1.7197129 91 72 64
0.08979949 0.18650664 1.7269133 86 65 57
0.091526404 0.18650664 1.7269133 91 69 62
0.093579836 0.18715967 1.7329599 79 55 47
0.09531279 0.18715967 1.7329599 89 68 59
0.09704576 0.18715967 1.7329599 104 85 77
0.09877871 0.18715967 1.7329599 89 67 59
0.100864835 0.18781729 1.739049 97 75 66
0.10224463 0.18715967 1.7329599 100 76 67
0.10798546 0.19437383 1.7997576 95 71 64
-0.08184276 0.23045199 2.1537569 83 66 57
-0.07360343 0.21285316 1.9892819 82 64 56
-0.06653323 0.19775157 1.8481455 82 65 56
-0.062991515 0.19257407 1.7997576 79 63 54
-0.06070611 0.1910457 1.7854738 74 58 50
-0.058920637 0.1910457 1.7854738 69 56 51
-0.05692979 0.190359 1.779056 72 58 54
-0.054953203 0.18967716 1.7726839 74 60 57
-0.052990723 0.18900025 1.7663574 70 56 53
-0.051224366 0.18900025 1.7663574 63 50 47
-0.04945801 0.18900025 1.7663574 60 47 45
-0.047488272 0.18819427 1.758825 69 56 53
-0.04572945 0.18819427 1.758825 71 59 54
-0.043814924 0.18752787 1.7525969 69 57 51
-0.042062324 0.18752787 1.7525969 65 53 47
-0.040167492 0.18686615 1.7464126 62 52 46
-0.03842108 0.18686615 1.7464126 59 49 44
-0.036520027 0.18607824 1.739049 61 50 45
-0.03478098 0.18607824 1.739049 71 59 54
-0.03304193 0.18607824 1.739049 71 59 54
-0.031193277 0.18542671 1.7329599 68 56 52
-0.029460318 0.18542671 1.7329599 68 57 53
-0.027630614 0.18477972 1.7269133 69 59 55
-0.025795693 0.18400928 1.7197129 68 57 53
-0.02407598 0.18400928 1.7197129 66 55 51
-0.022356268 0.18400928 1.7197129 67 56 52
-0.020636555 0.18400928 1.7197129 66 56 51
-0.018916842 0.18400928 1.7197129 66 53 49
-0.017197128 0.18400928 1.7197129 64 52 48
-0.015423823 0.18337211 1.7137581 66 54 49
-0.013710065 0.18337211 1.7137581 66 53 48
-0.0119963065 0.18337211 1.7137581 67 53 49
-0.010282549 0.18337211 1.7137581 69 55 52
-0.008533333 0.18261334 1.7066667 68 54 51
-0.0068266666 0.18261334 1.7066667 65 53 49
-0.00512 0.18261334 1.7066667 61 48 45
-0.0034133333 0.18261334 1.7066667 61 49 46
-0.0017066667 0.18261334 1.7066667 63 49 47
0.0 0.18261334 1.7066667 60 46 43
0.0017008019 0.1819858 1.7008018 63 51 47
0.0034016038 0.1819858 1.7008018 64 52 47
0.0051024053 0.1819858 1.7008018 64 51 46
0.006775268 0.18123841 1.693817 65 51 46
0.008469084 0.18123841 1.693817 62 49 43
0.010162902 0.18123841 1.693817 61 50 46
0.011856719 0.18123841 1.693817 59 49 45
0.013550536 0.18123841 1.693817 57 46 41
0.015244354 0.18123841 1.693817 59 47 44
0.016938169 0.18123841 1.693817 58 47 43
0.018631987 0.18123841 1.693817 57 46 42
0.020325804 0.18123841 1.693817 58 46 44
0.022110425 0.1819858 1.7008018 56 46 42
0.023713438 0.18123841 1.693817 56 44 42
0.025407255 0.18123841 1.693817 55 44 41
0.02721283 0.1819858 1.7008018 57 46 44
0.028913632 0.1819858 1.7008018 56 46 43
0.030488707 0.18123841 1.693817 56 46 43
0.032182522 0.18123841 1.693817 57 45 42
0.033876337 0.18123841 1.693817 57 47 43
0.035570156 0.18123841 1.693817 57 46 43
0.03741764 0.1819858 1.7008018 59 46 44
0.03895779 0.18123841 1.693817 59 46 44
0.04065161 0.18123841 1.693817 59 46 45
0.042345423 0.18123841 1.693817 59 48 46
0.044039242 0.18123841 1.693817 60 48 47
0.04557708 0.18062028 1.68804 59 48 47
0.04726512 0.18062028 1.68804 57 45 43
0.04895316 0.18062028 1.68804 58 46 45
0.05081451 0.18123841 1.693817 58 46 45
0.05232924 0.18062028 1.68804 59 47 46
0.054202143 0.18123841 1.693817 59 46 46
0.05589596 0.18123841 1.693817 62 50 47
0.05758978 0.18123841 1.693817 63 50 48
0.059283596 0.18123841 1.693817 60 46 45
0.060977414 0.18123841 1.693817 58 46 45
0.06267123 0.18123841 1.693817 59 48 45
0.06463047 0.1819858 1.7008018 55 45 40
0.06633127 0.1819858 1.7008018 69 58 52
0.06803207 0.1819858 1.7008018 76 61 54
0.069973335 0.18261334 1.7066667 81 65 60
0.07168 0.18261334 1.7066667 96 76 71
0.07338666 0.18261334 1.7066667 106 81 75
0.07509334 0.18261334 1.7066667 103 80 72
0.07711912 0.18337211 1.7137581 99 76 67
0.07883287 0.18337211 1.7137581 102 77 67
0.08054663 0.18337211 1.7137581 104 78 69
0.08226039 0.18337211 1.7137581 104 79 71
0.083974145 0.18337211 1.7137581 108 87 79
0.08598564 0.18400928 1.7197129 107 88 81
0.08770535 0.18400928 1.7197129 83 61 54
0.08979949 0.18477972 1.7269133 84 61 54
0.091526404 0.18477972 1.7269133 88 66 58
0.093579836 0.18542671 1.7329599 80 56 48
0.09531279 0.18542671 1.7329599 84 63 56
0.09704576 0.18542671 1.7329599 104 84 78
0.09877871 0.18542671 1.7329599 88 65 57
0.10129193 0.18686615 1.7464126 93 69 60
0.10224463 0.18542671 1.7329599 99 70 62
0.10397759 0.18542671 1.7329599 99 72 65
0.1162979 0.20399794 1.9065229 87 64 57
-0.0871047 0.23674609 2.2334538 83 65 56
-0.078299195 0.21841355 2.0605052 82 64 54
-0.070002034 0.20054638 1.891947 81 63 54
-0.06479128 0.1907743 1.7997576 82 64 55
-0.062491585 0.18926023 1.7854738 78 62 53
-0.06070611 0.18926023 1.7854738 72 59 51
-0.058708847 0.18857993 1.779056 71 58 51
-0.056725882 0.18790449 1.7726839 73 60 56
-0.054953203 0.18790449 1.7726839 71 58 55
-0.052990723 0.18723388 1.7663574 65 53 50
-0.051005926 0.18643545 1.758825 62 49 47
-0.049247097 0.18643545 1.758825 64 52 49
-0.047488272 0.18643545 1.758825 71 58 55
-0.04556752 0.18577527 1.7525969 70 58 54
-0.043814924 0.18577527 1.7525969 65 54 49
-0.0419139 0.18511973 1.7464126 63 52 47
-0.040167492 0.18511973 1.7464126 58 47 44
-0.03842108 0.18511973 1.7464126 57 46 43
-0.036520027 0.18433918 1.739049 64 55 50
-0.03478098 0.18433918 1.739049 71 61 56
-0.03292624 0.18369374 1.7329599 70 59 55
-0.031193277 0.18369374 1.7329599 68 56 52
-0.029357526 0.18305281 1.7269133 70 58 55
-0.027630614 0.18305281 1.7269133 69 57 53
-0.025795693 0.18228957 1.7197129 65 54 48
-0.02407598 0.18228957 1.7197129 66 55 50
-0.022356268 0.18228957 1.7197129 67 56 52
-0.020636555 0.18228957 1.7197129 66 55 50
-0.018916842 0.18228957 1.7197129 63 50 46
-0.017197128 0.18228957 1.7197129 64 52 47
-0.015423823 0.18165836 1.7137581 68 56 51
-0.013710065 0.18165836 1.7137581 66 54 48
-0.0119963065 0.18165836 1.7137581 67 54 49
-0.010282549 0.18165836 1.7137581 68 56 52
-0.008533333 0.18090668 1.7066667 69 55 51
-0.0068266666 0.18090668 1.7066667 66 54 49
-0.00512 0.18090668 1.7066667 63 47 44
-0.0034133333 0.18090668 1.7066667 64 49 46
-0.0017008019 0.180285 1.7008018 64 50 46
0.0 0.180285 1.7008018 61 47 42
0.0017008019 0.180285 1.7008018 65 51 46
0.0034016038 0.180285 1.7008018 66 53 46
0.0051024053 0.180285 1.7008018 66 53 46
0.006775268 0.1795446 1.693817 66 53 48
0.008469084 0.1795446 1.693817 61 50 43
0.010162902 0.1795446 1.693817 60 51 45
0.011856719 0.1795446 1.693817 60 50 44
0.013550536 0.1795446 1.693817 57 47 42
0.015244354 0.1795446 1.693817 59 48 44
0.016938169 0.1795446 1.693817 59 48 46
0.018631987 0.1795446 1.693817 58 48 45
0.020325804 0.1795446 1.693817 57 47 44
0.022019621 0.1795446 1.693817 54 45 41
0.023713438 0.1795446 1.693817 52 44 40
0.025407255 0.1795446 1.693817 54 45 42
0.027101072 0.1795446 1.693817 56 46 43
0.02879489 0.1795446 1.693817 55 44 41
0.030488707 0.1795446 1.693817 56 45 42
0.032182522 0.1795446 1.693817 55 43 40
0.0337608 0.17893223 1.68804 56 45 41
0.03544884 0.17893223 1.68804 57 44 41
0.037263975 0.1795446 1.693817 57 45 42
0.03895779 0.1795446 1.693817 59 47 44
0.04065161 0.1795446 1.693817 56 45 42
0.042345423 0.1795446 1.693817 59 46 45
0.044039242 0.1795446 1.693817 58 47 46
0.04557708 0.17893223 1.68804 58 47 45
0.04726512 0.17893223 1.68804 56 44 43
0.04895316 0.17893223 1.68804 58 47 45
0.0506412 0.17893223 1.68804 58 46 45
0.05232924 0.17893223 1.68804 58 46 45
0.054202143 0.1795446 1.693817 58 45 44
0.05589596 0.1795446 1.693817 61 48 47
0.05758978 0.1795446 1.693817 61 48 46
0.059283596 0.1795446 1.693817 60 47 46
0.060977414 0.1795446 1.693817 57 45 43
0.06267123 0.1795446 1.693817 54 45 41
0.06463047 0.180285 1.7008018 54 43 37
0.06633127 0.180285 1.7008018 70 56 50
0.06803207 0.180285 1.7008018 77 61 53
0.06973288 0.180285 1.7008018 85 67 63
0.07168 0.18090668 1.7066667 98 76 71
0.07338666 0.18090668 1.7066667 100 75 68
0.07509334 0.18090668 1.7066667 100 76 68
0.07711912 0.18165836 1.7137581 101 77 67
0.07883287 0.18165836 1.7137581 108 80 71
0.08054663 0.18165836 1.7137581 106 79 70
0.08226039 0.18165836 1.7137581 106 79 70
0.083974145 0.18165836 1.7137581 106 83 76
0.08598564 0.18228957 1.7197129 94 74 66
0.08770535 0.18228957 1.7197129 81 58 49
0.08979949 0.18305281 1.7269133 84 61 53
0.091526404 0.18305281 1.7269133 85 61 53
0.093579836 0.18369374 1.7329599 80 55 47
0.09531279 0.18369374 1.7329599 83 60 52
0.09704576 0.18369374 1.7329599 100 79 72
0.09877871 0.18369374 1.7329599 89 65 56
0.100864835 0.18433918 1.739049 89 65 55
0.10260389 0.18433918 1.739049 96 67 59
0.10318277 0.18228957 1.7197129 97 69 62
0.10534171 0.18305281 1.7269133 94 70 63
0.12925807 0.22098961 2.0848076 83 63 56
-0.09039879 0.23729682 2.2599697 84 66 58
-0.082985386 0.22342221 2.1278305 83 65 56
-0.074692085 0.20638601 1.9655812 82 64 54
-0.06762383 0.19190547 1.8276712 81 64 55
-0.06427705 0.18747474 1.7854738 81 64 55
-0.062491585 0.18747474 1.7854738 76 61 53
-0.060487904 0.18680087 1.779056 72 59 52
-0.058498565 0.1861318 1.7726839 73 60 53
-0.056725882 0.1861318 1.7726839 72 61 56
-0.05475708 0.18546753 1.7663574 68 56 53
-0.052990723 0.18546753 1.7663574 61 50 47
-0.051005926 0.18467662 1.758825 62 50 47
-0.049247097 0.18467662 1.758825 68 56 52
-0.047488272 0.18467662 1.758825 68 57 52
-0.04556752 0.18402268 1.7525969 64 54 49
-0.043814924 0.18402268 1.7525969 61 51 46
-0.0419139 0.18337332 1.7464126 60 49 45
-0.040167492 0.18337332 1.7464126 56 45 42
-0.038259078 0.18260014 1.739049 58 46 44
-0.036520027 0.18260014 1.739049 67 57 55
-0.0346592 0.18196079 1.7329599 71 59 56
-0.03292624 0.18196079 1.7329599 67 56 52
-0.031193277 0.18196079 1.7329599 64 54 48
-0.029357526 0.1813259 1.7269133 65 54 48
-0.027515406 0.18056986 1.7197129 66 55 51
-0.025795693 0.18056986 1.7197129 65 54 49
-0.02407598 0.18056986 1.7197129 69 58 53
-0.022356268 0.18056986 1.7197129 68 56 51
-0.020636555 0.18056986 1.7197129 67 55 50
-0.018916842 0.18056986 1.7197129 64 52 47
-0.017197128 0.18056986 1.7197129 66 54 49
-0.015423823 0.17994459 1.7137581 68 56 51
-0.013710065 0.17994459 1.7137581 67 53 49
-0.0119963065 0.17994459 1.7137581 67 54 50
-0.010282549 0.17994459 1.7137581 71 58 54
-0.008533333 0.1792 1.7066667 69 55 52
-0.0068266666 0.1792 1.7066667 65 53 49
-0.0051024053 0.1785842 1.7008018 65 51 45
-0.0034016038 0.1785842 1.7008018 64 51 44
-0.0017008019 0.1785842 1.7008018 65 52 48
0.0 0.1785842 1.7008018 65 52 49
0.0017008019 0.1785842 1.7008018 68 55 52
0.0034016038 0.1785842 1.7008018 66 53 50
0.0051024053 0.1785842 1.7008018 67 54 49
0.006775268 0.17785078 1.693817 67 54 50
0.008469084 0.17785078 1.693817 62 50 46
0.010162902 0.17785078 1.693817 62 51 46
0.011856719 0.17785078 1.693817 60 49 45
0.013550536 0.17785078 1.693817 58 47 43
0.015244354 0.17785078 1.693817 59 48 44
0.016938169 0.17785078 1.693817 59 48 44
0.018631987 0.17785078 1.693817 59 48 44
0.020325804 0.17785078 1.693817 58 48 45
0.022019621 0.17785078 1.693817 53 42 40
0.02363256 0.1772442 1.68804 54 43 42
0.0253206 0.1772442 1.68804 56 46 44
0.027101072 0.17785078 1.693817 56 45 42
0.02879489 0.17785078 1.693817 55 44 42
0.03038472 0.1772442 1.68804 55 44 42
0.03207276 0.1772442 1.68804 55 44 41
0.0337608 0.1772442 1.68804 55 45 42
0.03544884 0.1772442 1.68804 57 46 42
0.037263975 0.17785078 1.693817 56 45 42
0.03895779 0.17785078 1.693817 59 47 45
0.040512964 0.1772442 1.68804 55 43 42
0.04202899 0.17652175 1.6811595 57 46 43
0.043710146 0.17652175 1.6811595 57 45 43
0.045391306 0.17652175 1.6811595 56 45 44
0.04726512 0.1772442 1.68804 56 43 42
0.04895316 0.1772442 1.68804 58 46 45
0.0506412 0.1772442 1.68804 59 46 45
0.05232924 0.1772442 1.68804 57 46 45
0.054202143 0.17785078 1.693817 57 44 43
0.05589596 0.17785078 1.693817 59 46 44
0.05758978 0.17785078 1.693817 62 48 45
0.059283596 0.17785078 1.693817 60 46 45
0.060977414 0.17785078 1.693817 58 46 44
0.06267123 0.17785078 1.693817 54 43 40
0.06463047 0.1785842 1.7008018 58 46 40
0.06633127 0.1785842 1.7008018 69 54 47
0.06803207 0.1785842 1.7008018 75 60 51
0.06973288 0.1785842 1.7008018 82 65 60
0.07143368 0.1785842 1.7008018 94 71 65
0.07338666 0.1792 1.7066667 101 76 69
0.07509334 0.1792 1.7066667 102 76 68
0.07711912 0.17994459 1.7137581 104 78 67
0.07883287 0.17994459 1.7137581 106 79 68
0.08054663 0.17994459 1.7137581 109 81 71
0.08226039 0.17994459 1.7137581 106 78 68
0.083974145 0.17994459 1.7137581 103 79 69
0.085687906 0.17994459 1.7137581 91 68 58
0.08770535 0.18056986 1.7197129 82 59 49
0.08942507 0.18056986 1.7197129 85 61 52
0.091526404 0.1813259 1.7269133 84 60 51
0.09325332 0.1813259 1.7269133 81 58 49
0.09531279 0.18196079 1.7329599 87 65 57
0.09704576 0.18196079 1.7329599 93 70 62
0.09877871 0.18196079 1.7329599 84 59 50
0.100864835 0.18260014 1.739049 85 61 52
0.10260389 0.18260014 1.739049 92 64 56
0.1036148 0.1813259 1.7269133 95 68 60
0.104106665 0.1792 1.7066667 94 69 62
0.11544721 0.19551542 1.8620517 88 65 60
0.1417309 0.23621818 2.249697 73 61 64
-0.096171886 0.24394819 2.3456557 85 68 61
-0.08645125 0.22477324 2.161281 82 65 56
-0.078210704 0.20856185 2.0054026 82 64 56
-0.07075796 0.19365337 1.8620517 80 63 55
-0.06659103 0.18717478 1.7997576 81 64 55
-0.06455652 0.18649662 1.7932367 79 63 54
-0.062491585 0.18568927 1.7854738 72 58 52
-0.060487904 0.18502182 1.779056 70 57 51
-0.058708847 0.18502182 1.779056 71 59 52
-0.056725882 0.18435912 1.7726839 71 59 54
-0.05475708 0.18370117 1.7663574 65 53 50
-0.052764747 0.1829178 1.758825 55 43 42
-0.051005926 0.1829178 1.758825 65 52 49
-0.049247097 0.1829178 1.758825 69 56 52
-0.047320113 0.18227008 1.7525969 68 56 52
-0.04556752 0.18227008 1.7525969 61 50 46
-0.043814924 0.18227008 1.7525969 58 49 45
-0.0419139 0.1816269 1.7464126 55 45 42
-0.040167492 0.1816269 1.7464126 54 43 41
-0.038259078 0.18086109 1.739049 63 52 50
-0.036520027 0.18086109 1.739049 65 55 53
-0.0346592 0.18022783 1.7329599 66 55 51
-0.03292624 0.18022783 1.7329599 65 54 48
-0.03108444 0.17959899 1.7269133 63 53 46
-0.029357526 0.17959899 1.7269133 63 53 47
-0.027515406 0.17885014 1.7197129 64 53 48
-0.025795693 0.17885014 1.7197129 67 55 50
-0.02407598 0.17885014 1.7197129 70 57 53
-0.022356268 0.17885014 1.7197129 68 56 52
-0.020636555 0.17885014 1.7197129 68 55 51
-0.018916842 0.17885014 1.7197129 68 55 51
-0.017197128 0.17885014 1.7197129 69 56 52
-0.015423823 0.17823085 1.7137581 67 55 50
-0.013710065 0.17823085 1.7137581 68 54 50
-0.0119963065 0.17823085 1.7137581 69 55 52
-0.010282549 0.17823085 1.7137581 73 59 55
-0.008533333 0.17749333 1.7066667 69 55 51
-0.0068032076 0.1768834 1.7008018 64 52 47
-0.0051024053 0.1768834 1.7008018 64 52 46
-0.0034016038 0.1768834 1.7008018 63 52 48
-0.0017008019 0.1768834 1.7008018 67 55 50
0.0 0.1768834 1.7008018 68 55 50
0.0017008019 0.1768834 1.7008018 67 55 51
0.0034016038 0.1768834 1.7008018 67 53 50
0.0051024053 0.1768834 1.7008018 65 54 49
0.006775268 0.17615697 1.693817 65 53 49
0.008469084 0.17615697 1.693817 66 53 50
0.010162902 0.17615697 1.693817 63 51 47
0.011856719 0.17615697 1.693817 60 49 46
0.013550536 0.17615697 1.693817 59 48 44
0.015244354 0.17615697 1.693817 59 49 44
0.016938169 0.17615697 1.693817 62 50 46
0.018631987 0.17615697 1.693817 60 50 46
0.020325804 0.17615697 1.693817 58 47 45
0.021944521 0.17555617 1.68804 55 44 43
0.02363256 0.17555617 1.68804 53 43 40
0.025407255 0.17615697 1.693817 56 45 43
0.02700864 0.17555617 1.68804 56 45 43
0.02869668 0.17555617 1.68804 54 44 42
0.03038472 0.17555617 1.68804 55 43 41
0.03207276 0.17555617 1.68804 54 44 42
0.0337608 0.17555617 1.68804 55 45 42
0.03544884 0.17555617 1.68804 57 46 42
0.03713688 0.17555617 1.68804 56 45 42
0.03882492 0.17555617 1.68804 57 46 42
0.04034783 0.17484058 1.6811595 54 43 41
0.04202899 0.17484058 1.6811595 56 46 44
0.043710146 0.17484058 1.6811595 54 44 42
0.045391306 0.17484058 1.6811595 54 44 42
0.047426876 0.17615697 1.693817 55 43 42
0.049120694 0.17615697 1.693817 56 44 43
0.0506412 0.17555617 1.68804 58 45 45
0.05232924 0.17555617 1.68804 58 46 45
0.054202143 0.17615697 1.693817 57 45 44
0.05589596 0.17615697 1.693817 57 45 43
0.05758978 0.17615697 1.693817 59 46 44
0.059283596 0.17615697 1.693817 59 46 44
0.060977414 0.17615697 1.693817 61 47 46
0.06267123 0.17615697 1.693817 61 47 44
0.06463047 0.1768834 1.7008018 69 55 50
0.06633127 0.1768834 1.7008018 72 57 49
0.06803207 0.1768834 1.7008018 75 59 49
0.06973288 0.1768834 1.7008018 80 62 57
0.07143368 0.1768834 1.7008018 93 70 65
0.073134474 0.1768834 1.7008018 102 77 71
0.07509334 0.17749333 1.7066667 106 79 70
0.0768 0.17749333 1.7066667 107 79 67
0.07850667 0.17749333 1.7066667 108 80 67
0.08021333 0.17749333 1.7066667 108 80 68
0.08226039 0.17823085 1.7137581 104 75 63
0.083974145 0.17823085 1.7137581 100 72 60
0.085687906 0.17823085 1.7137581 89 65 51
0.08770535 0.17885014 1.7197129 84 60 49
0.08942507 0.17885014 1.7197129 82 58 47
0.091526404 0.17959899 1.7269133 83 58 49
0.09325332 0.17959899 1.7269133 84 60 52
0.09531279 0.18022783 1.7329599 86 63 56
0.09704576 0.18022783 1.7329599 88 65 57
0.09877871 0.18022783 1.7329599 83 59 50
0.100864835 0.18086109 1.739049 83 58 49
0.10260389 0.18086109 1.739049 86 60 50
0.10397759 0.18022783 1.7329599 91 64 56
0.104539245 0.17823085 1.7137581 95 68 62
0.11158497 0.18717478 1.7997576 87 60 55
0.13090177 0.2160918 2.0778058 65 52 55
-0.100863196 0.24160254 2.3456557 100 87 80
-0.08900117 0.22358832 2.1707604 83 64 56
-0.08113662 0.20892678 2.0284154 81 63 54
-0.073504955 0.19412847 1.8847424 81 62 53
-0.068640396 0.18605159 1.8063262 81 62 54
-0.06634976 0.18470338 1.7932367 80 63 54
-0.06427705 0.18390381 1.7854738 76 60 53
-0.06226696 0.18324277 1.779056 70 58 52
-0.060487904 0.18324277 1.779056 69 57 51
-0.058708847 0.18324277 1.779056 71 59 53
-0.05652344 0.18193482 1.7663574 66 56 52
-0.054523576 0.18115896 1.758825 58 47 44
-0.052764747 0.18115896 1.758825 59 46 45
-0.051005926 0.18115896 1.758825 69 55 51
-0.049072713 0.18051746 1.7525969 68 56 50
-0.047320113 0.18051746 1.7525969 64 54 48
-0.04556752 0.18051746 1.7525969 60 51 46
-0.043660317 0.17988051 1.7464126 59 48 45
-0.0419139 0.17988051 1.7464126 54 44 40
-0.039998125 0.17912205 1.739049 55 44 42
-0.038259078 0.17912205 1.739049 63 52 50
-0.03639216 0.17849487 1.7329599 64 54 52
-0.0346592 0.17849487 1.7329599 62 51 48
-0.03281135 0.17787208 1.7269133 62 51 47
-0.03108444 0.17787208 1.7269133 62 51 47
-0.029357526 0.17787208 1.7269133 64 53 48
-0.027515406 0.17713042 1.7197129 67 54 50
-0.025795693 0.17713042 1.7197129 69 56 51
-0.02407598 0.17713042 1.7197129 68 56 50
-0.022356268 0.17713042 1.7197129 69 55 50
-0.020636555 0.17713042 1.7197129 67 54 49
-0.018916842 0.17713042 1.7197129 68 56 51
-0.017137581 0.17651708 1.7137581 69 55 51
-0.015423823 0.17651708 1.7137581 68 54 50
-0.013710065 0.17651708 1.7137581 70 56 51
-0.0119963065 0.17651708 1.7137581 71 58 54
