ply
format ascii 1.0
element vertex 1116
property float32 x
property float32 y
property float32 z
property uchar red
property uchar green
property uchar blue
element face 0
property list uint8 int32 vertex_indices
end_header
0.12058376 0.06479128 1.7997576 102 63 50
0.1232801 0.06526594 1.8129426 137 89 69
0.12463651 0.06502774 1.8063262 120 79 59
0.12746628 0.06555408 1.8209468 94 54 36
0.1440175 0.073022954 2.0284154 137 92 59
-0.11538829 0.072117686 2.0605052 96 64 43
-0.10445638 0.06647225 1.899207 61 42 34
-0.101776086 0.06596598 1.8847424 57 42 38
-0.09906143 0.06541793 1.8690836 57 42 37
-0.09682669 0.065171815 1.8620517 49 36 30
-0.09496464 0.065171815 1.8620517 60 44 37
-0.09310258 0.065171815 1.8620517 66 43 27
-0.09089855 0.06492753 1.8550725 102 75 54
-0.088710986 0.06468509 1.8481455 108 75 57
-0.08686284 0.06468509 1.8481455 92 63 41
-0.08501469 0.06468509 1.8481455 73 51 36
-0.08285714 0.064444445 1.8412699 65 45 29
-0.0807156 0.06420559 1.8344454 65 48 42
-0.07858986 0.06396849 1.8276712 59 43 40
-0.07647977 0.06373314 1.8209468 57 42 38
-0.07465882 0.06373314 1.8209468 54 41 37
-0.07251771 0.06345299 1.8129426 53 39 35
-0.070704766 0.06345299 1.8129426 52 37 35
-0.06889182 0.06345299 1.8129426 55 38 30
-0.06707888 0.06345299 1.8129426 81 52 37
-0.06502774 0.06322142 1.8063262 108 70 50
-0.062991515 0.062991515 1.7997576 124 79 59
-0.061191756 0.062991515 1.7997576 117 75 57
-0.059392 0.062991515 1.7997576 95 59 43
-0.057802435 0.06322142 1.8063262 83 52 37
-0.055792484 0.062991515 1.7997576 93 57 44
-0.05399273 0.062991515 1.7997576 86 55 43
-0.05219297 0.062991515 1.7997576 73 44 34
-0.050393213 0.062991515 1.7997576 79 53 44
-0.048593458 0.062991515 1.7997576 72 46 39
-0.046255454 0.06226696 1.779056 76 50 44
-0.044476397 0.06226696 1.779056 79 54 43
-0.04269734 0.06226696 1.779056 80 52 39
-0.04077173 0.062043935 1.7726839 83 52 38
-0.03869415 0.061558872 1.758825 113 76 46
-0.036935326 0.061558872 1.758825 166 114 80
-0.03505194 0.06134089 1.7525969 175 120 85
-0.033299338 0.06134089 1.7525969 181 124 86
-0.03154674 0.06134089 1.7525969 188 128 90
-0.029689014 0.061124444 1.7464126 193 131 94
-0.027727358 0.060653593 1.7329599 198 134 95
-0.025994398 0.060653593 1.7329599 199 135 95
-0.024176786 0.060441967 1.7269133 198 135 93
-0.022449873 0.060441967 1.7269133 198 135 92
-0.020636555 0.060189947 1.7197129 200 134 92
-0.018916842 0.060189947 1.7197129 198 133 91
-0.017197128 0.060189947 1.7197129 197 130 92
-0.015423823 0.059981532 1.7137581 196 131 93
-0.013710065 0.059981532 1.7137581 196 130 92
-0.011946667 0.059733335 1.7066667 197 130 92
-0.01024 0.059733335 1.7066667 196 128 91
-0.008533333 0.059733335 1.7066667 195 127 90
-0.0068266666 0.059733335 1.7066667 195 127 89
-0.00512 0.059733335 1.7066667 194 125 87
-0.0034133333 0.059733335 1.7066667 191 123 86
-0.0017066667 0.059733335 1.7066667 192 120 82
0.0 0.059528064 1.7008018 190 119 82
0.0017008019 0.059528064 1.7008018 188 114 80
0.0034016038 0.059528064 1.7008018 186 112 78
0.005081451 0.059283596 1.693817 182 109 75
0.006775268 0.059283596 1.693817 179 109 75
0.008469084 0.059283596 1.693817 178 106 73
0.010162902 0.059283596 1.693817 172 104 72
0.011856719 0.059283596 1.693817 170 104 72
0.013606415 0.059528064 1.7008018 169 103 71
0.015244354 0.059283596 1.693817 168 102 68
0.016938169 0.059283596 1.693817 161 101 66
0.018631987 0.059283596 1.693817 157 98 67
0.020325804 0.059283596 1.693817 154 95 68
0.021944521 0.0590814 1.68804 153 94 71
0.02363256 0.0590814 1.68804 150 93 68
0.0253206 0.0590814 1.68804 151 95 69
0.02700864 0.0590814 1.68804 159 102 66
0.02869668 0.0590814 1.68804 164 108 68
0.03038472 0.0590814 1.68804 169 107 68
0.03207276 0.0590814 1.68804 166 105 62
0.0337608 0.0590814 1.68804 155 96 53
0.03544884 0.0590814 1.68804 129 74 45
0.03713688 0.0590814 1.68804 115 59 38
0.03882492 0.0590814 1.68804 124 71 45
0.040512964 0.0590814 1.68804 129 73 45
0.042201 0.0590814 1.68804 133 77 55
0.043889042 0.0590814 1.68804 138 83 58
0.04557708 0.0590814 1.68804 139 85 59
0.04726512 0.0590814 1.68804 139 85 60
0.04895316 0.0590814 1.68804 133 79 55
0.0506412 0.0590814 1.68804 119 64 45
0.05232924 0.0590814 1.68804 108 52 38
0.054202143 0.059283596 1.693817 113 58 45
0.05589596 0.059283596 1.693817 124 73 52
0.05758978 0.059283596 1.693817 142 86 61
0.059283596 0.059283596 1.693817 156 95 69
0.060977414 0.059283596 1.693817 151 94 67
0.06267123 0.059283596 1.693817 140 84 58
0.06463047 0.059528064 1.7008018 140 86 62
0.06633127 0.059528064 1.7008018 147 90 65
0.06803207 0.059528064 1.7008018 153 93 66
0.06973288 0.059528064 1.7008018 156 95 66
0.07143368 0.059528064 1.7008018 158 96 68
0.073134474 0.059528064 1.7008018 163 98 71
0.07483528 0.059528064 1.7008018 164 97 68
0.0768 0.059733335 1.7066667 166 98 68
0.07850667 0.059733335 1.7066667 166 98 69
0.08021333 0.059733335 1.7066667 167 98 67
0.08226039 0.059981532 1.7137581 169 99 68
0.083974145 0.059981532 1.7137581 169 98 68
0.08598564 0.060189947 1.7197129 170 100 72
0.088072576 0.060441967 1.7269133 174 104 75
0.08979949 0.060441967 1.7269133 176 106 78
0.091526404 0.060441967 1.7269133 178 110 81
0.09325332 0.060441967 1.7269133 181 116 88
0.09531279 0.060653593 1.7329599 187 121 93
0.09738674 0.060866714 1.739049 185 119 90
0.099545516 0.061124444 1.7464126 180 114 86
0.10165062 0.06134089 1.7525969 178 111 81
0.104215086 0.06182251 1.7663574 151 98 74
0.10636103 0.062043935 1.7726839 80 47 27
0.108522415 0.06226696 1.779056 58 32 23
0.110301465 0.06226696 1.779056 62 38 28
0.11297391 0.06276329 1.7932367 73 44 35
0.11476715 0.06276329 1.7932367 80 48 38
0.11698425 0.062991515 1.7997576 80 48 37
0.118784 0.062991515 1.7997576 84 50 38
0.120146856 0.06276329 1.7932367 110 68 55
0.1232801 0.06345299 1.8129426 131 85 65
0.123733334 0.06276329 1.7932367 101 60 38
0.1329445 0.06647225 1.899207 107 69 47
-0.11587069 0.07035006 2.0691195 98 65 37
-0.104858756 0.06482178 1.9065229 70 49 41
-0.10216514 0.064326204 1.891947 60 45 42
-0.09951239 0.06383814 1.8775923 64 44 42
-0.097192355 0.06354884 1.8690836 50 34 30
-0.095323265 0.06354884 1.8690836 71 53 48
-0.09310258 0.06330976 1.8620517 58 40 25
-0.09124053 0.06330976 1.8620517 79 53 30
-0.088710986 0.062836945 1.8481455 118 81 59
-0.08686284 0.062836945 1.8481455 117 79 55
-0.08501469 0.062836945 1.8481455 97 66 44
-0.08285714 0.062603176 1.8412699 77 50 34
-0.0807156 0.062371142 1.8344454 62 44 33
-0.07858986 0.06214082 1.8276712 56 41 35
-0.07647977 0.061912194 1.8209468 57 42 36
-0.07465882 0.061912194 1.8209468 56 42 36
-0.07251771 0.06164005 1.8129426 53 39 35
-0.070704766 0.06164005 1.8129426 52 39 37
-0.06889182 0.06164005 1.8129426 51 39 33
-0.06707888 0.06164005 1.8129426 69 43 30
-0.06502774 0.061415087 1.8063262 111 70 53
-0.062991515 0.061191756 1.7997576 126 80 55
-0.061191756 0.061191756 1.7997576 134 85 67
-0.059392 0.061191756 1.7997576 112 74 59
-0.057802435 0.061415087 1.8063262 89 55 43
-0.055792484 0.061191756 1.7997576 100 63 44
-0.053797103 0.060970046 1.7932367 92 60 41
-0.05219297 0.061191756 1.7997576 75 48 31
-0.050393213 0.061191756 1.7997576 76 50 40
-0.048417393 0.060970046 1.7932367 75 50 44
-0.046422318 0.06070611 1.7854738 70 45 39
-0.044636846 0.06070611 1.7854738 79 53 45
-0.04269734 0.060487904 1.779056 80 52 41
-0.04077173 0.060271252 1.7726839 84 55 40
-0.03869415 0.059800047 1.758825 107 70 43
-0.036935326 0.059800047 1.758825 160 110 77
-0.03505194 0.059588294 1.7525969 177 121 85
-0.033299338 0.059588294 1.7525969 180 123 86
-0.03154674 0.059588294 1.7525969 184 127 88
-0.029689014 0.059378028 1.7464126 189 129 91
-0.027727358 0.058920637 1.7329599 195 134 94
-0.025994398 0.058920637 1.7329599 196 134 93
-0.024176786 0.058715053 1.7269133 195 133 93
-0.022449873 0.058715053 1.7269133 197 132 92
-0.020636555 0.058470238 1.7197129 197 132 92
-0.018916842 0.058470238 1.7197129 197 132 93
-0.017197128 0.058470238 1.7197129 197 131 92
-0.015477416 0.058470238 1.7197129 197 130 92
-0.013710065 0.058267776 1.7137581 197 130 92
-0.011946667 0.058026668 1.7066667 196 128 92
-0.01024 0.058026668 1.7066667 196 128 91
-0.008533333 0.058026668 1.7066667 197 127 91
-0.0068266666 0.058026668 1.7066667 197 126 89
-0.00512 0.058026668 1.7066667 193 122 88
-0.0034133333 0.058026668 1.7066667 193 122 87
-0.0017066667 0.058026668 1.7066667 193 119 85
0.0 0.057827264 1.7008018 189 117 82
0.0017008019 0.057827264 1.7008018 187 113 79
0.0034016038 0.057827264 1.7008018 184 112 76
0.005081451 0.05758978 1.693817 181 110 76
0.006775268 0.05758978 1.693817 177 108 75
0.008469084 0.05758978 1.693817 173 106 72
0.010162902 0.05758978 1.693817 171 103 71
0.011856719 0.05758978 1.693817 168 103 70
0.013606415 0.057827264 1.7008018 168 102 70
0.015244354 0.05758978 1.693817 165 101 69
0.016938169 0.05758978 1.693817 162 99 69
0.018631987 0.05758978 1.693817 157 96 68
0.020325804 0.05758978 1.693817 156 95 69
0.022019621 0.05758978 1.693817 154 94 69
0.02363256 0.05739336 1.68804 152 94 66
0.0253206 0.05739336 1.68804 154 98 69
0.02700864 0.05739336 1.68804 158 102 71
0.02869668 0.05739336 1.68804 153 99 68
0.03038472 0.05739336 1.68804 153 97 68
0.03207276 0.05739336 1.68804 150 94 59
0.0337608 0.05739336 1.68804 144 88 52
0.03544884 0.05739336 1.68804 134 79 46
0.03713688 0.05739336 1.68804 133 78 45
0.03882492 0.05739336 1.68804 135 81 47
0.040512964 0.05739336 1.68804 135 82 51
0.042201 0.05739336 1.68804 134 79 53
0.043889042 0.05739336 1.68804 133 78 52
0.04557708 0.05739336 1.68804 131 77 51
0.04726512 0.05739336 1.68804 136 82 56
0.04895316 0.05739336 1.68804 133 79 53
0.0506412 0.05739336 1.68804 134 79 54
0.05232924 0.05739336 1.68804 130 75 56
0.054202143 0.05758978 1.693817 125 71 51
0.05589596 0.05758978 1.693817 133 78 55
0.05758978 0.05758978 1.693817 139 84 61
0.059283596 0.05758978 1.693817 145 88 67
0.060977414 0.05758978 1.693817 145 87 65
0.06267123 0.05758978 1.693817 139 85 60
0.06463047 0.057827264 1.7008018 143 88 64
0.06633127 0.057827264 1.7008018 146 90 66
0.06803207 0.057827264 1.7008018 150 92 68
0.06973288 0.057827264 1.7008018 155 95 68
0.07143368 0.057827264 1.7008018 158 95 69
0.073134474 0.057827264 1.7008018 162 97 69
0.07483528 0.057827264 1.7008018 164 97 68
0.0768 0.058026668 1.7066667 164 96 67
0.07850667 0.058026668 1.7066667 165 97 68
0.08021333 0.058026668 1.7066667 164 96 68
0.08226039 0.058267776 1.7137581 167 97 69
0.083974145 0.058267776 1.7137581 167 98 69
0.08598564 0.058470238 1.7197129 170 98 71
0.088072576 0.058715053 1.7269133 173 102 73
0.08979949 0.058715053 1.7269133 176 105 77
0.091526404 0.058715053 1.7269133 179 108 81
0.09325332 0.058715053 1.7269133 180 112 83
0.09531279 0.058920637 1.7329599 184 116 86
0.09738674 0.059127662 1.739049 183 115 87
0.099545516 0.059378028 1.7464126 180 113 85
0.10165062 0.059588294 1.7525969 177 109 82
0.104215086 0.060056154 1.7663574 135 88 66
0.10636103 0.060271252 1.7726839 82 52 35
0.108522415 0.060487904 1.779056 58 35 26
0.110301465 0.060487904 1.779056 61 39 29
0.11297391 0.060970046 1.7932367 73 45 36
0.11476715 0.060970046 1.7932367 81 49 38
0.11698425 0.061191756 1.7997576 84 50 38
0.118784 0.061191756 1.7997576 90 56 41
0.12058376 0.061191756 1.7997576 112 73 56
0.122830175 0.061415087 1.8063262 112 72 51
0.12610932 0.06214082 1.8276712 100 61 45
0.14593653 0.07088346 2.0848076 134 89 57
-0.116357125 0.06856759 2.0778058 101 66 39
-0.10526425 0.06315855 1.9138954 82 59 48
-0.102557175 0.06267383 1.899207 61 42 40
-0.09951239 0.06196055 1.8775923 66 45 44
-0.097192355 0.061679758 1.8690836 54 39 35
-0.095323265 0.061679758 1.8690836 59 43 39
-0.09310258 0.06144771 1.8620517 67 48 38
-0.09124053 0.06144771 1.8620517 73 47 29
-0.088710986 0.0609888 1.8481455 84 54 30
-0.08686284 0.0609888 1.8481455 117 81 61
-0.08501469 0.0609888 1.8481455 118 77 54
-0.08285714 0.060761906 1.8412699 103 70 43
-0.0807156 0.060536698 1.8344454 74 52 32
-0.07858986 0.06031315 1.8276712 61 46 34
-0.07647977 0.060091242 1.8209468 59 43 34
-0.07465882 0.060091242 1.8209468 59 43 35
-0.07251771 0.059827108 1.8129426 55 39 34
-0.070704766 0.059827108 1.8129426 54 38 38
-0.06889182 0.059827108 1.8129426 49 36 34
-0.06707888 0.059827108 1.8129426 54 36 27
-0.06526594 0.059827108 1.8129426 93 61 47
-0.06322142 0.059608765 1.8063262 117 77 52
-0.061191756 0.059392 1.7997576 136 86 66
-0.059392 0.059392 1.7997576 125 81 60
-0.057802435 0.059608765 1.8063262 96 58 36
-0.05599611 0.059608765 1.8063262 102 64 47
-0.05399273 0.059392 1.7997576 100 65 49
-0.05219297 0.059392 1.7997576 83 54 39
-0.050577134 0.059608765 1.8063262 75 51 42
-0.048593458 0.059392 1.7997576 77 52 46
-0.046624154 0.05917681 1.7932367 67 42 36
-0.044636846 0.058920637 1.7854738 79 51 44
-0.04269734 0.058708847 1.779056 79 52 42
-0.040918287 0.058708847 1.779056 84 54 41
-0.03869415 0.058041222 1.758825 106 71 48
-0.036935326 0.058041222 1.758825 152 103 72
-0.03505194 0.057835698 1.7525969 177 122 85
-0.033299338 0.057835698 1.7525969 178 123 86
-0.03154674 0.057835698 1.7525969 184 126 88
-0.029689014 0.05763162 1.7464126 189 128 91
-0.027727358 0.057187676 1.7329599 195 132 93
-0.025994398 0.057187676 1.7329599 194 133 92
-0.024176786 0.05698814 1.7269133 195 132 92
-0.022449873 0.05698814 1.7269133 195 132 92
-0.020636555 0.05675052 1.7197129 196 132 92
-0.018916842 0.05675052 1.7197129 197 132 92
-0.017197128 0.05675052 1.7197129 197 130 92
-0.015477416 0.05675052 1.7197129 196 130 93
-0.013710065 0.056554016 1.7137581 197 130 91
-0.011946667 0.05632 1.7066667 197 129 92
-0.01024 0.05632 1.7066667 195 127 90
-0.008533333 0.05632 1.7066667 197 127 91
-0.0068266666 0.05632 1.7066667 195 124 89
-0.00512 0.05632 1.7066667 193 122 88
-0.0034133333 0.05632 1.7066667 193 121 87
-0.0017066667 0.05632 1.7066667 189 117 83
0.0 0.05632 1.7066667 187 115 81
0.0017066667 0.05632 1.7066667 186 112 78
0.0034133333 0.05632 1.7066667 186 111 75
0.0051024053 0.05612646 1.7008018 181 108 75
0.0068032076 0.05612646 1.7008018 176 107 74
0.008504009 0.05612646 1.7008018 175 104 72
0.010204811 0.05612646 1.7008018 171 103 71
0.011905613 0.05612646 1.7008018 167 102 70
0.013606415 0.05612646 1.7008018 165 101 69
0.015244354 0.05589596 1.693817 163 99 68
0.016938169 0.05589596 1.693817 162 99 68
0.018631987 0.05589596 1.693817 158 97 69
0.020325804 0.05589596 1.693817 158 97 69
0.022019621 0.05589596 1.693817 157 96 70
0.02363256 0.055705324 1.68804 155 97 70
0.0253206 0.055705324 1.68804 155 100 71
0.02700864 0.055705324 1.68804 159 104 73
0.02869668 0.055705324 1.68804 155 100 71
0.03038472 0.055705324 1.68804 149 94 68
0.03207276 0.055705324 1.68804 143 89 60
0.0337608 0.055705324 1.68804 136 84 50
0.03544884 0.055705324 1.68804 139 85 49
0.03713688 0.055705324 1.68804 141 87 52
0.03882492 0.055705324 1.68804 144 90 55
0.040512964 0.055705324 1.68804 144 89 60
0.042201 0.055705324 1.68804 139 85 60
0.043889042 0.055705324 1.68804 135 81 56
0.04557708 0.055705324 1.68804 134 80 55
0.04726512 0.055705324 1.68804 138 83 59
0.04895316 0.055705324 1.68804 143 87 61
0.0506412 0.055705324 1.68804 141 86 58
0.05232924 0.055705324 1.68804 141 85 59
0.054202143 0.05589596 1.693817 137 82 57
0.05589596 0.05589596 1.693817 135 80 60
0.05758978 0.05589596 1.693817 136 82 60
0.059283596 0.05589596 1.693817 142 86 64
0.060977414 0.05589596 1.693817 142 86 64
0.06267123 0.05589596 1.693817 144 88 65
0.06463047 0.05612646 1.7008018 146 90 65
0.06633127 0.05612646 1.7008018 147 90 66
0.06803207 0.05612646 1.7008018 150 92 66
0.06973288 0.05612646 1.7008018 153 94 67
0.07143368 0.05612646 1.7008018 157 95 70
0.073134474 0.05612646 1.7008018 160 97 70
0.07509334 0.05632 1.7066667 164 98 68
0.0768 0.05632 1.7066667 164 97 69
0.07850667 0.05632 1.7066667 163 96 68
0.08021333 0.05632 1.7066667 164 95 68
0.08226039 0.056554016 1.7137581 165 96 68
0.083974145 0.056554016 1.7137581 165 97 69
0.08598564 0.05675052 1.7197129 167 98 69
0.088072576 0.05698814 1.7269133 170 100 72
0.08979949 0.05698814 1.7269133 170 102 76
0.091526404 0.05698814 1.7269133 173 106 81
0.09325332 0.05698814 1.7269133 178 111 83
0.09531279 0.057187676 1.7329599 182 114 85
0.09738674 0.057388615 1.739049 182 114 85
0.099545516 0.05763162 1.7464126 180 112 85
0.10201185 0.058041222 1.758825 173 109 82
0.104215086 0.058289796 1.7663574 120 77 54
0.10636103 0.058498565 1.7726839 79 49 32
0.108522415 0.058708847 1.779056 60 36 28
0.11069938 0.058920637 1.7854738 60 38 28
0.11297391 0.05917681 1.7932367 77 46 37
0.115184486 0.059392 1.7997576 80 50 37
0.11698425 0.059392 1.7997576 83 51 36
0.11835362 0.05917681 1.7932367 97 63 46
0.12102385 0.059608765 1.8063262 114 75 55
0.1232801 0.059827108 1.8129426 98 59 42
0.13360876 0.063899845 1.9363589 111 73 53
-0.12008781 0.068621606 2.1444252 103 69 43
-0.106918044 0.062206864 1.9439645 94 67 55
-0.10138998 0.060082953 1.8775923 56 38 32
-0.09989135 0.060311757 1.8847424 67 49 46
-0.09763481 0.060082953 1.8775923 61 44 38
-0.095323265 0.059810676 1.8690836 59 41 37
-0.09345418 0.059810676 1.8690836 70 47 39
-0.0915851 0.059810676 1.8690836 89 64 52
-0.089378476 0.059585657 1.8620517 75 45 25
-0.087516434 0.059585657 1.8620517 87 57 35
-0.08533333 0.05936232 1.8550725 110 75 54
-0.08316655 0.059140656 1.8481455 117 82 57
-0.08131841 0.059140656 1.8481455 98 69 49
-0.07888115 0.058702253 1.8344454 73 49 36
-0.07676219 0.05848548 1.8276712 63 43 31
-0.07465882 0.058270298 1.8209468 58 43 31
-0.072837874 0.058270298 1.8209468 55 42 33
-0.070704766 0.058014166 1.8129426 56 41 38
-0.068640396 0.057802435 1.8063262 52 39 39
-0.06707888 0.058014166 1.8129426 48 37 34
-0.06555408 0.058270298 1.8209468 59 38 29
-0.06345299 0.058014166 1.8129426 95 64 44
-0.061415087 0.057802435 1.8063262 123 83 65
-0.059608765 0.057802435 1.8063262 136 88 68
-0.057802435 0.057802435 1.8063262 107 70 47
-0.05599611 0.057802435 1.8063262 106 68 53
-0.05399273 0.057592243 1.7997576 102 65 52
-0.052003864 0.057383575 1.7932367 89 58 45
-0.050393213 0.057592243 1.7997576 73 47 36
-0.048417393 0.057383575 1.7932367 79 55 47
-0.046624154 0.057383575 1.7932367 64 40 33
-0.044636846 0.05713516 1.7854738 71 47 40
-0.042851374 0.05713516 1.7854738 77 52 44
-0.04077173 0.056725882 1.7726839 82 54 43
-0.038999047 0.056725882 1.7726839 104 68 53
-0.036935326 0.056282397 1.758825 140 97 70
-0.035176497 0.056282397 1.758825 174 121 87
-0.033299338 0.056083098 1.7525969 179 124 90
-0.031435426 0.055885203 1.7464126 181 125 86
-0.029460318 0.055454716 1.7329599 184 126 87
-0.027727358 0.055454716 1.7329599 192 131 91
-0.026085736 0.055649567 1.739049 195 132 92
-0.024346685 0.055649567 1.739049 195 131 91
-0.022528479 0.055454716 1.7329599 195 130 91
-0.020795519 0.055454716 1.7329599 195 130 91
-0.019129539 0.055649567 1.739049 197 130 92
-0.017269133 0.05526123 1.7269133 195 130 91
-0.01554222 0.05526123 1.7269133 196 129 91
-0.013710065 0.05484026 1.7137581 196 129 91
-0.0119963065 0.05484026 1.7137581 197 129 90
-0.010282549 0.05484026 1.7137581 195 127 88
-0.008568791 0.05484026 1.7137581 195 126 90
-0.0068266666 0.054613333 1.7066667 193 123 86
-0.00512 0.054613333 1.7066667 193 122 86
-0.0034016038 0.05442566 1.7008018 192 120 85
-0.0017066667 0.054613333 1.7066667 189 117 83
0.0 0.05442566 1.7008018 188 115 80
0.0017008019 0.05442566 1.7008018 186 112 78
0.0034016038 0.05442566 1.7008018 185 111 76
0.0051024053 0.05442566 1.7008018 180 108 75
0.0068032076 0.05442566 1.7008018 176 106 73
0.008504009 0.05442566 1.7008018 173 105 72
0.010204811 0.05442566 1.7008018 171 103 71
0.011905613 0.05442566 1.7008018 167 101 70
0.013606415 0.05442566 1.7008018 165 100 69
0.015307217 0.05442566 1.7008018 163 99 68
0.0168804 0.05401728 1.68804 159 97 67
0.01856844 0.05401728 1.68804 158 98 68
0.020256482 0.05401728 1.68804 158 97 69
0.021944521 0.05401728 1.68804 156 96 70
0.02363256 0.05401728 1.68804 155 97 71
0.025407255 0.054202143 1.693817 161 103 76
0.02700864 0.05401728 1.68804 162 106 76
0.02869668 0.05401728 1.68804 162 106 78
0.03038472 0.05401728 1.68804 161 105 78
0.03207276 0.05401728 1.68804 156 102 73
0.0337608 0.05401728 1.68804 150 98 69
0.03544884 0.05401728 1.68804 149 96 66
0.03713688 0.05401728 1.68804 152 98 61
0.03882492 0.05401728 1.68804 152 97 63
0.040512964 0.05401728 1.68804 150 96 63
0.042201 0.05401728 1.68804 145 89 61
0.043889042 0.05401728 1.68804 139 84 60
0.04557708 0.05401728 1.68804 135 82 56
0.04726512 0.05401728 1.68804 141 87 63
0.04895316 0.05401728 1.68804 144 89 63
0.0506412 0.05401728 1.68804 145 90 62
0.05232924 0.05401728 1.68804 143 88 61
0.054202143 0.054202143 1.693817 144 89 63
0.05589596 0.054202143 1.693817 142 87 66
0.05758978 0.054202143 1.693817 140 85 62
0.059283596 0.054202143 1.693817 145 87 64
0.060977414 0.054202143 1.693817 144 88 64
0.06267123 0.054202143 1.693817 148 91 67
0.064365044 0.054202143 1.693817 149 91 66
0.06605886 0.054202143 1.693817 149 91 65
0.06803207 0.05442566 1.7008018 149 92 66
0.06973288 0.05442566 1.7008018 154 93 67
0.07143368 0.05442566 1.7008018 155 94 69
0.073134474 0.05442566 1.7008018 160 96 70
0.07509334 0.054613333 1.7066667 161 97 68
0.0768 0.054613333 1.7066667 162 96 68
0.07850667 0.054613333 1.7066667 164 96 69
0.08021333 0.054613333 1.7066667 162 95 69
0.08226039 0.05484026 1.7137581 162 96 69
0.083974145 0.05484026 1.7137581 164 96 70
0.08598564 0.05503081 1.7197129 165 98 67
0.088072576 0.05526123 1.7269133 168 100 71
0.08979949 0.05526123 1.7269133 168 101 75
0.091526404 0.05526123 1.7269133 173 106 79
0.09325332 0.05526123 1.7269133 173 108 81
0.09531279 0.055454716 1.7329599 178 111 83
0.09738674 0.055649567 1.739049 180 112 84
0.099545516 0.055885203 1.7464126 176 109 83
0.10201185 0.056282397 1.758825 171 107 83
0.104215086 0.05652344 1.7663574 113 68 50
0.10636103 0.056725882 1.7726839 80 48 40
0.108522415 0.05692979 1.779056 62 37 29
0.11069938 0.05713516 1.7854738 61 36 27
0.11297391 0.057383575 1.7932367 77 47 37
0.115184486 0.057592243 1.7997576 81 51 38
0.11698425 0.057592243 1.7997576 83 52 36
0.11835362 0.057383575 1.7932367 96 63 46
0.12058376 0.057592243 1.7997576 106 68 48
0.12567389 0.059140656 1.8481455 93 55 39
0.147327 0.06832557 2.135174 138 91 62
-0.13073713 0.07237233 2.3345914 106 71 42
-0.10733964 0.060500525 1.9516299 105 74 57
-0.101776086 0.058427013 1.8847424 64 43 36
-0.10027319 0.058650356 1.891947 63 44 41
-0.09763481 0.05820536 1.8775923 63 43 35
-0.09575721 0.05820536 1.8775923 82 60 54
-0.09345418 0.057941593 1.8690836 64 38 27
-0.0915851 0.057941593 1.8690836 79 53 40
-0.08971602 0.057941593 1.8690836 97 69 52
-0.08718841 0.057507247 1.8550725 78 48 25
-0.08565438 0.057723604 1.8620517 89 61 39
-0.08285714 0.057079364 1.8412699 93 59 34
-0.08101588 0.057079364 1.8412699 106 75 57
-0.07917461 0.057079364 1.8412699 96 67 54
-0.07676219 0.056657806 1.8276712 75 52 38
-0.07465882 0.056449354 1.8209468 59 43 28
-0.07251771 0.056201223 1.8129426 54 42 31
-0.070704766 0.056201223 1.8129426 54 37 32
-0.06889182 0.056201223 1.8129426 51 37 38
-0.06707888 0.056201223 1.8129426 45 35 36
-0.06555408 0.056449354 1.8209468 48 34 31
-0.06345299 0.056201223 1.8129426 48 29 19
-0.061415087 0.05599611 1.8063262 79 51 43
-0.059608765 0.05599611 1.8063262 108 74 62
-0.057802435 0.05599611 1.8063262 105 72 57
-0.05599611 0.05599611 1.8063262 104 65 50
-0.05399273 0.055792484 1.7997576 108 69 57
-0.05219297 0.055792484 1.7997576 92 60 49
-0.050393213 0.055792484 1.7997576 70 45 36
-0.048593458 0.055792484 1.7997576 72 48 42
-0.046793696 0.055792484 1.7997576 65 45 39
-0.04483092 0.05559034 1.7932367 62 41 35
-0.043037683 0.05559034 1.7932367 69 45 39
-0.040918287 0.055150732 1.779056 82 58 47
-0.039139234 0.055150732 1.779056 97 62 49
-0.037093505 0.05475708 1.7663574 134 93 68
-0.035327148 0.05475708 1.7663574 174 119 86
-0.033417676 0.054523576 1.758825 180 123 90
-0.03154674 0.0543305 1.7525969 182 124 85
-0.029689014 0.05413879 1.7464126 182 126 86
-0.027727358 0.053721756 1.7329599 190 128 89
-0.026085736 0.05391052 1.739049 193 130 91
-0.024346685 0.05391052 1.739049 194 130 91
-0.022528479 0.053721756 1.7329599 194 130 91
-0.020795519 0.053721756 1.7329599 194 129 90
-0.01906256 0.053721756 1.7329599 195 130 91
-0.017269133 0.053534314 1.7269133 194 128 90
-0.01554222 0.053534314 1.7269133 196 129 91
-0.013710065 0.053126503 1.7137581 194 128 90
-0.0119963065 0.053126503 1.7137581 194 128 89
-0.010282549 0.053126503 1.7137581 193 126 87
-0.008568791 0.053126503 1.7137581 193 124 88
-0.0068266666 0.05290667 1.7066667 191 122 86
-0.0051024053 0.052724857 1.7008018 191 120 86
-0.0034133333 0.05290667 1.7066667 190 118 85
-0.0017066667 0.05290667 1.7066667 189 117 83
0.0 0.052724857 1.7008018 187 114 81
0.0017008019 0.052724857 1.7008018 184 111 78
0.0034016038 0.052724857 1.7008018 181 110 76
0.0051024053 0.052724857 1.7008018 179 109 76
0.006775268 0.052508328 1.693817 176 105 74
0.008469084 0.052508328 1.693817 175 104 72
0.010162902 0.052508328 1.693817 171 103 71
0.011905613 0.052724857 1.7008018 168 101 70
0.013606415 0.052724857 1.7008018 166 101 69
0.015244354 0.052508328 1.693817 163 99 68
0.016938169 0.052508328 1.693817 159 97 67
0.01856844 0.05232924 1.68804 160 98 70
0.020256482 0.05232924 1.68804 159 98 71
0.021944521 0.05232924 1.68804 159 98 72
0.02363256 0.05232924 1.68804 158 99 72
0.0253206 0.05232924 1.68804 159 103 76
0.02700864 0.05232924 1.68804 164 107 79
0.02869668 0.05232924 1.68804 166 108 82
0.03038472 0.05232924 1.68804 165 109 81
0.03207276 0.05232924 1.68804 168 111 81
0.0337608 0.05232924 1.68804 166 108 80
0.03544884 0.05232924 1.68804 163 108 80
0.03713688 0.05232924 1.68804 167 109 79
0.03882492 0.05232924 1.68804 165 107 78
0.040512964 0.05232924 1.68804 158 102 73
0.042201 0.05232924 1.68804 151 94 62
0.043889042 0.05232924 1.68804 140 86 58
0.04557708 0.05232924 1.68804 135 82 55
0.04726512 0.05232924 1.68804 144 90 64
0.04895316 0.05232924 1.68804 148 92 64
0.0506412 0.05232924 1.68804 150 93 64
0.052508328 0.052508328 1.693817 150 92 65
0.054202143 0.052508328 1.693817 149 93 68
0.05589596 0.052508328 1.693817 149 92 69
0.05758978 0.052508328 1.693817 147 89 66
0.059283596 0.052508328 1.693817 147 89 65
0.060977414 0.052508328 1.693817 147 90 66
0.06267123 0.052508328 1.693817 147 91 65
0.064365044 0.052508328 1.693817 149 91 65
0.06633127 0.052724857 1.7008018 151 92 65
0.06803207 0.052724857 1.7008018 152 92 66
0.06973288 0.052724857 1.7008018 154 93 68
0.07143368 0.052724857 1.7008018 155 94 69
0.07338666 0.05290667 1.7066667 157 94 69
0.07509334 0.05290667 1.7066667 159 96 68
0.0768 0.05290667 1.7066667 160 96 69
0.07850667 0.05290667 1.7066667 161 95 69
0.08021333 0.05290667 1.7066667 161 95 69
0.08226039 0.053126503 1.7137581 163 96 70
0.08426593 0.0533111 1.7197129 163 96 69
0.086345665 0.053534314 1.7269133 162 98 67
0.088072576 0.053534314 1.7269133 164 99 69
0.08979949 0.053534314 1.7269133 168 100 73
0.091526404 0.053534314 1.7269133 172 104 77
0.093579836 0.053721756 1.7329599 174 107 80
0.09564769 0.05391052 1.739049 173 109 82
0.09738674 0.05391052 1.739049 176 110 83
0.099545516 0.05413879 1.7464126 176 109 83
0.10201185 0.054523576 1.758825 161 102 80
0.104588345 0.054953203 1.7726839 111 65 51
0.10674336 0.055150732 1.779056 81 48 42
0.108913906 0.05534969 1.7854738 63 39 30
0.11118068 0.05559034 1.7932367 60 34 26
0.11338473 0.055792484 1.7997576 75 46 35
0.11476715 0.05559034 1.7932367 82 53 40
0.11698425 0.055792484 1.7997576 85 53 40
0.118784 0.055792484 1.7997576 89 58 44
0.12058376 0.055792484 1.7997576 90 55 41
0.12767628 0.05820536 1.8775923 111 74 52
0.15593791 0.07005906 2.2599697 156 98 59
-0.11202195 0.061102882 2.0367627 112 77 57
-0.102557175 0.05697621 1.899207 75 51 41
-0.09951239 0.05632777 1.8775923 65 51 45
-0.09763481 0.05632777 1.8775923 61 40 30
-0.09575721 0.05632777 1.8775923 116 85 71
-0.09387962 0.05632777 1.8775923 91 60 35
-0.09200202 0.05632777 1.8775923 74 48 26
-0.08971602 0.05607251 1.8690836 86 58 41
-0.087516434 0.055861555 1.8620517 95 67 50
-0.08565438 0.055861555 1.8620517 85 56 38
-0.08316655 0.055444367 1.8481455 81 51 31
-0.08101588 0.055238094 1.8412699 94 64 47
-0.07917461 0.055238094 1.8412699 96 68 55
-0.07676219 0.054830134 1.8276712 83 58 44
-0.07465882 0.054628402 1.8209468 69 50 40
-0.07251771 0.054388277 1.8129426 59 46 38
-0.07101692 0.054628402 1.8209468 53 41 38
-0.06889182 0.054388277 1.8129426 53 40 40
-0.06707888 0.054388277 1.8129426 48 36 37
-0.06555408 0.054628402 1.8209468 52 36 35
-0.06373314 0.054628402 1.8209468 46 36 33
-0.06164005 0.054388277 1.8129426 48 34 32
-0.059608765 0.054189786 1.8063262 55 36 28
-0.057802435 0.054189786 1.8063262 67 44 30
-0.05599611 0.054189786 1.8063262 69 46 36
-0.054189786 0.054189786 1.8063262 75 53 45
-0.052383456 0.054189786 1.8063262 72 51 46
-0.050393213 0.05399273 1.7997576 60 42 37
-0.048770804 0.054189786 1.8063262 54 38 33
-0.046793696 0.05399273 1.7997576 52 39 34
-0.044993937 0.05399273 1.7997576 52 39 34
-0.043037683 0.053797103 1.7932367 55 38 35
-0.041244447 0.053797103 1.7932367 77 53 44
-0.039139234 0.05337168 1.779056 92 60 50
-0.03722636 0.053180516 1.7726839 124 89 66
-0.035327148 0.052990723 1.7663574 167 114 83
-0.033417676 0.052764747 1.758825 180 122 89
-0.03154674 0.052577905 1.7525969 183 124 89
-0.029689014 0.05239238 1.7464126 184 125 88
-0.027824784 0.052171472 1.739049 190 127 90
-0.026085736 0.052171472 1.739049 190 129 91
-0.024346685 0.052171472 1.739049 192 129 91
-0.022528479 0.051988795 1.7329599 192 129 90
-0.020795519 0.051988795 1.7329599 196 129 91
-0.01906256 0.051988795 1.7329599 194 128 90
-0.017269133 0.0518074 1.7269133 195 127 91
-0.015477416 0.051591385 1.7197129 196 127 92
-0.013757703 0.051591385 1.7197129 195 127 90
-0.0119963065 0.051412743 1.7137581 195 127 90
-0.010282549 0.051412743 1.7137581 194 126 88
-0.008568791 0.051412743 1.7137581 193 122 87
-0.0068266666 0.051200002 1.7066667 190 121 84
-0.00512 0.051200002 1.7066667 190 121 83
-0.0034133333 0.051200002 1.7066667 188 118 82
-0.0017008019 0.051024057 1.7008018 188 117 80
0.0 0.051024057 1.7008018 185 114 78
0.0017008019 0.051024057 1.7008018 181 110 76
0.0034016038 0.051024057 1.7008018 180 109 76
0.005081451 0.05081451 1.693817 180 107 74
0.006775268 0.05081451 1.693817 175 105 73
0.008469084 0.05081451 1.693817 174 103 74
0.010162902 0.05081451 1.693817 170 102 70
0.011856719 0.05081451 1.693817 167 101 68
0.013550536 0.05081451 1.693817 166 101 69
0.015244354 0.05081451 1.693817 162 99 67
0.016938169 0.05081451 1.693817 158 98 69
0.018631987 0.05081451 1.693817 160 98 72
0.020325804 0.05081451 1.693817 161 99 73
0.021944521 0.0506412 1.68804 158 100 74
0.02363256 0.0506412 1.68804 158 101 72
0.0253206 0.0506412 1.68804 161 105 76
0.02700864 0.0506412 1.68804 164 109 81
0.02869668 0.0506412 1.68804 166 111 83
0.03038472 0.0506412 1.68804 168 114 85
0.03207276 0.0506412 1.68804 167 114 83
0.0337608 0.0506412 1.68804 167 113 83
0.03544884 0.0506412 1.68804 170 113 83
0.03713688 0.0506412 1.68804 173 115 85
0.03882492 0.0506412 1.68804 174 114 88
0.040512964 0.0506412 1.68804 171 110 84
0.042201 0.0506412 1.68804 161 101 71
0.043889042 0.0506412 1.68804 145 89 61
0.04557708 0.0506412 1.68804 138 82 57
0.04726512 0.0506412 1.68804 145 90 63
0.04895316 0.0506412 1.68804 153 95 66
0.0506412 0.0506412 1.68804 150 94 63
0.052508328 0.05081451 1.693817 152 94 66
0.054202143 0.05081451 1.693817 153 96 70
0.05589596 0.05081451 1.693817 153 95 67
0.05758978 0.05081451 1.693817 150 93 67
0.059283596 0.05081451 1.693817 147 92 65
0.060977414 0.05081451 1.693817 148 91 66
0.06267123 0.05081451 1.693817 147 90 65
0.064365044 0.05081451 1.693817 150 92 66
0.06633127 0.051024057 1.7008018 151 92 66
0.06803207 0.051024057 1.7008018 152 93 66
0.06973288 0.051024057 1.7008018 153 93 68
0.07143368 0.051024057 1.7008018 156 94 69
0.07338666 0.051200002 1.7066667 155 93 68
0.07509334 0.051200002 1.7066667 158 94 68
0.0768 0.051200002 1.7066667 160 95 69
0.07850667 0.051200002 1.7066667 161 96 70
0.08021333 0.051200002 1.7066667 160 94 69
0.08226039 0.051412743 1.7137581 162 94 69
0.08426593 0.051591385 1.7197129 162 94 68
0.086345665 0.0518074 1.7269133 163 98 69
0.088072576 0.0518074 1.7269133 166 98 71
0.08979949 0.0518074 1.7269133 167 100 74
0.091526404 0.0518074 1.7269133 169 103 77
0.093579836 0.051988795 1.7329599 171 106 79
0.09564769 0.052171472 1.739049 171 107 81
0.09738674 0.052171472 1.739049 172 108 83
0.099545516 0.05239238 1.7464126 169 106 82
0.10201185 0.052764747 1.758825 148 95 78
0.104588345 0.053180516 1.7726839 110 66 55
0.10674336 0.05337168 1.779056 81 49 42
0.108913906 0.053564217 1.7854738 64 39 29
0.11118068 0.053797103 1.7932367 58 36 27
0.11338473 0.05399273 1.7997576 74 47 36
0.11476715 0.053797103 1.7932367 82 51 39
0.11698425 0.05399273 1.7997576 85 55 42
0.118784 0.05399273 1.7997576 86 57 43
0.120146856 0.053797103 1.7932367 89 58 44
0.13271083 0.058548898 1.9516299 125 84 61
-0.10614138 0.057001855 1.9655812 88 62 49
-0.09951239 0.054450177 1.8775923 56 41 34
-0.09763481 0.054450177 1.8775923 61 43 33
-0.09575721 0.054450177 1.8775923 97 67 46
-0.09387962 0.054450177 1.8775923 123 86 56
-0.09200202 0.054450177 1.8775923 91 62 36
-0.090124436 0.054450177 1.8775923 84 55 37
-0.087846935 0.054203425 1.8690836 85 56 39
-0.085977845 0.054203425 1.8690836 100 70 54
-0.08316655 0.053596217 1.8481455 92 61 45
-0.08131841 0.053596217 1.8481455 86 59 43
-0.07917461 0.053396825 1.8412699 85 58 45
-0.07704671 0.053198915 1.8344454 88 63 51
-0.07465882 0.052807458 1.8209468 77 56 46
-0.07251771 0.052575335 1.8129426 66 50 44
-0.07101692 0.052807458 1.8209468 56 44 40
-0.06889182 0.052575335 1.8129426 51 40 37
-0.06707888 0.052575335 1.8129426 51 40 39
-0.06526594 0.052575335 1.8129426 49 37 35
-0.06373314 0.052807458 1.8209468 47 38 34
-0.06164005 0.052575335 1.8129426 48 39 35
-0.059392 0.05219297 1.7997576 43 35 31
-0.057802435 0.052383456 1.8063262 42 33 29
-0.05599611 0.052383456 1.8063262 48 35 34
-0.054189786 0.052383456 1.8063262 50 35 34
-0.05219297 0.05219297 1.7997576 51 38 37
-0.050393213 0.05219297 1.7997576 50 38 37
-0.048593458 0.05219297 1.7997576 50 37 34
-0.046624154 0.052003864 1.7932367 49 37 33
-0.044993937 0.05219297 1.7997576 52 41 37
-0.043037683 0.052003864 1.7932367 51 39 35
-0.041065898 0.05177874 1.7854738 60 42 32
-0.039139234 0.051592622 1.779056 87 59 50
-0.03722636 0.051407833 1.7726839 114 84 63
-0.035327148 0.051224366 1.7663574 158 109 79
-0.033417676 0.051005926 1.758825 178 121 87
-0.03154674 0.05082531 1.7525969 184 125 89
-0.029689014 0.050645966 1.7464126 186 126 90
-0.027942602 0.050645966 1.7464126 189 127 91
-0.026085736 0.050432418 1.739049 192 129 92
-0.02426144 0.050255835 1.7329599 193 128 92
-0.022528479 0.050255835 1.7329599 192 127 91
-0.020795519 0.050255835 1.7329599 192 127 90
-0.01906256 0.050255835 1.7329599 192 128 90
-0.017269133 0.050080486 1.7269133 192 127 90
-0.015477416 0.049871672 1.7197129 195 126 90
-0.013757703 0.049871672 1.7197129 193 126 90
-0.0119963065 0.049698986 1.7137581 194 126 89
-0.010282549 0.049698986 1.7137581 192 124 87
-0.008568791 0.049698986 1.7137581 191 122 86
-0.0068550324 0.049698986 1.7137581 190 120 85
-0.00512 0.049493335 1.7066667 188 119 83
-0.0034133333 0.049493335 1.7066667 185 116 81
-0.0017008019 0.049323253 1.7008018 185 115 80
0.0 0.049493335 1.7066667 185 113 79
0.0017066667 0.049493335 1.7066667 181 111 76
0.0034133333 0.049493335 1.7066667 178 107 75
0.0051024053 0.049323253 1.7008018 178 107 75
0.006775268 0.049120694 1.693817 176 105 75
0.008469084 0.049120694 1.693817 173 104 74
0.010162902 0.049120694 1.693817 170 103 71
0.011856719 0.049120694 1.693817 168 101 70
0.013550536 0.049120694 1.693817 164 100 69
0.015244354 0.049120694 1.693817 163 99 69
0.017008018 0.049323253 1.7008018 159 98 70
0.01870882 0.049323253 1.7008018 160 99 72
0.020325804 0.049120694 1.693817 161 99 73
0.021944521 0.04895316 1.68804 161 100 73
0.02363256 0.04895316 1.68804 160 102 73
0.025217392 0.048753623 1.6811595 164 106 78
0.02700864 0.04895316 1.68804 166 109 83
0.02869668 0.04895316 1.68804 165 110 84
0.03038472 0.04895316 1.68804 169 113 85
0.03207276 0.04895316 1.68804 167 112 85
0.0337608 0.04895316 1.68804 170 114 86
0.03544884 0.04895316 1.68804 172 114 85
0.03713688 0.04895316 1.68804 170 115 87
0.03882492 0.04895316 1.68804 175 114 88
0.040512964 0.04895316 1.68804 174 110 83
0.042201 0.04895316 1.68804 167 103 75
0.043889042 0.04895316 1.68804 156 95 68
0.04557708 0.04895316 1.68804 142 86 62
0.04726512 0.04895316 1.68804 150 92 66
0.04895316 0.04895316 1.68804 157 99 70
0.0506412 0.04895316 1.68804 159 100 70
0.052508328 0.049120694 1.693817 154 96 67
0.054202143 0.049120694 1.693817 152 95 69
0.05589596 0.049120694 1.693817 152 95 68
0.05758978 0.049120694 1.693817 150 93 67
0.059283596 0.049120694 1.693817 150 92 66
0.060977414 0.049120694 1.693817 150 92 66
0.06267123 0.049120694 1.693817 149 92 66
0.06463047 0.049323253 1.7008018 149 92 65
0.06633127 0.049323253 1.7008018 150 92 65
0.06803207 0.049323253 1.7008018 152 93 66
0.06973288 0.049323253 1.7008018 156 94 68
0.07168 0.049493335 1.7066667 156 94 68
0.07338666 0.049493335 1.7066667 158 94 69
0.07509334 0.049493335 1.7066667 158 95 69
0.0768 0.049493335 1.7066667 159 95 71
0.07850667 0.049493335 1.7066667 160 95 69
0.08021333 0.049493335 1.7066667 159 94 70
0.08226039 0.049698986 1.7137581 159 94 69
0.08426593 0.049871672 1.7197129 161 95 69
0.086345665 0.050080486 1.7269133 162 97 69
0.088072576 0.050080486 1.7269133 163 98 72
0.08979949 0.050080486 1.7269133 165 100 75
0.091526404 0.050080486 1.7269133 168 103 78
0.093579836 0.050255835 1.7329599 170 104 79
0.09564769 0.050432418 1.739049 172 106 81
0.09738674 0.050432418 1.739049 173 108 82
0.099545516 0.050645966 1.7464126 168 105 82
0.10201185 0.051005926 1.758825 128 85 67
0.104588345 0.051407833 1.7726839 105 67 59
0.10674336 0.051592622 1.779056 78 48 40
0.108913906 0.05177874 1.7854738 66 41 30
0.11118068 0.052003864 1.7932367 63 40 31
0.11338473 0.05219297 1.7997576 74 48 35
0.11476715 0.052003864 1.7932367 81 52 38
0.11698425 0.05219297 1.7997576 83 53 40
0.118784 0.05219297 1.7997576 86 57 43
0.120146856 0.052003864 1.7932367 97 65 53
0.12914607 0.055077005 1.899207 124 86 65
0.15781146 0.06632656 2.2871227 156 102 65
-0.10908735 0.056563813 2.020136 101 71 55
-0.10143645 0.05358907 1.9138954 52 35 25
-0.098006606 0.052772786 1.8847424 55 37 26
-0.09612186 0.052772786 1.8847424 83 54 29
-0.09423712 0.052772786 1.8847424 130 89 57
-0.092352375 0.052772786 1.8847424 113 75 45
-0.09046764 0.052772786 1.8847424 102 67 43
-0.087846935 0.052334342 1.8690836 95 68 45
-0.085977845 0.052334342 1.8690836 86 56 34
-0.083478265 0.05194203 1.8550725 100 71 53
-0.08131841 0.051748075 1.8481455 85 56 42
-0.07917461 0.05155556 1.8412699 76 49 38
-0.07676219 0.051174793 1.8276712 81 58 47
-0.07465882 0.05098651 1.8209468 81 60 50
-0.07251771 0.050762393 1.8129426 76 58 48
-0.070704766 0.050762393 1.8129426 65 49 42
-0.06889182 0.050762393 1.8129426 55 43 38
-0.06707888 0.050762393 1.8129426 50 40 39
-0.06526594 0.050762393 1.8129426 50 39 37
-0.06345299 0.050762393 1.8129426 49 38 32
-0.06164005 0.050762393 1.8129426 46 37 32
-0.059608765 0.050577134 1.8063262 43 36 34
-0.057592243 0.050393213 1.7997576 43 36 35
-0.055792484 0.050393213 1.7997576 44 37 35
-0.054189786 0.050577134 1.8063262 46 37 36
-0.052383456 0.050577134 1.8063262 44 34 33
-0.050577134 0.050577134 1.8063262 47 38 36
-0.048593458 0.050393213 1.7997576 46 38 32
-0.046793696 0.050393213 1.7997576 45 36 30
-0.044993937 0.050393213 1.7997576 49 39 34
-0.043194182 0.050393213 1.7997576 50 38 33
-0.041244447 0.05021063 1.7932367 52 37 31
-0.03945121 0.05021063 1.7932367 78 59 55
-0.03722636 0.049635146 1.7726839 104 75 59
-0.035327148 0.04945801 1.7663574 143 100 75
-0.03356079 0.04945801 1.7663574 175 119 87
-0.03154674 0.049072713 1.7525969 182 125 89
-0.029689014 0.048899554 1.7464126 185 126 90
-0.027942602 0.048899554 1.7464126 188 128 90
-0.02619619 0.048899554 1.7464126 191 130 92
-0.02426144 0.04852288 1.7329599 192 128 92
-0.022528479 0.04852288 1.7329599 191 127 90
-0.020795519 0.04852288 1.7329599 191 126 89
-0.018996047 0.04835357 1.7269133 190 127 90
-0.017269133 0.04835357 1.7269133 189 125 90
-0.015477416 0.04815196 1.7197129 192 125 90
-0.013757703 0.04815196 1.7197129 192 124 89
-0.01203799 0.04815196 1.7197129 190 124 88
-0.010282549 0.047985226 1.7137581 190 122 87
-0.008568791 0.047985226 1.7137581 189 121 85
-0.0068550324 0.047985226 1.7137581 187 119 84
-0.00512 0.047786668 1.7066667 187 118 82
-0.0034133333 0.047786668 1.7066667 185 116 82
-0.0017008019 0.047622453 1.7008018 184 114 81
0.0 0.047622453 1.7008018 181 112 79
0.0017066667 0.047786668 1.7066667 180 110 77
0.0034016038 0.047622453 1.7008018 179 108 76
0.0051024053 0.047622453 1.7008018 177 106 74
0.0068032076 0.047622453 1.7008018 175 105 74
0.008504009 0.047622453 1.7008018 172 104 74
0.010162902 0.047426876 1.693817 169 103 72
0.011856719 0.047426876 1.693817 168 102 70
0.013550536 0.047426876 1.693817 166 101 71
0.015244354 0.047426876 1.693817 165 100 71
0.016938169 0.047426876 1.693817 159 99 72
0.018631987 0.047426876 1.693817 159 97 72
0.020325804 0.047426876 1.693817 159 98 71
0.021944521 0.04726512 1.68804 161 100 73
0.02363256 0.04726512 1.68804 158 102 73
0.0253206 0.04726512 1.68804 161 104 77
0.02700864 0.04726512 1.68804 165 107 83
0.02869668 0.04726512 1.68804 168 110 85
0.03038472 0.04726512 1.68804 167 110 83
0.03207276 0.04726512 1.68804 169 111 85
0.0337608 0.04726512 1.68804 172 113 86
0.03544884 0.04726512 1.68804 172 114 85
0.03713688 0.04726512 1.68804 173 116 87
0.03882492 0.04726512 1.68804 175 114 87
0.040512964 0.04726512 1.68804 175 109 84
0.042201 0.04726512 1.68804 169 102 77
0.043889042 0.04726512 1.68804 167 99 74
0.04557708 0.04726512 1.68804 158 95 70
0.04726512 0.04726512 1.68804 159 96 70
0.04895316 0.04726512 1.68804 165 102 73
0.0506412 0.04726512 1.68804 162 101 73
0.052508328 0.047426876 1.693817 159 98 72
0.054202143 0.047426876 1.693817 155 96 69
0.05589596 0.047426876 1.693817 153 94 68
0.05758978 0.047426876 1.693817 152 94 68
0.059283596 0.047426876 1.693817 148 91 65
0.060977414 0.047426876 1.693817 149 91 65
0.06292967 0.047622453 1.7008018 151 92 66
0.06463047 0.047622453 1.7008018 149 92 64
0.06633127 0.047622453 1.7008018 151 92 65
0.06803207 0.047622453 1.7008018 150 92 65
0.06973288 0.047622453 1.7008018 154 93 68
0.07168 0.047786668 1.7066667 155 93 69
0.07338666 0.047786668 1.7066667 156 94 68
0.07509334 0.047786668 1.7066667 158 94 68
0.0768 0.047786668 1.7066667 158 95 70
0.07850667 0.047786668 1.7066667 160 95 69
0.08021333 0.047786668 1.7066667 159 95 70
0.08226039 0.047985226 1.7137581 160 94 70
0.08426593 0.04815196 1.7197129 163 94 70
0.086345665 0.04835357 1.7269133 161 96 71
0.088072576 0.04835357 1.7269133 162 98 73
0.08979949 0.04835357 1.7269133 164 100 77
0.091526404 0.04835357 1.7269133 166 102 78
0.093579836 0.04852288 1.7329599 170 103 81
0.09564769 0.04869337 1.739049 169 104 81
0.09738674 0.04869337 1.739049 168 105 81
0.09989802 0.049072713 1.7525969 159 101 80
0.102815665 0.049635146 1.7726839 105 68 52
0.105342954 0.049993265 1.7854738 90 55 50
0.10759421 0.05021063 1.7932367 76 48 39
0.10938744 0.05021063 1.7932367 70 43 33
0.11158497 0.050393213 1.7997576 63 38 28
0.11338473 0.050393213 1.7997576 70 44 35
0.11560487 0.050577134 1.8063262 80 50 43
0.1174112 0.050577134 1.8063262 81 50 42
0.119654216 0.050762393 1.8129426 93 62 54
0.122003436 0.05098651 1.8209468 108 76 67
0.12614493 0.05194203 1.8550725 118 84 65
0.15218538 0.061756387 2.2055852 147 100 65
-0.11305585 0.056527924 2.0936267 108 75 55
-0.10222708 0.052077945 1.9288127 59 42 29
-0.098006606 0.050888043 1.8847424 51 38 26
-0.09612186 0.050888043 1.8847424 78 49 33
-0.094597355 0.05108257 1.891947 118 81 50
-0.092705406 0.05108257 1.891947 125 85 50
-0.09081346 0.05108257 1.891947 132 91 62
-0.088582896 0.050888043 1.8847424 104 70 42
-0.086369246 0.05069499 1.8775923 109 77 51
-0.08379233 0.050275397 1.8620517 100 67 42
-0.08131841 0.04989993 1.8481455 94 64 50
-0.07917461 0.049714286 1.8412699 86 61 51
-0.07704671 0.049530026 1.8344454 68 46 34
-0.07493452 0.04934712 1.8276712 65 47 35
-0.072837874 0.049165566 1.8209468 78 64 52
-0.070704766 0.04894945 1.8129426 73 63 51
-0.06889182 0.04894945 1.8129426 63 52 42
-0.06707888 0.04894945 1.8129426 52 41 35
-0.06526594 0.04894945 1.8129426 49 37 32
-0.06345299 0.04894945 1.8129426 50 39 34
-0.06164005 0.04894945 1.8129426 46 38 35
-0.059608765 0.048770804 1.8063262 44 33 32
-0.057592243 0.048593458 1.7997576 44 34 34
-0.055792484 0.048593458 1.7997576 46 37 34
-0.054189786 0.048770804 1.8063262 45 34 32
-0.052383456 0.048770804 1.8063262 45 36 33
-0.050577134 0.048770804 1.8063262 47 37 33
-0.048593458 0.048593458 1.7997576 46 38 34
-0.046793696 0.048593458 1.7997576 43 34 30
-0.044993937 0.048593458 1.7997576 48 37 33
-0.043194182 0.048593458 1.7997576 47 38 32
-0.041244447 0.048417393 1.7932367 49 36 32
-0.03945121 0.048417393 1.7932367 59 41 37
-0.03722636 0.047862466 1.7726839 89 65 53
-0.035453677 0.047862466 1.7726839 137 96 77
-0.03356079 0.04769165 1.7663574 170 117 88
-0.03154674 0.047320113 1.7525969 180 123 86
-0.029689014 0.04715314 1.7464126 185 126 89
-0.027942602 0.04715314 1.7464126 187 127 89
-0.02619619 0.04715314 1.7464126 189 128 90
-0.02426144 0.046789918 1.7329599 189 127 91
-0.022528479 0.046789918 1.7329599 188 126 90
-0.02072296 0.04662666 1.7269133 188 125 88
-0.018996047 0.04662666 1.7269133 190 126 89
-0.017197128 0.046432246 1.7197129 190 125 89
-0.015477416 0.046432246 1.7197129 190 124 89
-0.013710065 0.04627147 1.7137581 191 123 88
-0.01203799 0.046432246 1.7197129 189 122 87
-0.010282549 0.04627147 1.7137581 191 120 86
-0.008533333 0.04608 1.7066667 188 120 84
-0.0068550324 0.04627147 1.7137581 187 118 82
-0.00512 0.04608 1.7066667 186 117 81
-0.0034133333 0.04608 1.7066667 185 115 81
-0.0017008019 0.04592165 1.7008018 184 114 81
0.0 0.04592165 1.7008018 181 111 79
0.0017008019 0.04592165 1.7008018 181 110 77
0.003387634 0.04573306 1.693817 177 108 77
0.0051024053 0.04592165 1.7008018 176 105 75
0.0068032076 0.04592165 1.7008018 175 105 74
0.008504009 0.04592165 1.7008018 173 105 73
0.010162902 0.04573306 1.693817 169 104 73
0.011856719 0.04573306 1.693817 167 101 71
0.013550536 0.04573306 1.693817 167 101 72
0.01519236 0.04557708 1.68804 165 100 72
0.0168804 0.04557708 1.68804 161 100 73
0.018631987 0.04573306 1.693817 159 97 72
0.020325804 0.04573306 1.693817 160 98 73
0.021944521 0.04557708 1.68804 161 99 73
0.02363256 0.04557708 1.68804 157 102 74
0.0253206 0.04557708 1.68804 161 104 77
0.02700864 0.04557708 1.68804 161 105 80
0.02869668 0.04557708 1.68804 166 108 83
0.03038472 0.04557708 1.68804 167 110 84
0.03207276 0.04557708 1.68804 171 113 86
0.0337608 0.04557708 1.68804 174 115 86
0.03544884 0.04557708 1.68804 174 116 87
0.03713688 0.04557708 1.68804 175 113 87
0.03882492 0.04557708 1.68804 171 108 84
0.040512964 0.04557708 1.68804 168 99 80
0.042201 0.04557708 1.68804 167 94 75
0.043889042 0.04557708 1.68804 166 93 73
0.04557708 0.04557708 1.68804 168 96 74
0.04726512 0.04557708 1.68804 165 96 73
0.04895316 0.04557708 1.68804 161 96 73
0.05081451 0.04573306 1.693817 160 95 73
0.052508328 0.04573306 1.693817 159 97 71
0.054202143 0.04573306 1.693817 158 98 73
0.05589596 0.04573306 1.693817 153 93 68
0.05758978 0.04573306 1.693817 148 91 66
0.059283596 0.04573306 1.693817 146 90 64
0.061228868 0.04592165 1.7008018 145 88 63
0.06292967 0.04592165 1.7008018 150 91 65
0.06463047 0.04592165 1.7008018 150 93 65
0.06633127 0.04592165 1.7008018 149 92 63
0.06803207 0.04592165 1.7008018 150 93 65
0.069973335 0.04608 1.7066667 152 92 67
0.07168 0.04608 1.7066667 154 93 68
0.07338666 0.04608 1.7066667 154 94 67
0.07509334 0.04608 1.7066667 156 94 68
0.0768 0.04608 1.7066667 158 95 69
0.07850667 0.04608 1.7066667 160 96 70
0.08021333 0.04608 1.7066667 160 95 71
0.08254622 0.046432246 1.7197129 159 95 70
0.084618755 0.04662666 1.7269133 160 94 69
0.086345665 0.04662666 1.7269133 157 95 71
0.088072576 0.04662666 1.7269133 161 98 75
0.08979949 0.04662666 1.7269133 163 99 78
