ply
format ascii 1.0
element vertex 1107
property float32 x
property float32 y
property float32 z
property uchar red
property uchar green
property uchar blue
element face 0
property list uint8 int32 vertex_indices
end_header
0.0 0.06309348 1.7525969 192 124 88
0.0017525968 0.06309348 1.7525969 192 123 88
0.0035051936 0.06309348 1.7525969 191 122 87
0.0052577904 0.06309348 1.7525969 191 122 86
0.0070103873 0.06309348 1.7525969 188 121 85
0.008732064 0.06287085 1.7464126 188 120 85
0.010478475 0.06287085 1.7464126 187 119 84
0.012224888 0.06287085 1.7464126 186 117 85
0.013912392 0.06260576 1.739049 184 114 83
0.01565144 0.06260576 1.739049 182 113 81
0.01739049 0.06260576 1.739049 179 111 77
0.01906256 0.062386554 1.7329599 176 110 74
0.020868588 0.06260576 1.739049 175 109 73
0.022607636 0.06260576 1.739049 174 108 73
0.024346685 0.06260576 1.739049 171 106 72
0.026085736 0.06260576 1.739049 170 104 71
0.027727358 0.062386554 1.7329599 166 102 73
0.029460318 0.062386554 1.7329599 162 100 72
0.031193277 0.062386554 1.7329599 154 97 69
0.03292624 0.062386554 1.7329599 149 93 63
0.0346592 0.062386554 1.7329599 147 91 59
0.03626518 0.06216888 1.7269133 155 99 70
0.037992094 0.06216888 1.7269133 171 111 80
0.039719004 0.06216888 1.7269133 177 115 80
0.04144592 0.06216888 1.7269133 179 117 80
0.043172833 0.06216888 1.7269133 177 114 75
0.044899747 0.06216888 1.7269133 164 99 61
0.04662666 0.06216888 1.7269133 116 64 45
0.04835357 0.06216888 1.7269133 113 58 43
0.050080486 0.06216888 1.7269133 128 75 56
0.0518074 0.06216888 1.7269133 138 83 62
0.053534314 0.06216888 1.7269133 146 89 66
0.055454716 0.062386554 1.7329599 146 89 66
0.057187676 0.062386554 1.7329599 145 88 65
0.058920637 0.062386554 1.7329599 139 83 64
0.060653593 0.062386554 1.7329599 115 67 48
0.062386554 0.062386554 1.7329599 93 45 26
0.06411952 0.062386554 1.7329599 97 47 30
0.06608386 0.06260576 1.739049 118 65 46
0.0678229 0.06260576 1.739049 143 87 65
0.06956196 0.06260576 1.739049 156 93 71
0.07130101 0.06260576 1.739049 152 92 69
0.07304005 0.06260576 1.739049 136 79 55
0.07477911 0.06260576 1.739049 138 84 61
0.076518156 0.06260576 1.739049 147 89 64
0.07858857 0.06287085 1.7464126 153 94 67
0.080334984 0.06287085 1.7464126 160 98 69
0.08208139 0.06287085 1.7464126 162 99 69
0.0838278 0.06287085 1.7464126 162 99 67
0.08557422 0.06287085 1.7464126 162 98 67
0.08762985 0.06309348 1.7525969 162 97 68
0.08970007 0.0633177 1.758825 163 96 67
0.0914589 0.0633177 1.758825 162 97 68
0.09321772 0.0633177 1.758825 163 96 67
0.094976544 0.0633177 1.758825 164 96 67
0.097149655 0.063588865 1.7663574 167 99 70
0.09927029 0.06381662 1.7726839 167 99 72
0.10104298 0.06381662 1.7726839 174 103 76
0.103185244 0.06404601 1.779056 177 105 80
0.1049643 0.06404601 1.779056 176 108 84
0.10674336 0.06404601 1.779056 179 112 87
0.10938744 0.06455652 1.7932367 182 116 90
0.11158497 0.06479128 1.7997576 184 119 93
0.113798544 0.06502774 1.8063262 182 115 92
0.11560487 0.06502774 1.8063262 179 114 87
0.11836154 0.06555408 1.8209468 169 109 82
0.1206263 0.06579617 1.8276712 105 61 39
0.12336508 0.066285715 1.8412699 107 67 52
0.12567389 0.06653323 1.8481455 86 54 41
0.12752204 0.06653323 1.8481455 72 46 41
0.12937018 0.06653323 1.8481455 62 37 37
0.13121833 0.06653323 1.8481455 74 45 36
0.13406771 0.06703386 1.8620517 84 52 37
0.1364431 0.06728701 1.8690836 88 56 37
0.15311484 0.0744883 2.0691195 116 84 53
-0.09665094 0.07047464 2.0135612 81 59 42
-0.08995308 0.06698634 1.9138954 56 43 32
-0.087363526 0.06647225 1.899207 49 40 31
-0.085793525 0.0667283 1.9065229 46 36 29
-0.083245665 0.066218145 1.891947 51 36 35
-0.081353724 0.066218145 1.891947 49 33 22
-0.07976669 0.06647225 1.899207 86 65 48
-0.077569835 0.066218145 1.891947 85 61 40
-0.07510369 0.06571573 1.8775923 98 68 49
-0.073226094 0.06571573 1.8775923 87 63 43
-0.07134851 0.06571573 1.8775923 71 51 37
-0.069156095 0.06541793 1.8690836 75 53 41
-0.06703386 0.065171815 1.8620517 78 53 37
-0.065171815 0.065171815 1.8620517 86 62 46
-0.063072465 0.06492753 1.8550725 71 52 45
-0.061217394 0.06492753 1.8550725 57 45 36
-0.058920637 0.064444445 1.8412699 49 37 29
-0.056867804 0.06420559 1.8344454 50 38 33
-0.05503336 0.06420559 1.8344454 51 38 32
-0.053198915 0.06420559 1.8344454 65 46 38
-0.05136447 0.06420559 1.8344454 74 49 37
-0.049530026 0.06420559 1.8344454 72 48 36
-0.04769558 0.06420559 1.8344454 62 41 31
-0.045861132 0.06420559 1.8344454 59 39 30
-0.04386411 0.06396849 1.8276712 67 47 40
-0.042036436 0.06396849 1.8276712 63 45 39
-0.040208768 0.06396849 1.8276712 59 40 34
-0.038239885 0.06373314 1.8209468 67 43 37
-0.036418937 0.06373314 1.8209468 78 55 49
-0.03444591 0.06345299 1.8129426 63 42 34
-0.03263297 0.06345299 1.8129426 67 48 41
-0.030820025 0.06345299 1.8129426 61 42 35
-0.028796121 0.062991515 1.7997576 61 41 33
-0.026996365 0.062991515 1.7997576 81 51 45
-0.025196606 0.062991515 1.7997576 134 94 78
-0.023312077 0.06276329 1.7932367 159 111 85
-0.02134867 0.06226696 1.779056 176 123 91
-0.019569617 0.06226696 1.779056 185 129 92
-0.017726839 0.062043935 1.7726839 189 131 91
-0.015954155 0.062043935 1.7726839 189 132 92
-0.0141814705 0.062043935 1.7726839 193 132 92
-0.012408786 0.062043935 1.7726839 191 132 92
-0.010636102 0.062043935 1.7726839 192 130 92
-0.008831787 0.06182251 1.7663574 194 130 92
-0.00706543 0.06182251 1.7663574 192 130 91
-0.005276475 0.061558872 1.758825 191 126 90
-0.0035176498 0.061558872 1.758825 193 126 90
-0.0017588249 0.061558872 1.758825 192 125 89
0.0 0.06134089 1.7525969 192 124 89
0.0017525968 0.06134089 1.7525969 192 124 88
0.0035051936 0.06134089 1.7525969 193 122 88
0.0052577904 0.06134089 1.7525969 192 123 87
0.0070103873 0.06134089 1.7525969 189 121 85
0.008762985 0.06134089 1.7525969 188 120 85
0.010478475 0.061124444 1.7464126 187 118 84
0.0121733425 0.060866714 1.739049 186 116 85
0.013912392 0.060866714 1.739049 183 113 83
0.01565144 0.060866714 1.739049 182 112 79
0.01739049 0.060866714 1.739049 179 109 75
0.01906256 0.060653593 1.7329599 177 109 73
0.020868588 0.060866714 1.739049 175 107 73
0.022607636 0.060866714 1.739049 173 107 72
0.024346685 0.060866714 1.739049 172 105 71
0.026085736 0.060866714 1.739049 168 103 70
0.027727358 0.060653593 1.7329599 163 102 71
0.029460318 0.060653593 1.7329599 159 98 69
0.031193277 0.060653593 1.7329599 154 97 68
0.03292624 0.060653593 1.7329599 151 93 64
0.0346592 0.060653593 1.7329599 149 92 61
0.03626518 0.060441967 1.7269133 154 98 69
0.037992094 0.060441967 1.7269133 170 109 79
0.039719004 0.060441967 1.7269133 172 112 78
0.04144592 0.060441967 1.7269133 173 113 76
0.043172833 0.060441967 1.7269133 164 101 69
0.044899747 0.060441967 1.7269133 141 81 62
0.04662666 0.060441967 1.7269133 99 37 34
0.04835357 0.060441967 1.7269133 108 51 39
0.050080486 0.060441967 1.7269133 125 71 52
0.0518074 0.060441967 1.7269133 128 74 54
0.053534314 0.060441967 1.7269133 130 79 58
0.055454716 0.060653593 1.7329599 137 83 63
0.057187676 0.060653593 1.7329599 137 82 63
0.058920637 0.060653593 1.7329599 126 75 58
0.060653593 0.060653593 1.7329599 119 71 55
0.062386554 0.060653593 1.7329599 114 67 52
0.06434481 0.060866714 1.739049 116 66 51
0.06608386 0.060866714 1.739049 129 78 58
0.0678229 0.060866714 1.739049 136 82 59
0.06956196 0.060866714 1.739049 143 87 64
0.07130101 0.060866714 1.739049 140 86 62
0.07304005 0.060866714 1.739049 134 81 57
0.07477911 0.060866714 1.739049 140 86 62
0.076518156 0.060866714 1.739049 145 88 64
0.07858857 0.061124444 1.7464126 149 92 65
0.080334984 0.061124444 1.7464126 158 97 67
0.08208139 0.061124444 1.7464126 162 99 69
0.0838278 0.061124444 1.7464126 162 99 68
0.08557422 0.061124444 1.7464126 162 98 67
0.08762985 0.06134089 1.7525969 161 96 68
0.08970007 0.061558872 1.758825 163 96 67
0.0914589 0.061558872 1.758825 163 96 67
0.09321772 0.061558872 1.758825 160 94 66
0.094976544 0.061558872 1.758825 160 94 66
0.097149655 0.06182251 1.7663574 168 99 71
0.09927029 0.062043935 1.7726839 163 97 69
0.10104298 0.062043935 1.7726839 171 101 74
0.103185244 0.06226696 1.779056 175 103 78
0.1049643 0.06226696 1.779056 175 107 83
0.10674336 0.06226696 1.779056 177 109 86
0.10938744 0.06276329 1.7932367 178 113 87
0.11158497 0.062991515 1.7997576 178 114 89
0.11421539 0.06345299 1.8129426 176 112 89
0.11560487 0.06322142 1.8063262 176 112 84
0.11836154 0.06373314 1.8209468 162 104 79
0.121073395 0.06420559 1.8344454 107 63 43
0.12336508 0.064444445 1.8412699 113 73 59
0.12567389 0.06468509 1.8481455 85 52 39
0.128 0.06492753 1.8550725 72 44 39
0.12937018 0.06468509 1.8481455 66 38 37
0.13171014 0.06492753 1.8550725 71 44 37
0.13356522 0.06492753 1.8550725 83 54 38
0.13592978 0.065171815 1.8620517 92 64 42
0.15072045 0.0712867 2.0367627 117 87 49
-0.0981686 0.06953609 2.0451791 93 63 37
-0.09030227 0.06532505 1.9213251 54 38 28
-0.087700054 0.06482178 1.9065229 48 40 30
-0.085793525 0.06482178 1.9065229 49 38 30
-0.083245665 0.064326204 1.891947 51 42 38
-0.081353724 0.064326204 1.891947 53 42 33
-0.079461776 0.064326204 1.891947 67 51 39
-0.077867486 0.064573035 1.899207 100 72 59
-0.07510369 0.06383814 1.8775923 106 71 52
-0.073226094 0.06383814 1.8775923 102 68 44
-0.07134851 0.06383814 1.8775923 92 64 45
-0.06947092 0.06383814 1.8775923 75 51 38
-0.06703386 0.06330976 1.8620517 77 54 44
-0.065171815 0.06330976 1.8620517 76 52 34
-0.063072465 0.063072465 1.8550725 77 56 43
-0.061217394 0.063072465 1.8550725 72 53 42
-0.058920637 0.062603176 1.8412699 56 39 29
-0.056867804 0.062371142 1.8344454 48 35 29
-0.05503336 0.062371142 1.8344454 47 37 33
-0.053198915 0.062371142 1.8344454 57 41 33
-0.05136447 0.062371142 1.8344454 75 52 37
-0.049530026 0.062371142 1.8344454 75 51 35
-0.04769558 0.062371142 1.8344454 68 46 34
-0.045861132 0.062371142 1.8344454 61 39 29
-0.044026688 0.062371142 1.8344454 69 46 40
-0.042036436 0.06214082 1.8276712 68 47 42
-0.040208768 0.06214082 1.8276712 67 47 39
-0.038239885 0.061912194 1.8209468 64 42 34
-0.036418937 0.061912194 1.8209468 84 58 52
-0.03459799 0.061912194 1.8209468 69 44 37
-0.03263297 0.06164005 1.8129426 64 45 37
-0.030820025 0.06164005 1.8129426 64 45 37
-0.028796121 0.061191756 1.7997576 62 40 32
-0.026996365 0.061191756 1.7997576 75 48 43
-0.025196606 0.061191756 1.7997576 110 76 58
-0.023312077 0.060970046 1.7932367 156 108 83
-0.02134867 0.060487904 1.779056 173 119 86
-0.019569617 0.060487904 1.779056 183 126 89
-0.017726839 0.060271252 1.7726839 188 130 91
-0.015954155 0.060271252 1.7726839 190 131 92
-0.0141814705 0.060271252 1.7726839 192 131 92
-0.012408786 0.060271252 1.7726839 194 130 92
-0.010636102 0.060271252 1.7726839 192 130 92
-0.008831787 0.060056154 1.7663574 192 130 91
-0.00706543 0.060056154 1.7663574 192 129 91
-0.0052990722 0.060056154 1.7663574 193 127 90
-0.0035176498 0.059800047 1.758825 192 126 89
-0.0017588249 0.059800047 1.758825 192 125 89
0.0 0.059588294 1.7525969 192 125 88
0.0017525968 0.059588294 1.7525969 192 124 88
0.0035051936 0.059588294 1.7525969 194 123 87
0.0052577904 0.059588294 1.7525969 193 123 87
0.0070103873 0.059588294 1.7525969 189 121 86
0.008762985 0.059588294 1.7525969 188 120 85
0.010478475 0.059378028 1.7464126 186 117 84
0.0121733425 0.059127662 1.739049 185 115 84
0.013912392 0.059127662 1.739049 183 112 82
0.01565144 0.059127662 1.739049 182 111 79
0.01739049 0.059127662 1.739049 177 108 74
0.01906256 0.058920637 1.7329599 177 108 73
0.020868588 0.059127662 1.739049 174 107 72
0.022607636 0.059127662 1.739049 172 105 71
0.024346685 0.059127662 1.739049 173 105 71
0.026085736 0.059127662 1.739049 166 102 68
0.027727358 0.058920637 1.7329599 162 100 68
0.029460318 0.058920637 1.7329599 160 99 69
0.031193277 0.058920637 1.7329599 156 96 68
0.03292624 0.058920637 1.7329599 151 94 68
0.0346592 0.058920637 1.7329599 152 94 66
0.03626518 0.058715053 1.7269133 153 97 68
0.037992094 0.058715053 1.7269133 163 104 75
0.039719004 0.058715053 1.7269133 165 106 75
0.04144592 0.058715053 1.7269133 160 101 70
0.043172833 0.058715053 1.7269133 148 90 62
0.044899747 0.058715053 1.7269133 132 72 54
0.04662666 0.058715053 1.7269133 121 63 53
0.04835357 0.058715053 1.7269133 126 71 53
0.050080486 0.058715053 1.7269133 131 76 56
0.0518074 0.058715053 1.7269133 132 77 55
0.053534314 0.058715053 1.7269133 131 78 55
0.055454716 0.058920637 1.7329599 132 78 56
0.057187676 0.058920637 1.7329599 133 79 61
0.058920637 0.058920637 1.7329599 131 78 61
0.060653593 0.058920637 1.7329599 132 80 62
0.06260576 0.059127662 1.739049 131 79 61
0.06434481 0.059127662 1.739049 130 79 57
0.06608386 0.059127662 1.739049 130 78 54
0.0678229 0.059127662 1.739049 131 79 56
0.06956196 0.059127662 1.739049 135 82 60
0.07130101 0.059127662 1.739049 136 83 60
0.07304005 0.059127662 1.739049 142 86 63
0.07477911 0.059127662 1.739049 145 89 66
0.076518156 0.059127662 1.739049 145 89 65
0.07858857 0.059378028 1.7464126 148 90 65
0.080334984 0.059378028 1.7464126 155 95 66
0.08208139 0.059378028 1.7464126 162 98 68
0.0838278 0.059378028 1.7464126 161 98 67
0.08557422 0.059378028 1.7464126 162 98 67
0.08762985 0.059588294 1.7525969 162 97 68
0.08970007 0.059800047 1.758825 162 96 68
0.0914589 0.059800047 1.758825 160 94 67
0.09321772 0.059800047 1.758825 160 94 67
0.094976544 0.059800047 1.758825 160 95 67
0.097149655 0.060056154 1.7663574 164 97 69
0.09927029 0.060271252 1.7726839 163 97 70
0.10104298 0.060271252 1.7726839 166 99 72
0.103185244 0.060487904 1.779056 171 103 77
0.1049643 0.060487904 1.779056 174 105 83
0.10674336 0.060487904 1.779056 177 108 84
0.10938744 0.060970046 1.7932367 176 110 86
0.11158497 0.061191756 1.7997576 179 111 87
0.11421539 0.06164005 1.8129426 179 111 86
0.11602833 0.06164005 1.8129426 174 109 80
0.11879863 0.06214082 1.8276712 142 90 70
0.121073395 0.062371142 1.8344454 105 64 45
0.123825744 0.062836945 1.8481455 105 67 54
0.12567389 0.062836945 1.8481455 75 45 33
0.128 0.063072465 1.8550725 70 45 40
0.12937018 0.062836945 1.8481455 66 40 37
0.13171014 0.063072465 1.8550725 65 39 36
0.13356522 0.063072465 1.8550725 81 53 38
0.13592978 0.06330976 1.8620517 102 72 55
0.14442061 0.066355415 1.9516299 112 81 54
0.1633803 0.07406574 2.1784039 144 99 64
-0.09890425 0.06799667 2.0605052 99 68 39
-0.09030227 0.063403726 1.9213251 54 37 28
-0.087700054 0.06291526 1.9065229 52 43 34
-0.085793525 0.06291526 1.9065229 51 38 30
-0.083245665 0.062434252 1.891947 47 35 27
-0.081353724 0.062434252 1.891947 52 38 27
-0.079461776 0.062434252 1.891947 62 49 38
-0.077867486 0.06267383 1.899207 73 50 37
-0.07510369 0.06196055 1.8775923 110 77 61
-0.073226094 0.06196055 1.8775923 117 79 56
-0.07134851 0.06196055 1.8775923 102 67 44
-0.06947092 0.06196055 1.8775923 95 66 49
-0.06703386 0.06144771 1.8620517 76 53 36
-0.065171815 0.06144771 1.8620517 68 48 27
-0.063072465 0.061217394 1.8550725 66 48 30
-0.061217394 0.061217394 1.8550725 74 55 41
-0.058702253 0.060536698 1.8344454 67 47 35
-0.056867804 0.060536698 1.8344454 55 40 31
-0.05503336 0.060536698 1.8344454 48 38 32
-0.053198915 0.060536698 1.8344454 50 35 26
-0.05136447 0.060536698 1.8344454 69 47 33
-0.049530026 0.060536698 1.8344454 82 57 42
-0.04769558 0.060536698 1.8344454 75 52 39
-0.045861132 0.060536698 1.8344454 62 43 31
-0.044026688 0.060536698 1.8344454 66 45 37
-0.042036436 0.06031315 1.8276712 72 48 42
-0.040208768 0.06031315 1.8276712 68 46 37
-0.038239885 0.060091242 1.8209468 65 42 33
-0.036418937 0.060091242 1.8209468 85 59 52
-0.03459799 0.060091242 1.8209468 75 49 43
-0.03277704 0.060091242 1.8209468 65 41 34
-0.030820025 0.059827108 1.8129426 70 47 41
-0.028796121 0.059392 1.7997576 62 42 34
-0.026996365 0.059392 1.7997576 68 44 40
-0.025196606 0.059392 1.7997576 105 71 52
-0.023312077 0.05917681 1.7932367 152 106 82
-0.02134867 0.058708847 1.779056 164 114 83
-0.019569617 0.058708847 1.779056 180 124 88
-0.017726839 0.058498565 1.7726839 186 129 91
-0.015954155 0.058498565 1.7726839 191 131 92
-0.0141814705 0.058498565 1.7726839 192 131 92
-0.012408786 0.058498565 1.7726839 193 132 92
-0.010636102 0.058498565 1.7726839 192 130 91
-0.008831787 0.058289796 1.7663574 193 129 91
-0.00706543 0.058289796 1.7663574 194 128 91
-0.005276475 0.058041222 1.758825 193 127 90
-0.0035176498 0.058041222 1.758825 192 126 89
-0.0017588249 0.058041222 1.758825 192 125 89
0.0 0.057835698 1.7525969 192 125 88
0.0017525968 0.057835698 1.7525969 192 124 88
0.0035051936 0.057835698 1.7525969 193 123 88
0.0052577904 0.057835698 1.7525969 192 123 87
0.0070103873 0.057835698 1.7525969 189 121 85
0.008762985 0.057835698 1.7525969 188 119 85
0.010478475 0.05763162 1.7464126 186 117 84
0.0121733425 0.057388615 1.739049 185 115 84
0.013912392 0.057388615 1.739049 184 112 81
0.01565144 0.057388615 1.739049 181 110 78
0.01739049 0.057388615 1.739049 179 109 76
0.01906256 0.057187676 1.7329599 176 107 73
0.020868588 0.057388615 1.739049 174 106 72
0.022607636 0.057388615 1.739049 172 104 71
0.024346685 0.057388615 1.739049 172 105 70
0.026085736 0.057388615 1.739049 167 102 68
0.027727358 0.057187676 1.7329599 163 100 69
0.029460318 0.057187676 1.7329599 159 98 69
0.031193277 0.057187676 1.7329599 155 96 68
0.03292624 0.057187676 1.7329599 154 95 69
0.0346592 0.057187676 1.7329599 153 95 67
0.03626518 0.05698814 1.7269133 153 98 70
0.037992094 0.05698814 1.7269133 156 99 72
0.039719004 0.05698814 1.7269133 156 97 70
0.04144592 0.05698814 1.7269133 153 93 66
0.043172833 0.05698814 1.7269133 142 83 57
0.044899747 0.05698814 1.7269133 135 74 54
0.04662666 0.05698814 1.7269133 134 76 60
0.04835357 0.05698814 1.7269133 137 82 58
0.050080486 0.05698814 1.7269133 137 84 61
0.0518074 0.05698814 1.7269133 137 84 61
0.053534314 0.05698814 1.7269133 136 83 59
0.055454716 0.057187676 1.7329599 135 79 58
0.057187676 0.057187676 1.7329599 138 83 64
0.058920637 0.057187676 1.7329599 140 85 66
0.060866714 0.057388615 1.739049 140 87 67
0.06260576 0.057388615 1.739049 139 86 65
0.06434481 0.057388615 1.739049 137 84 62
0.06608386 0.057388615 1.739049 135 82 60
0.0678229 0.057388615 1.739049 136 82 60
0.06956196 0.057388615 1.739049 140 85 63
0.07130101 0.057388615 1.739049 142 87 64
0.07304005 0.057388615 1.739049 145 87 65
0.07477911 0.057388615 1.739049 145 89 66
0.076518156 0.057388615 1.739049 146 90 66
0.07858857 0.05763162 1.7464126 147 91 64
0.080334984 0.05763162 1.7464126 153 94 65
0.08208139 0.05763162 1.7464126 159 97 67
0.0838278 0.05763162 1.7464126 158 96 65
0.08557422 0.05763162 1.7464126 160 97 66
0.08762985 0.057835698 1.7525969 159 95 67
0.08970007 0.058041222 1.758825 160 95 67
0.0914589 0.058041222 1.758825 159 94 66
0.09321772 0.058041222 1.758825 159 94 67
0.094976544 0.058041222 1.758825 160 95 68
0.097149655 0.058289796 1.7663574 160 95 68
0.09927029 0.058498565 1.7726839 164 96 70
0.10104298 0.058498565 1.7726839 164 97 71
0.103185244 0.058708847 1.779056 167 100 75
0.1049643 0.058708847 1.779056 172 103 81
0.10674336 0.058708847 1.779056 174 107 83
0.10938744 0.05917681 1.7932367 173 107 84
0.11199222 0.059608765 1.8063262 175 108 85
0.11471965 0.060091242 1.8209468 179 111 86
0.11602833 0.059827108 1.8129426 173 109 79
0.11879863 0.06031315 1.8276712 112 76 55
0.12152381 0.060761906 1.8412699 90 57 37
0.123825744 0.0609888 1.8481455 105 72 59
0.12614493 0.061217394 1.8550725 77 49 39
0.128 0.061217394 1.8550725 71 45 42
0.12985507 0.061217394 1.8550725 68 42 39
0.13171014 0.061217394 1.8550725 64 39 37
0.13406771 0.06144771 1.8620517 70 44 37
0.1364431 0.061679758 1.8690836 98 69 54
0.14162825 0.06315855 1.9138954 108 76 48
0.15583543 0.06856759 2.0778058 134 94 60
-0.09890425 0.06593616 2.0605052 110 79 51
-0.09030227 0.061482403 1.9213251 57 39 31
-0.087700054 0.061008733 1.9065229 57 46 38
-0.085793525 0.061008733 1.9065229 54 40 33
-0.083245665 0.060542304 1.891947 50 36 31
-0.081353724 0.060542304 1.891947 58 39 28
-0.079461776 0.060542304 1.891947 67 51 37
-0.077569835 0.060542304 1.891947 73 57 41
-0.07567788 0.060542304 1.891947 83 57 40
-0.073226094 0.060082953 1.8775923 107 73 56
-0.07134851 0.060082953 1.8775923 124 83 68
-0.06947092 0.060082953 1.8775923 111 74 55
-0.06759332 0.060082953 1.8775923 100 68 46
-0.065171815 0.059585657 1.8620517 84 59 39
-0.06330976 0.059585657 1.8620517 75 52 36
-0.061217394 0.05936232 1.8550725 70 50 32
-0.059585657 0.059585657 1.8620517 68 47 32
-0.057507247 0.05936232 1.8550725 58 40 29
-0.055652175 0.05936232 1.8550725 50 36 28
-0.053396825 0.058920637 1.8412699 50 37 29
-0.05155556 0.058920637 1.8412699 62 42 31
-0.049714286 0.058920637 1.8412699 86 60 47
-0.047873016 0.058920637 1.8412699 85 58 45
-0.045861132 0.058702253 1.8344454 72 48 35
-0.044026688 0.058702253 1.8344454 68 43 32
-0.042192243 0.058702253 1.8344454 79 54 44
-0.0403578 0.058702253 1.8344454 79 53 41
-0.038523354 0.058702253 1.8344454 68 44 30
-0.036553424 0.05848548 1.8276712 81 54 47
-0.034725755 0.05848548 1.8276712 82 55 48
-0.032898083 0.05848548 1.8276712 66 43 32
-0.030956097 0.058270298 1.8209468 71 49 37
-0.029007083 0.058014166 1.8129426 65 45 38
-0.027094893 0.057802435 1.8063262 68 44 33
-0.025196606 0.057592243 1.7997576 92 61 39
-0.023211159 0.05713516 1.7854738 150 104 85
-0.021425687 0.05713516 1.7854738 160 111 81
-0.019569617 0.05692979 1.779056 174 120 83
-0.017726839 0.056725882 1.7726839 184 127 88
-0.015954155 0.056725882 1.7726839 188 129 90
-0.0141814705 0.056725882 1.7726839 193 131 92
-0.012408786 0.056725882 1.7726839 192 130 90
-0.010636102 0.056725882 1.7726839 194 130 90
-0.008831787 0.05652344 1.7663574 193 130 89
-0.00706543 0.05652344 1.7663574 194 129 88
-0.0052990722 0.05652344 1.7663574 193 127 90
-0.003532715 0.05652344 1.7663574 194 127 90
-0.0017663575 0.05652344 1.7663574 193 126 89
0.0 0.056083098 1.7525969 192 125 88
0.0017525968 0.056083098 1.7525969 192 124 88
0.0035051936 0.056083098 1.7525969 193 122 88
0.0052577904 0.056083098 1.7525969 191 122 87
0.0069856504 0.055885203 1.7464126 189 121 85
0.008732064 0.055885203 1.7464126 187 119 85
0.010478475 0.055885203 1.7464126 184 116 84
0.012224888 0.055885203 1.7464126 185 115 83
0.013971301 0.055885203 1.7464126 184 113 80
0.015717713 0.055885203 1.7464126 180 110 77
0.01739049 0.055649567 1.739049 180 109 75
0.019129539 0.055649567 1.739049 176 107 73
0.020868588 0.055649567 1.739049 173 105 72
0.022607636 0.055649567 1.739049 170 103 71
0.024346685 0.055649567 1.739049 170 103 70
0.026085736 0.055649567 1.739049 165 101 67
0.027824784 0.055649567 1.739049 160 99 68
0.029563831 0.055649567 1.739049 160 99 69
0.03130288 0.055649567 1.739049 157 97 68
0.03304193 0.055649567 1.739049 153 95 68
0.0346592 0.055454716 1.7329599 152 96 68
0.03626518 0.05526123 1.7269133 159 100 73
0.037992094 0.05526123 1.7269133 161 103 76
0.039719004 0.05526123 1.7269133 155 97 72
0.04144592 0.05526123 1.7269133 149 91 68
0.043172833 0.05526123 1.7269133 141 83 59
0.044899747 0.05526123 1.7269133 141 81 58
0.04662666 0.05526123 1.7269133 140 86 59
0.04835357 0.05526123 1.7269133 144 91 61
0.050080486 0.05526123 1.7269133 145 91 63
0.051591385 0.05503081 1.7197129 143 89 65
0.0533111 0.05503081 1.7197129 140 85 63
0.05503081 0.05503081 1.7197129 135 81 60
0.05698814 0.05526123 1.7269133 140 85 64
0.058715053 0.05526123 1.7269133 143 88 67
0.060441967 0.05526123 1.7269133 143 90 66
0.061909664 0.05503081 1.7197129 144 89 65
0.063629374 0.05503081 1.7197129 145 88 66
0.0656227 0.05526123 1.7269133 144 88 66
0.0670688 0.05503081 1.7197129 140 85 63
0.06907653 0.05526123 1.7269133 139 85 63
0.07105135 0.055454716 1.7329599 143 88 65
0.07253036 0.05526123 1.7269133 144 89 65
0.07451727 0.055454716 1.7329599 144 89 65
0.07625024 0.055454716 1.7329599 146 90 64
0.0782572 0.055649567 1.739049 148 91 64
0.07999625 0.055649567 1.739049 151 93 64
0.0817353 0.055649567 1.739049 154 94 64
0.0838278 0.055885203 1.7464126 157 95 65
0.08557422 0.055885203 1.7464126 157 95 65
0.08732063 0.055885203 1.7464126 159 95 67
0.08938244 0.056083098 1.7525969 159 94 67
0.0914589 0.056282397 1.758825 158 93 66
0.09321772 0.056282397 1.758825 156 94 66
0.094976544 0.056282397 1.758825 158 94 67
0.09673537 0.056282397 1.758825 161 95 70
0.09891602 0.05652344 1.7663574 160 94 68
0.10068237 0.05652344 1.7663574 163 96 70
0.102815665 0.056725882 1.7726839 164 98 74
0.104588345 0.056725882 1.7726839 167 101 78
0.10636103 0.056725882 1.7726839 170 104 80
0.108913906 0.05713516 1.7854738 170 104 80
0.11158497 0.057592243 1.7997576 169 104 79
0.11421539 0.058014166 1.8129426 174 107 80
0.11697096 0.05848548 1.8276712 169 107 81
0.11923894 0.058702253 1.8344454 88 58 45
0.1219776 0.059140656 1.8481455 77 51 36
0.12475747 0.059585657 1.8620517 98 68 57
0.12661952 0.059585657 1.8620517 81 53 44
0.128 0.05936232 1.8550725 73 48 42
0.12985507 0.05936232 1.8550725 70 44 39
0.13171014 0.05936232 1.8550725 70 44 40
0.13406771 0.059585657 1.8620517 61 38 31
0.1364431 0.059810676 1.8690836 84 60 41
0.14054132 0.060774624 1.899207 110 80 65
0.14919613 0.06365702 1.9892819 118 82 58
0.16897993 0.071149446 2.2234201 144 94 64
-0.09890425 0.06387566 2.0605052 123 89 64
-0.09030227 0.059561078 1.9213251 60 41 33
-0.087700054 0.059102207 1.9065229 59 47 41
-0.085793525 0.059102207 1.9065229 55 41 36
-0.083245665 0.058650356 1.891947 50 36 30
-0.081353724 0.058650356 1.891947 80 63 52
-0.079461776 0.058650356 1.891947 63 45 30
-0.077569835 0.058650356 1.891947 61 48 30
-0.07567788 0.058650356 1.891947 77 56 42
-0.07378593 0.058650356 1.891947 91 62 49
-0.07134851 0.05820536 1.8775923 94 60 46
-0.06947092 0.05820536 1.8775923 126 86 71
-0.06759332 0.05820536 1.8775923 119 80 60
-0.06541793 0.057941593 1.8690836 102 67 49
-0.06330976 0.057723604 1.8620517 92 62 44
-0.06144771 0.057723604 1.8620517 83 59 40
-0.059585657 0.057723604 1.8620517 71 49 29
-0.057723604 0.057723604 1.8620517 64 45 31
-0.055652175 0.057507247 1.8550725 58 43 33
-0.053396825 0.057079364 1.8412699 48 37 27
-0.05155556 0.057079364 1.8412699 60 42 32
-0.049714286 0.057079364 1.8412699 83 54 43
-0.047873016 0.057079364 1.8412699 94 64 52
-0.046031747 0.057079364 1.8412699 85 57 47
-0.044190474 0.057079364 1.8412699 72 42 32
-0.042192243 0.056867804 1.8344454 81 55 45
-0.0403578 0.056867804 1.8344454 80 53 41
-0.038523354 0.056867804 1.8344454 72 49 34
-0.036553424 0.056657806 1.8276712 71 46 38
-0.034725755 0.056657806 1.8276712 87 59 52
-0.032898083 0.056657806 1.8276712 69 46 35
-0.03107041 0.056657806 1.8276712 67 45 33
-0.029007083 0.056201223 1.8129426 68 47 41
-0.027194139 0.056201223 1.8129426 68 45 35
-0.025196606 0.055792484 1.7997576 79 52 36
-0.023211159 0.05534969 1.7854738 143 101 81
-0.021425687 0.05534969 1.7854738 159 111 78
-0.019569617 0.055150732 1.779056 169 117 80
-0.017726839 0.054953203 1.7726839 179 124 85
-0.015954155 0.054953203 1.7726839 185 127 88
-0.014232447 0.055150732 1.779056 189 128 90
-0.012453392 0.055150732 1.779056 189 128 89
-0.010636102 0.054953203 1.7726839 190 129 89
-0.008831787 0.05475708 1.7663574 191 128 88
-0.00706543 0.05475708 1.7663574 191 126 88
-0.0052990722 0.05475708 1.7663574 190 125 89
-0.003532715 0.05475708 1.7663574 192 125 89
-0.0017588249 0.054523576 1.758825 193 126 89
0.0 0.0543305 1.7525969 193 125 88
0.0017525968 0.0543305 1.7525969 192 124 88
0.0035051936 0.0543305 1.7525969 191 123 87
0.0052392376 0.05413879 1.7464126 191 122 86
0.0069856504 0.05413879 1.7464126 190 120 85
0.008732064 0.05413879 1.7464126 187 118 84
0.010478475 0.05413879 1.7464126 185 115 84
0.012224888 0.05413879 1.7464126 184 113 82
0.013971301 0.05413879 1.7464126 182 112 79
0.01565144 0.05391052 1.739049 180 109 78
0.01739049 0.05391052 1.739049 176 107 75
0.019129539 0.05391052 1.739049 174 106 73
0.020868588 0.05391052 1.739049 172 104 72
0.022607636 0.05391052 1.739049 168 103 70
0.024346685 0.05391052 1.739049 167 104 70
0.026085736 0.05391052 1.739049 165 100 68
0.027824784 0.05391052 1.739049 160 99 67
0.029563831 0.05391052 1.739049 160 99 69
0.03130288 0.05391052 1.739049 158 98 69
0.03304193 0.05391052 1.739049 158 97 71
0.0346592 0.053721756 1.7329599 159 100 72
0.03639216 0.053721756 1.7329599 159 103 75
0.037992094 0.053534314 1.7269133 163 108 80
0.039719004 0.053534314 1.7269133 164 108 81
0.04144592 0.053534314 1.7269133 158 103 78
0.043172833 0.053534314 1.7269133 157 101 77
0.044899747 0.053534314 1.7269133 156 99 75
0.04662666 0.053534314 1.7269133 153 96 66
0.04835357 0.053534314 1.7269133 153 96 68
0.050080486 0.053534314 1.7269133 156 97 70
0.051591385 0.0533111 1.7197129 148 93 65
0.0533111 0.0533111 1.7197129 143 87 64
0.05503081 0.0533111 1.7197129 138 83 62
0.05698814 0.053534314 1.7269133 135 83 60
0.058715053 0.053534314 1.7269133 146 91 67
0.060441967 0.053534314 1.7269133 145 91 65
0.061909664 0.0533111 1.7197129 144 90 63
0.063629374 0.0533111 1.7197129 149 91 67
0.0656227 0.053534314 1.7269133 147 90 67
0.0670688 0.0533111 1.7197129 147 89 67
0.06907653 0.053534314 1.7269133 146 89 67
0.07105135 0.053721756 1.7329599 143 89 65
0.07253036 0.053534314 1.7269133 144 89 65
0.07451727 0.053721756 1.7329599 145 89 65
0.07625024 0.053721756 1.7329599 146 90 63
0.0782572 0.05391052 1.739049 147 91 63
0.07999625 0.05391052 1.739049 150 93 63
0.0817353 0.05391052 1.739049 152 93 63
0.0838278 0.05413879 1.7464126 155 94 64
0.08557422 0.05413879 1.7464126 156 95 65
0.08732063 0.05413879 1.7464126 157 94 66
0.08938244 0.0543305 1.7525969 159 94 66
0.0914589 0.054523576 1.758825 158 93 66
0.09321772 0.054523576 1.758825 158 93 66
0.094976544 0.054523576 1.758825 159 94 68
0.09673537 0.054523576 1.758825 158 94 69
0.09891602 0.05475708 1.7663574 161 95 70
0.10068237 0.05475708 1.7663574 162 97 71
0.102815665 0.054953203 1.7726839 163 97 74
0.104588345 0.054953203 1.7726839 165 99 76
0.10636103 0.054953203 1.7726839 169 103 80
0.108913906 0.05534969 1.7854738 172 104 80
0.11158497 0.055792484 1.7997576 172 105 80
0.11421539 0.056201223 1.8129426 169 105 78
0.11784127 0.057079364 1.8412699 168 107 82
0.11968254 0.057079364 1.8412699 80 53 41
0.12243479 0.057507247 1.8550725 72 49 36
0.12475747 0.057723604 1.8620517 84 57 47
0.12661952 0.057723604 1.8620517 76 50 41
0.12848157 0.057723604 1.8620517 73 48 41
0.12985507 0.057507247 1.8550725 71 45 38
0.13171014 0.057507247 1.8550725 72 48 40
0.13457403 0.057941593 1.8690836 63 41 34
0.13706423 0.05820536 1.8775923 66 43 30
0.13894184 0.05820536 1.8775923 95 67 54
0.14409938 0.059561078 1.9213251 110 80 64
0.15353034 0.062624216 2.020136 125 87 62
-0.09890425 0.061815154 2.0605052 121 84 62
-0.09030227 0.05763975 1.9213251 70 48 41
-0.087700054 0.057195686 1.9065229 67 52 51
-0.085793525 0.057195686 1.9065229 53 40 38
-0.083245665 0.05675841 1.891947 53 40 32
-0.081353724 0.05675841 1.891947 83 64 51
-0.079461776 0.05675841 1.891947 81 58 45
-0.077569835 0.05675841 1.891947 67 48 34
-0.07567788 0.05675841 1.891947 68 49 34
-0.074069075 0.05697621 1.899207 78 56 39
-0.07162021 0.05654227 1.8847424 89 61 44
-0.06947092 0.05632777 1.8775923 96 62 43
-0.06759332 0.05632777 1.8775923 103 67 46
-0.06571573 0.05632777 1.8775923 107 70 50
-0.06354884 0.05607251 1.8690836 105 73 52
-0.06144771 0.055861555 1.8620517 95 67 45
-0.059585657 0.055861555 1.8620517 84 61 38
-0.057723604 0.055861555 1.8620517 74 53 35
-0.055652175 0.055652175 1.8550725 75 54 43
-0.053596217 0.055444367 1.8481455 55 39 30
-0.051748075 0.055444367 1.8481455 51 36 26
-0.04989993 0.055444367 1.8481455 66 44 33
-0.047873016 0.055238094 1.8412699 94 65 54
-0.046031747 0.055238094 1.8412699 97 65 56
-0.044190474 0.055238094 1.8412699 84 53 43
-0.042349204 0.055238094 1.8412699 83 50 39
-0.0403578 0.05503336 1.8344454 87 58 44
-0.038523354 0.05503336 1.8344454 83 55 40
-0.03668891 0.05503336 1.8344454 68 43 34
-0.034725755 0.054830134 1.8276712 91 62 56
-0.032898083 0.054830134 1.8276712 77 52 43
-0.03107041 0.054830134 1.8276712 62 41 30
-0.029135149 0.054628402 1.8209468 70 47 39
-0.027194139 0.054388277 1.8129426 69 46 38
-0.025381196 0.054388277 1.8129426 73 50 43
-0.023312077 0.053797103 1.7932367 128 91 73
-0.021518841 0.053797103 1.7932367 163 113 79
-0.019569617 0.05337168 1.779056 164 115 78
-0.017726839 0.053180516 1.7726839 171 120 82
-0.015954155 0.053180516 1.7726839 182 124 87
-0.014232447 0.05337168 1.779056 185 126 89
-0.012453392 0.05337168 1.779056 187 127 88
-0.010636102 0.053180516 1.7726839 184 123 85
-0.008863419 0.053180516 1.7726839 190 125 88
-0.00706543 0.052990723 1.7663574 193 126 90
-0.0052990722 0.052990723 1.7663574 193 126 89
-0.003532715 0.052990723 1.7663574 192 125 89
-0.0017663575 0.052990723 1.7663574 192 125 89
0.0 0.052577905 1.7525969 192 124 88
0.0017525968 0.052577905 1.7525969 193 123 88
0.0035051936 0.052577905 1.7525969 191 122 87
0.0052577904 0.052577905 1.7525969 188 122 86
0.0069856504 0.05239238 1.7464126 188 120 85
0.008732064 0.05239238 1.7464126 186 117 83
0.010478475 0.05239238 1.7464126 184 114 82
0.012224888 0.05239238 1.7464126 181 112 80
0.013971301 0.05239238 1.7464126 181 111 79
0.015717713 0.05239238 1.7464126 179 108 76
0.01739049 0.052171472 1.739049 176 107 75
0.019129539 0.052171472 1.739049 174 106 74
0.020868588 0.052171472 1.739049 171 104 72
0.022607636 0.052171472 1.739049 168 102 70
0.024346685 0.052171472 1.739049 167 102 70
0.026085736 0.052171472 1.739049 163 100 69
0.027824784 0.052171472 1.739049 160 99 68
0.029563831 0.052171472 1.739049 159 99 69
0.03130288 0.052171472 1.739049 159 99 70
0.03304193 0.052171472 1.739049 160 100 72
0.0346592 0.051988795 1.7329599 160 102 74
0.03639216 0.051988795 1.7329599 162 105 78
0.037992094 0.0518074 1.7269133 162 109 82
0.039719004 0.0518074 1.7269133 166 110 83
0.04144592 0.0518074 1.7269133 167 113 83
0.043172833 0.0518074 1.7269133 168 110 81
0.044899747 0.0518074 1.7269133 164 107 80
0.04662666 0.0518074 1.7269133 163 106 79
0.04835357 0.0518074 1.7269133 165 107 80
0.050080486 0.0518074 1.7269133 166 106 79
0.051591385 0.051591385 1.7197129 159 101 72
0.0533111 0.051591385 1.7197129 151 93 66
0.05526123 0.0518074 1.7269133 139 85 61
0.05698814 0.0518074 1.7269133 137 85 61
0.058715053 0.0518074 1.7269133 154 96 71
0.060441967 0.0518074 1.7269133 154 96 69
0.061909664 0.051591385 1.7197129 152 94 69
0.063629374 0.051591385 1.7197129 151 92 68
0.0656227 0.0518074 1.7269133 149 91 67
0.0670688 0.051591385 1.7197129 147 91 67
0.06907653 0.0518074 1.7269133 149 91 69
0.07105135 0.051988795 1.7329599 144 87 65
0.07253036 0.0518074 1.7269133 144 89 65
0.07451727 0.051988795 1.7329599 146 90 66
0.07625024 0.051988795 1.7329599 146 90 63
0.0782572 0.052171472 1.739049 147 90 62
0.07999625 0.052171472 1.739049 149 92 63
0.0817353 0.052171472 1.739049 150 93 63
0.0838278 0.05239238 1.7464126 153 93 64
0.08557422 0.05239238 1.7464126 157 95 67
0.08732063 0.05239238 1.7464126 157 94 67
0.08906705 0.05239238 1.7464126 157 94 68
0.09113504 0.052577905 1.7525969 157 94 67
0.09321772 0.052764747 1.758825 157 94 67
0.094976544 0.052764747 1.758825 157 94 68
0.09673537 0.052764747 1.758825 155 93 68
0.09927029 0.053180516 1.7726839 158 94 69
0.10104298 0.053180516 1.7726839 161 95 70
0.103185244 0.05337168 1.779056 161 96 72
0.1049643 0.05337168 1.779056 165 99 75
0.10674336 0.05337168 1.779056 168 103 79
0.10938744 0.053797103 1.7932367 169 105 81
0.11199222 0.054189786 1.8063262 170 103 80
0.11471965 0.054628402 1.8209468 170 106 81
0.11828131 0.055444367 1.8481455 154 100 82
0.12012946 0.055444367 1.8481455 76 50 40
0.12243479 0.055652175 1.8550725 73 48 38
0.12522861 0.05607251 1.8690836 74 49 39
0.12709768 0.05607251 1.8690836 75 51 41
0.12848157 0.055861555 1.8620517 76 52 43
0.13034363 0.055861555 1.8620517 72 48 38
0.13220568 0.055861555 1.8620517 73 48 39
0.13518664 0.05632777 1.8775923 73 48 39
0.1364431 0.05607251 1.8690836 59 34 22
0.13894184 0.05632777 1.8775923 83 59 48
0.14189602 0.05675841 1.891947 96 70 59
0.15179554 0.05991929 1.9973097 115 83 62
0.17692605 0.06893222 2.2977407 142 98 65
-0.09890425 0.05975465 2.0605052 113 79 53
-0.09030227 0.055718426 1.9213251 82 57 47
-0.087700054 0.05528916 1.9065229 73 53 52
-0.08612529 0.055502962 1.9138954 56 40 37
-0.08356511 0.055077005 1.899207 55 43 35
-0.081353724 0.054866463 1.891947 80 59 48
-0.079461776 0.054866463 1.891947 113 80 70
-0.077569835 0.054866463 1.891947 92 61 46
-0.07567788 0.054866463 1.891947 79 56 39
-0.07378593 0.054866463 1.891947 76 53 37
-0.07216987 0.055077005 1.899207 87 57 45
-0.06973547 0.054657526 1.8847424 90 58 42
-0.06759332 0.054450177 1.8775923 92 62 41
-0.06571573 0.054450177 1.8775923 90 61 40
-0.06383814 0.054450177 1.8775923 88 61 40
-0.06144771 0.0539995 1.8620517 86 61 40
-0.059810676 0.054203425 1.8690836 81 56 37
-0.057723604 0.0539995 1.8620517 77 55 39
-0.055652175 0.053797103 1.8550725 75 55 44
-0.053596217 0.053596217 1.8481455 59 46 35
-0.051748075 0.053596217 1.8481455 53 41 31
-0.049714286 0.053396825 1.8412699 56 40 27
-0.048051782 0.053596217 1.8481455 76 53 40
-0.046031747 0.053396825 1.8412699 99 68 59
-0.044190474 0.053396825 1.8412699 94 64 55
-0.042349204 0.053396825 1.8412699 77 46 33
-0.04050794 0.053396825 1.8412699 96 63 50
-0.03866667 0.053396825 1.8412699 93 63 49
-0.03668891 0.053198915 1.8344454 74 51 38
-0.03485446 0.053198915 1.8344454 80 54 46
-0.032898083 0.053002466 1.8276712 81 55 48
-0.03107041 0.053002466 1.8276712 66 43 33
-0.029135149 0.052807458 1.8209468 69 49 40
-0.027314201 0.052807458 1.8209468 73 52 43
-0.025381196 0.052575335 1.8129426 72 49 42
-0.02348224 0.052383456 1.8063262 105 74 57
-0.021518841 0.052003864 1.7932367 161 111 79
-0.019725606 0.052003864 1.7932367 163 113 76
-0.01779056 0.051592622 1.779056 172 119 80
-0.015954155 0.051407833 1.7726839 178 121 84
-0.014232447 0.051592622 1.779056 183 125 88
-0.012453392 0.051592622 1.779056 187 126 88
-0.010636102 0.051407833 1.7726839 184 123 86
-0.008863419 0.051407833 1.7726839 188 123 88
-0.00706543 0.051224366 1.7663574 189 125 88
-0.0052990722 0.051224366 1.7663574 190 124 89
-0.003532715 0.051224366 1.7663574 190 124 88
-0.0017588249 0.051005926 1.758825 190 124 88
0.0 0.05082531 1.7525969 190 124 88
0.0017525968 0.05082531 1.7525969 191 123 87
0.0035051936 0.05082531 1.7525969 191 122 87
0.0052577904 0.05082531 1.7525969 188 119 85
0.0069856504 0.050645966 1.7464126 185 117 83
0.008732064 0.050645966 1.7464126 184 116 82
0.010478475 0.050645966 1.7464126 183 114 81
0.012224888 0.050645966 1.7464126 179 110 78
0.013971301 0.050645966 1.7464126 181 111 79
0.015717713 0.050645966 1.7464126 176 107 76
0.01739049 0.050432418 1.739049 174 106 74
0.019129539 0.050432418 1.739049 173 105 73
0.020868588 0.050432418 1.739049 172 104 72
0.022607636 0.050432418 1.739049 169 103 71
0.024346685 0.050432418 1.739049 167 101 70
0.026085736 0.050432418 1.739049 165 101 70
0.027824784 0.050432418 1.739049 162 100 70
0.029563831 0.050432418 1.739049 160 100 71
0.03130288 0.050432418 1.739049 159 101 72
0.03304193 0.050432418 1.739049 161 101 73
0.0346592 0.050255835 1.7329599 159 102 74
0.03639216 0.050255835 1.7329599 163 106 79
0.037992094 0.050080486 1.7269133 166 110 84
0.039719004 0.050080486 1.7269133 166 111 84
0.04144592 0.050080486 1.7269133 168 113 83
0.043172833 0.050080486 1.7269133 169 112 82
0.044899747 0.050080486 1.7269133 169 112 82
0.04662666 0.050080486 1.7269133 169 112 81
0.04835357 0.050080486 1.7269133 168 113 82
0.050080486 0.050080486 1.7269133 171 112 81
0.051591385 0.049871672 1.7197129 168 107 77
0.0533111 0.049871672 1.7197129 159 99 71
0.05526123 0.050080486 1.7269133 149 92 66
0.05698814 0.050080486 1.7269133 140 88 63
0.058715053 0.050080486 1.7269133 155 98 72
0.060441967 0.050080486 1.7269133 162 103 74
0.061909664 0.049871672 1.7197129 158 100 74
0.06389579 0.050080486 1.7269133 152 95 71
0.0656227 0.050080486 1.7269133 151 93 68
0.0670688 0.049871672 1.7197129 150 93 69
0.06907653 0.050080486 1.7269133 151 93 71
0.07105135 0.050255835 1.7329599 143 86 64
0.07253036 0.050080486 1.7269133 143 88 66
0.07451727 0.050255835 1.7329599 144 89 67
0.07625024 0.050255835 1.7329599 146 90 65
0.0782572 0.050432418 1.739049 147 91 64
0.07999625 0.050432418 1.739049 147 92 63
0.0817353 0.050432418 1.739049 150 93 64
0.0838278 0.050645966 1.7464126 153 93 65
0.08557422 0.050645966 1.7464126 153 93 65
0.08732063 0.050645966 1.7464126 156 94 68
0.08906705 0.050645966 1.7464126 156 94 68
0.09113504 0.05082531 1.7525969 157 94 68
0.09321772 0.051005926 1.758825 157 94 68
0.094976544 0.051005926 1.758825 159 95 69
0.09673537 0.051005926 1.758825 156 94 69
0.09927029 0.051407833 1.7726839 159 94 69
0.10104298 0.051407833 1.7726839 161 95 70
0.103185244 0.051592622 1.779056 162 97 73
0.1049643 0.051592622 1.779056 164 99 75
0.10674336 0.051592622 1.779056 164 101 78
0.108913906 0.05177874 1.7854738 165 102 80
0.11158497 0.05219297 1.7997576 166 103 81
0.11421539 0.052575335 1.8129426 165 103 80
0.11828131 0.053596217 1.8481455 123 86 72
0.12012946 0.053596217 1.8481455 69 47 37
0.12289542 0.0539995 1.8620517 67 45 35
0.12522861 0.054203425 1.8690836 72 48 38
0.12709768 0.054203425 1.8690836 74 50 41
0.12896676 0.054203425 1.8690836 75 50 41
0.13083586 0.054203425 1.8690836 72 48 38
0.13270494 0.054203425 1.8690836 74 49 40
0.13518664 0.054450177 1.8775923 77 52 42
0.13706423 0.054450177 1.8775923 68 43 32
0.13894184 0.054450177 1.8775923 65 38 27
0.14081943 0.054450177 1.8775923 87 62 51
0.14433974 0.055077005 1.899207 101 73 51
0.16120926 0.060715176 2.0936267 121 88 53
-0.10092099 0.05887058 2.1025207 112 78 48
-0.09100887 0.054218046 1.9363589 93 65 50
-0.087363526 0.053177796 1.899207 73 45 39
-0.08546431 0.053177796 1.899207 68 46 39
-0.08388701 0.053382643 1.9065229 55 41 36
-0.08198048 0.053382643 1.9065229 72 53 44
-0.08007396 0.053382643 1.9065229 113 78 62
-0.077867486 0.053177796 1.899207 119 78 57
-0.07567788 0.05297452 1.891947 110 73 53
-0.07378593 0.05297452 1.891947 91 57 42
-0.07189399 0.05297452 1.891947 100 68 57
-0.07027066 0.053177796 1.899207 94 62 43
-0.06759332 0.052572586 1.8775923 97 63 39
-0.06571573 0.052572586 1.8775923 92 64 42
-0.06383814 0.052572586 1.8775923 86 60 39
-0.06196055 0.052572586 1.8775923 82 56 36
-0.059810676 0.052334342 1.8690836 81 56 38
-0.057723604 0.052137446 1.8620517 77 53 39
-0.055652175 0.05194203 1.8550725 68 51 40
-0.053596217 0.051748075 1.8481455 59 46 38
-0.051748075 0.051748075 1.8481455 54 41 35
-0.04989993 0.051748075 1.8481455 48 34 26
-0.047873016 0.05155556 1.8412699 56 37 28
-0.046031747 0.05155556 1.8412699 80 52 47
-0.044190474 0.05155556 1.8412699 101 70 67
-0.042349204 0.05155556 1.8412699 79 49 43
-0.04050794 0.05155556 1.8412699 101 71 62
-0.03866667 0.05155556 1.8412699 94 65 48
-0.03668891 0.05136447 1.8344454 82 54 44
-0.03485446 0.05136447 1.8344454 73 49 40
-0.033020016 0.05136447 1.8344454 81 55 48
-0.03107041 0.051174793 1.8276712 68 44 36
-0.02924274 0.051174793 1.8276712 67 44 35
-0.027415067 0.051174793 1.8276712 76 53 45
-0.025381196 0.050762393 1.8129426 73 48 40
-0.023568254 0.050762393 1.8129426 88 57 43
-0.021675915 0.050577134 1.8063262 153 106 78
-0.019640213 0.049993265 1.7854738 167 118 78
-0.01779056 0.04981357 1.779056 168 116 79
-0.015954155 0.049635146 1.7726839 173 118 81
-0.014232447 0.04981357 1.779056 182 122 87
-0.012453392 0.04981357 1.779056 185 124 89
-0.010636102 0.049635146 1.7726839 185 123 87
-0.008863419 0.049635146 1.7726839 186 121 87
-0.00706543 0.04945801 1.7663574 186 121 87
-0.0052990722 0.04945801 1.7663574 189 122 88
-0.003532715 0.04945801 1.7663574 190 123 88
-0.0017588249 0.049247097 1.758825 190 123 88
0.0 0.049072713 1.7525969 191 123 87
0.0017525968 0.049072713 1.7525969 191 122 87
0.0035051936 0.049072713 1.7525969 191 121 87
0.0052577904 0.049072713 1.7525969 188 118 84
0.0069856504 0.048899554 1.7464126 183 115 82
0.008732064 0.048899554 1.7464126 184 116 82
0.010478475 0.048899554 1.7464126 184 115 81
0.012224888 0.048899554 1.7464126 180 111 79
0.013971301 0.048899554 1.7464126 177 109 77
0.015717713 0.048899554 1.7464126 176 106 75
0.017464127 0.048899554 1.7464126 175 106 74
0.019129539 0.04869337 1.739049 171 104 72
0.020868588 0.04869337 1.739049 171 104 72
0.022607636 0.04869337 1.739049 171 103 72
0.024346685 0.04869337 1.739049 167 102 70
0.026085736 0.04869337 1.739049 165 100 69
0.027824784 0.04869337 1.739049 161 101 71
0.029563831 0.04869337 1.739049 160 100 71
0.03130288 0.04869337 1.739049 159 100 71
0.03304193 0.04869337 1.739049 159 101 72
0.0346592 0.04852288 1.7329599 162 103 75
0.03639216 0.04852288 1.7329599 164 105 79
0.037992094 0.04835357 1.7269133 165 109 83
0.039719004 0.04835357 1.7269133 166 111 84
0.04144592 0.04835357 1.7269133 167 113 83
0.043172833 0.04835357 1.7269133 167 112 81
0.044899747 0.04835357 1.7269133 168 113 82
0.04662666 0.04835357 1.7269133 170 115 82
0.04835357 0.04835357 1.7269133 172 116 83
0.050080486 0.04835357 1.7269133 171 114 83
0.051591385 0.04815196 1.7197129 166 107 81
0.0533111 0.04815196 1.7197129 165 101 78
0.05526123 0.04835357 1.7269133 158 96 72
0.05698814 0.04835357 1.7269133 152 95 69
0.058470238 0.04815196 1.7197129 160 99 70
0.060189947 0.04815196 1.7197129 162 101 69
0.061909664 0.04815196 1.7197129 159 99 70
0.063629374 0.04815196 1.7197129 156 97 71
0.0656227 0.04835357 1.7269133 150 93 68
0.0670688 0.04815196 1.7197129 150 92 68
0.06907653 0.04835357 1.7269133 151 93 71
0.07105135 0.04852288 1.7329599 143 88 66
0.07253036 0.04835357 1.7269133 142 87 67
0.07451727 0.04852288 1.7329599 143 88 68
0.07625024 0.04852288 1.7329599 144 89 66
0.0782572 0.04869337 1.739049 147 90 66
0.07999625 0.04869337 1.739049 148 91 66
0.0817353 0.04869337 1.739049 149 92 67
0.0838278 0.048899554 1.7464126 148 91 64
0.08557422 0.048899554 1.7464126 154 93 67
0.08732063 0.048899554 1.7464126 155 94 67
0.08906705 0.048899554 1.7464126 156 95 68
0.09081345 0.048899554 1.7464126 156 95 68
0.09288763 0.049072713 1.7525969 156 95 68
0.094976544 0.049247097 1.758825 159 95 69
0.09673537 0.049247097 1.758825 157 94 69
0.09927029 0.049635146 1.7726839 158 94 69
0.10104298 0.049635146 1.7726839 157 94 69
0.103185244 0.04981357 1.779056 160 96 72
0.1049643 0.04981357 1.779056 163 99 76
0.10674336 0.04981357 1.779056 163 99 78
0.108913906 0.049993265 1.7854738 165 102 82
0.11158497 0.050393213 1.7997576 168 106 83
0.11421539 0.050762393 1.8129426 165 105 84
0.11872464 0.05194203 1.8550725 97 66 55
0.12057971 0.05194203 1.8550725 65 47 35
0.12289542 0.052137446 1.8620517 64 45 33
0.12579869 0.052572586 1.8775923 70 47 37
0.12767628 0.052572586 1.8775923 73 50 40
0.12955387 0.052572586 1.8775923 74 50 40
0.13083586 0.052334342 1.8690836 75 50 41
0.13270494 0.052334342 1.8690836 77 51 42
0.13518664 0.052572586 1.8775923 78 52 42
0.13706423 0.052572586 1.8775923 83 57 48
0.13894184 0.052572586 1.8775923 63 35 24
0.14081943 0.052572586 1.8775923 77 51 41
0.14151593 0.052137446 1.8620517 86 60 46
0.15075107 0.05481857 1.957806 118 86 64
0.18056501 0.06481821 2.3149362 140 95 59
-0.106724165 0.060032345 2.2234201 115 82 47
-0.09238232 0.05307069 1.9655812 93 61 40
-0.087363526 0.051278587 1.899207 80 45 34
-0.08481341 0.050888043 1.8847424 93 66 55
-0.084211394 0.051675174 1.9138954 63 43 35
-0.08198048 0.051476117 1.9065229 64 47 35
-0.08007396 0.051476117 1.9065229 106 78 58
-0.07816743 0.051476117 1.9065229 127 85 60
-0.07626092 0.051476117 1.9065229 113 72 44
-0.07378593 0.05108257 1.891947 135 91 70
-0.07189399 0.05108257 1.891947 104 66 43
-0.070002034 0.05108257 1.891947 104 66 41
-0.06837145 0.051278587 1.899207 116 76 51
-0.06571573 0.05069499 1.8775923 114 77 55
-0.06383814 0.05069499 1.8775923 112 79 59
-0.06196055 0.05069499 1.8775923 103 76 54
-0.059810676 0.05046526 1.8690836 87 61 38
-0.057507247 0.050086956 1.8550725 80 58 42
-0.055652175 0.050086956 1.8550725 64 51 39
-0.053596217 0.04989993 1.8481455 59 48 40
-0.051748075 0.04989993 1.8481455 58 44 39
-0.04989993 0.04989993 1.8481455 51 38 31
-0.048051782 0.04989993 1.8481455 49 39 29
-0.046203636 0.04989993 1.8481455 56 40 31
-0.044190474 0.049714286 1.8412699 81 57 53
-0.042349204 0.049714286 1.8412699 85 60 55
-0.04050794 0.049714286 1.8412699 81 54 43
-0.03866667 0.049714286 1.8412699 95 65 50
-0.03668891 0.049530026 1.8344454 76 52 42
-0.03485446 0.049530026 1.8344454 70 46 39
-0.033020016 0.049530026 1.8344454 65 44 35
-0.031185571 0.049530026 1.8344454 64 42 33
