ply
format ascii 1.0
element vertex 1073
property float32 x
property float32 y
property float32 z
property uchar red
property uchar green
property uchar blue
element face 0
property list uint8 int32 vertex_indices
end_header
-0.12344288 -0.32821283 1.4522692 191 170 150
-0.12199061 -0.32821283 1.4522692 191 168 146
-0.12053835 -0.32821283 1.4522692 187 164 141
-0.11950687 -0.3293726 1.4574009 185 161 138
-0.11804948 -0.3293726 1.4574009 174 152 133
-0.11700553 -0.3305406 1.462569 175 153 133
-0.115542956 -0.3305406 1.462569 183 158 137
-0.114080384 -0.3305406 1.462569 180 158 136
-0.11261781 -0.3305406 1.462569 181 156 135
-0.11115524 -0.3305406 1.462569 176 152 129
-0.10969267 -0.3305406 1.462569 158 137 116
-0.1082301 -0.3305406 1.462569 151 131 111
-0.10676754 -0.3305406 1.462569 142 122 104
-0.10530497 -0.3305406 1.462569 145 122 103
-0.1038424 -0.3305406 1.462569 144 121 100
-0.10274417 -0.33171692 1.4677739 139 119 97
-0.1012764 -0.33171692 1.4677739 135 115 95
-0.099808626 -0.33171692 1.4677739 132 112 92
-0.098340854 -0.33171692 1.4677739 133 113 94
-0.096873075 -0.33171692 1.4677739 134 114 95
-0.0954053 -0.33171692 1.4677739 138 117 97
-0.09393753 -0.33171692 1.4677739 135 114 95
-0.09246976 -0.33171692 1.4677739 132 112 93
-0.09100198 -0.33171692 1.4677739 136 114 95
-0.08953421 -0.33171692 1.4677739 134 113 94
-0.08806644 -0.33171692 1.4677739 133 112 93
-0.086598665 -0.33171692 1.4677739 134 113 94
-0.08513089 -0.33171692 1.4677739 137 114 95
-0.08366311 -0.33171692 1.4677739 138 116 96
-0.08219534 -0.33171692 1.4677739 137 116 96
-0.08072756 -0.33171692 1.4677739 140 119 98
-0.07925979 -0.33171692 1.4677739 142 119 99
-0.07779202 -0.33171692 1.4677739 137 115 96
-0.07632424 -0.33171692 1.4677739 138 119 97
-0.07485647 -0.33171692 1.4677739 130 112 92
-0.073388696 -0.33171692 1.4677739 130 110 91
-0.071920924 -0.33171692 1.4677739 131 110 92
-0.07020331 -0.3305406 1.462569 134 113 94
-0.06874075 -0.3305406 1.462569 128 110 92
-0.06727818 -0.3305406 1.462569 132 113 94
-0.065815605 -0.3305406 1.462569 136 116 96
-0.064353034 -0.3305406 1.462569 130 111 93
-0.06289047 -0.3305406 1.462569 133 113 94
-0.0614279 -0.3305406 1.462569 130 109 92
-0.059965327 -0.3305406 1.462569 129 108 91
-0.058502764 -0.3305406 1.462569 135 114 95
-0.057040192 -0.3305406 1.462569 138 117 97
-0.05557762 -0.3305406 1.462569 132 111 93
-0.05411505 -0.3305406 1.462569 135 113 95
-0.05283986 -0.33171692 1.4677739 134 113 95
-0.051372085 -0.33171692 1.4677739 133 113 93
-0.049904313 -0.33171692 1.4677739 131 111 91
-0.048436537 -0.33171692 1.4677739 129 109 90
-0.046968766 -0.33171692 1.4677739 126 107 88
-0.04550099 -0.33171692 1.4677739 127 107 88
-0.04403322 -0.33171692 1.4677739 126 105 88
-0.042565446 -0.33171692 1.4677739 124 103 86
-0.04109767 -0.33171692 1.4677739 125 104 86
-0.039629895 -0.33171692 1.4677739 129 107 89
-0.03816212 -0.33171692 1.4677739 129 108 91
-0.036694348 -0.33171692 1.4677739 131 109 91
-0.035226572 -0.33171692 1.4677739 129 109 92
-0.0337588 -0.33171692 1.4677739 133 111 94
-0.03229103 -0.33171692 1.4677739 140 117 99
-0.030823251 -0.33171692 1.4677739 149 129 111
-0.029355478 -0.33171692 1.4677739 158 139 121
-0.027987303 -0.33290157 1.4730159 163 146 130
-0.026514286 -0.33290157 1.4730159 173 154 134
-0.025041271 -0.33290157 1.4730159 184 164 146
-0.023401104 -0.3305406 1.462569 193 171 151
-0.021938536 -0.3305406 1.462569 193 173 152
-0.020475965 -0.3305406 1.462569 195 173 152
-0.019013397 -0.3305406 1.462569 195 173 151
-0.017550828 -0.3305406 1.462569 191 170 149
-0.016088258 -0.3305406 1.462569 190 169 149
-0.014625691 -0.3305406 1.462569 190 171 152
-0.013163121 -0.3305406 1.462569 195 177 155
-0.011700552 -0.3305406 1.462569 206 186 164
-0.010274418 -0.33171692 1.4677739 211 190 167
-0.008806643 -0.33171692 1.4677739 208 188 166
-0.0073388694 -0.33171692 1.4677739 209 189 167
-0.005850276 -0.3305406 1.462569 214 192 169
-0.004387707 -0.3305406 1.462569 210 189 167
-0.002925138 -0.3305406 1.462569 206 183 162
-0.001462569 -0.3305406 1.462569 202 182 159
0.0 -0.33171692 1.4677739 204 184 160
0.0014677739 -0.33171692 1.4677739 204 184 160
0.0029355478 -0.33171692 1.4677739 209 186 163
0.0044033215 -0.33171692 1.4677739 207 185 163
0.0058710957 -0.33171692 1.4677739 206 185 164
0.0073388694 -0.33171692 1.4677739 211 188 168
0.008806643 -0.33171692 1.4677739 218 192 172
0.010274418 -0.33171692 1.4677739 219 195 174
0.011742191 -0.33171692 1.4677739 215 194 171
0.013209965 -0.33171692 1.4677739 219 195 173
0.014677739 -0.33171692 1.4677739 217 196 172
0.016145514 -0.33171692 1.4677739 214 190 168
0.017613286 -0.33171692 1.4677739 204 182 159
0.01908106 -0.33171692 1.4677739 198 176 153
0.020548835 -0.33171692 1.4677739 203 180 155
0.02201661 -0.33171692 1.4677739 206 183 159
0.023484383 -0.33171692 1.4677739 210 185 162
0.024952156 -0.33171692 1.4677739 207 186 163
0.02641993 -0.33171692 1.4677739 207 185 162
0.027887706 -0.33171692 1.4677739 206 186 163
0.029355478 -0.33171692 1.4677739 207 187 164
0.030823251 -0.33171692 1.4677739 208 188 165
0.03229103 -0.33171692 1.4677739 209 186 165
0.0337588 -0.33171692 1.4677739 207 185 164
0.035226572 -0.33171692 1.4677739 206 184 161
0.036694348 -0.33171692 1.4677739 212 188 165
0.03816212 -0.33171692 1.4677739 206 183 160
0.039629895 -0.33171692 1.4677739 212 187 164
0.04109767 -0.33171692 1.4677739 212 190 166
0.042565446 -0.33171692 1.4677739 217 193 170
0.04403322 -0.33171692 1.4677739 208 185 162
0.04550099 -0.33171692 1.4677739 210 186 163
0.046968766 -0.33171692 1.4677739 206 183 161
0.048436537 -0.33171692 1.4677739 207 181 157
0.049904313 -0.33171692 1.4677739 195 173 150
0.051372085 -0.33171692 1.4677739 199 176 153
0.05283986 -0.33171692 1.4677739 209 185 161
0.054307636 -0.33171692 1.4677739 206 184 161
0.05577541 -0.33171692 1.4677739 210 188 166
0.057243183 -0.33171692 1.4677739 215 194 171
0.058710955 -0.33171692 1.4677739 215 196 172
0.06017873 -0.33171692 1.4677739 213 192 170
0.061646502 -0.33171692 1.4677739 210 190 168
0.06311428 -0.33171692 1.4677739 213 191 169
0.06458206 -0.33171692 1.4677739 208 187 165
0.06604983 -0.33171692 1.4677739 207 185 164
0.0675176 -0.33171692 1.4677739 202 181 160
0.06898537 -0.33171692 1.4677739 203 182 162
0.07020331 -0.3305406 1.462569 201 179 159
0.071665876 -0.3305406 1.462569 189 168 150
0.07312845 -0.3305406 1.462569 198 176 157
0.07459102 -0.3305406 1.462569 189 167 148
0.07605359 -0.3305406 1.462569 173 151 132
0.07751616 -0.3305406 1.462569 171 148 128
0.07897873 -0.3305406 1.462569 162 142 120
0.08072756 -0.33171692 1.4677739 155 134 113
0.08219534 -0.33171692 1.4677739 145 125 105
0.08366311 -0.33171692 1.4677739 136 116 100
0.08513089 -0.33171692 1.4677739 131 110 94
0.086598665 -0.33171692 1.4677739 132 110 94
0.08806644 -0.33171692 1.4677739 130 109 92
0.08953421 -0.33171692 1.4677739 131 110 93
0.09100198 -0.33171692 1.4677739 135 113 96
0.09246976 -0.33171692 1.4677739 136 114 97
0.09393753 -0.33171692 1.4677739 135 114 98
0.0954053 -0.33171692 1.4677739 139 118 101
0.096873075 -0.33171692 1.4677739 139 119 101
0.098340854 -0.33171692 1.4677739 134 114 97
0.099808626 -0.33171692 1.4677739 135 115 97
0.1012764 -0.33171692 1.4677739 137 116 98
0.10274417 -0.33171692 1.4677739 136 116 98
0.10421194 -0.33171692 1.4677739 135 114 97
0.10567972 -0.33171692 1.4677739 132 111 96
0.1071475 -0.33171692 1.4677739 129 110 94
0.10861527 -0.33171692 1.4677739 134 114 97
0.11008304 -0.33171692 1.4677739 131 113 96
0.11155082 -0.33171692 1.4677739 132 112 97
0.113018595 -0.33171692 1.4677739 137 118 100
0.11448637 -0.33171692 1.4677739 139 118 101
0.11595414 -0.33171692 1.4677739 140 119 102
0.11784127 -0.33290157 1.4730159 138 117 100
0.11931428 -0.33290157 1.4730159 137 114 99
0.12078731 -0.33290157 1.4730159 136 114 98
0.122260325 -0.33290157 1.4730159 127 108 94
0.123733334 -0.33290157 1.4730159 131 111 96
0.12520635 -0.33290157 1.4730159 143 123 104
0.12667936 -0.33290157 1.4730159 148 125 106
0.12815239 -0.33290157 1.4730159 140 120 102
0.1296254 -0.33290157 1.4730159 144 123 105
0.13109842 -0.33290157 1.4730159 151 130 112
0.13257143 -0.33290157 1.4730159 161 139 121
0.13404445 -0.33290157 1.4730159 169 146 129
0.13551746 -0.33290157 1.4730159 176 153 135
0.13699047 -0.33290157 1.4730159 176 153 136
0.1384635 -0.33290157 1.4730159 172 151 133
0.1399365 -0.33290157 1.4730159 176 154 135
0.14140953 -0.33290157 1.4730159 186 163 144
0.14288254 -0.33290157 1.4730159 186 163 144
0.14384185 -0.33171692 1.4677739 190 166 148
0.14530961 -0.33171692 1.4677739 193 169 152
0.14677739 -0.33171692 1.4677739 204 180 160
0.14824516 -0.33171692 1.4677739 207 186 162
0.14971294 -0.33171692 1.4677739 202 177 157
0.15118071 -0.33171692 1.4677739 195 173 154
0.15264848 -0.33171692 1.4677739 204 184 162
0.15411626 -0.33171692 1.4677739 213 192 168
0.15558404 -0.33171692 1.4677739 193 172 153
0.1570518 -0.33171692 1.4677739 205 180 160
0.15851958 -0.33171692 1.4677739 204 182 161
0.15998735 -0.33171692 1.4677739 202 181 160
0.16145512 -0.33171692 1.4677739 192 168 151
0.1629229 -0.33171692 1.4677739 172 151 135
0.16439068 -0.33171692 1.4677739 184 162 144
0.16585846 -0.33171692 1.4677739 195 172 153
0.16732623 -0.33171692 1.4677739 202 180 160
0.168794 -0.33171692 1.4677739 204 181 160
0.17026179 -0.33171692 1.4677739 201 179 159
0.17172955 -0.33171692 1.4677739 195 173 154
0.17319733 -0.33171692 1.4677739 195 174 154
0.17404571 -0.3305406 1.462569 200 179 157
0.17550829 -0.3305406 1.462569 200 180 159
0.17697085 -0.3305406 1.462569 199 176 155
0.17780292 -0.3293726 1.4574009 201 180 158
0.1786291 -0.32821283 1.4522692 201 179 157
0.18008138 -0.32821283 1.4522692 194 172 151
0.18153365 -0.32821283 1.4522692 190 167 147
0.18298592 -0.32821283 1.4522692 190 166 147
0.18443818 -0.32821283 1.4522692 183 162 142
0.18589045 -0.32821283 1.4522692 186 163 144
0.18734273 -0.32821283 1.4522692 186 163 144
0.188795 -0.32821283 1.4522692 167 147 130
0.18957974 -0.3270612 1.4471736 168 148 131
0.19102691 -0.3270612 1.4471736 177 155 138
0.1924741 -0.3270612 1.4471736 188 165 145
0.19392127 -0.3270612 1.4471736 188 167 147
0.19536844 -0.3270612 1.4471736 177 156 138
0.19612744 -0.32591766 1.4421135 178 159 139
0.19826278 -0.3270612 1.4471736 178 158 139
0.19970997 -0.3270612 1.4471736 177 157 138
0.20115714 -0.3270612 1.4471736 177 157 136
0.20119242 -0.32478204 1.4370887 172 150 128
0.19613716 -0.31437585 1.3910437 170 149 130
-0.19612108 -0.3091631 1.361952 244 170 0
-0.19475913 -0.3091631 1.361952 244 171 0
-0.19339716 -0.3091631 1.361952 244 170 0
-0.19203521 -0.3091631 1.361952 245 173 0
-0.19067328 -0.3091631 1.361952 246 175 0
-0.18931133 -0.3091631 1.361952 249 176 0
-0.18722807 -0.30797663 1.3567252 248 176 0
-0.18587135 -0.30797663 1.3567252 247 176 0
-0.18522546 -0.3091631 1.361952 248 175 0
-0.18315789 -0.30797663 1.3567252 248 176 0
-0.18250155 -0.3091631 1.361952 250 177 0
-0.1811396 -0.3091631 1.361952 249 179 0
-0.17977767 -0.3091631 1.361952 249 179 0
-0.17841572 -0.3091631 1.361952 249 179 0
-0.17637429 -0.30797663 1.3567252 249 179 0
-0.1756918 -0.3091631 1.361952 247 179 0
-0.17432985 -0.3091631 1.361952 248 179 0
-0.17354095 -0.31018737 1.3664643 248 179 0
-0.1721745 -0.31018737 1.3664643 248 179 0
-0.17080803 -0.31018737 1.3664643 249 179 0
-0.16944158 -0.31018737 1.3664643 249 181 0
-0.16752009 -0.3091631 1.361952 249 181 0
-0.16670863 -0.31018737 1.3664643 249 181 0
-0.16598374 -0.311391 1.3717664 249 181 0
-0.1639757 -0.31018737 1.3664643 249 181 0
-0.16324021 -0.311391 1.3717664 249 181 0
-0.16186844 -0.311391 1.3717664 249 181 0
-0.16049667 -0.311391 1.3717664 250 180 0
-0.15965591 -0.3124301 1.3763441 249 181 0
-0.15827957 -0.3124301 1.3763441 249 181 0
-0.15690322 -0.3124301 1.3763441 249 181 0
-0.15552689 -0.3124301 1.3763441 249 181 0
-0.15415055 -0.3124301 1.3763441 251 181 0
-0.1527742 -0.3124301 1.3763441 247 179 0
-0.15139784 -0.3124301 1.3763441 245 177 0
-0.15052381 -0.31347623 1.3809525 241 170 0
-0.14914286 -0.31347623 1.3809525 218 130 0
-0.14776191 -0.31347623 1.3809525 211 111 0
-0.14638096 -0.31347623 1.3809525 213 108 0
-0.14500001 -0.31347623 1.3809525 210 108 0
-0.14466855 -0.3157669 1.3910437 210 107 0
-0.1432775 -0.3157669 1.3910437 210 108 0
-0.14188646 -0.3157669 1.3910437 208 109 0
-0.1404954 -0.3157669 1.3910437 207 110 0
-0.13910437 -0.3157669 1.3910437 206 117 0
-0.13920002 -0.31917578 1.4060607 204 146 66
-0.13826531 -0.3202676 1.4108704 204 173 149
-0.13787632 -0.322659 1.4214053 194 170 145
-0.1369268 -0.32377484 1.4263209 202 173 144
-0.1359707 -0.32489842 1.4312705 201 176 149
-0.13508633 -0.32621914 1.4370887 202 174 148
-0.13364924 -0.32621914 1.4370887 198 172 147
-0.13221216 -0.32621914 1.4370887 203 175 151
-0.13077506 -0.32621914 1.4370887 198 173 149
-0.12979022 -0.32735977 1.4421135 191 166 143
-0.1283481 -0.32735977 1.4421135 191 166 145
-0.12735127 -0.3285084 1.4471736 198 173 149
-0.12590411 -0.3285084 1.4471736 207 182 158
-0.124456935 -0.3285084 1.4471736 207 185 165
-0.123009756 -0.3285084 1.4471736 201 180 158
-0.121562585 -0.3285084 1.4471736 196 174 151
-0.12053835 -0.3296651 1.4522692 188 165 143
-0.11908607 -0.3296651 1.4522692 189 163 139
-0.117633805 -0.3296651 1.4522692 171 148 124
-0.11618154 -0.3296651 1.4522692 176 153 134
-0.11472926 -0.3296651 1.4522692 180 156 138
-0.113277 -0.3296651 1.4522692 182 157 137
-0.11182473 -0.3296651 1.4522692 184 160 137
-0.11037246 -0.3296651 1.4522692 179 155 132
-0.10892019 -0.3296651 1.4522692 164 142 121
-0.10746792 -0.3296651 1.4522692 157 138 117
-0.106015645 -0.3296651 1.4522692 151 129 111
-0.10493287 -0.33083 1.4574009 145 123 105
-0.10347547 -0.33083 1.4574009 143 120 98
-0.102018066 -0.33083 1.4574009 138 117 96
-0.10056066 -0.33083 1.4574009 136 114 95
-0.099103265 -0.33083 1.4574009 134 112 93
-0.09764586 -0.33083 1.4574009 138 116 96
-0.09618846 -0.33083 1.4574009 135 115 95
-0.094731055 -0.33083 1.4574009 136 115 95
-0.09327366 -0.33083 1.4574009 133 111 93
-0.09181626 -0.33083 1.4574009 133 112 93
-0.09035885 -0.33083 1.4574009 133 112 93
-0.08890146 -0.33083 1.4574009 135 112 93
-0.08744405 -0.33083 1.4574009 133 111 92
-0.08598666 -0.33083 1.4574009 135 113 94
-0.08452925 -0.33083 1.4574009 134 114 94
-0.08307185 -0.33083 1.4574009 139 118 96
-0.08161445 -0.33083 1.4574009 133 113 92
-0.08015705 -0.33083 1.4574009 143 121 98
-0.07869965 -0.33083 1.4574009 150 125 102
-0.07724225 -0.33083 1.4574009 139 116 96
-0.075784855 -0.33083 1.4574009 135 115 94
-0.07432745 -0.33083 1.4574009 134 115 94
-0.072870046 -0.33083 1.4574009 127 108 90
-0.071412645 -0.33083 1.4574009 131 111 92
-0.07020331 -0.33200318 1.462569 135 114 96
-0.06874075 -0.33200318 1.462569 130 111 93
-0.06727818 -0.33200318 1.462569 133 114 95
-0.065815605 -0.33200318 1.462569 140 117 98
-0.064353034 -0.33200318 1.462569 139 118 98
-0.06289047 -0.33200318 1.462569 132 110 93
-0.0614279 -0.33200318 1.462569 127 105 89
-0.059965327 -0.33200318 1.462569 127 107 90
-0.058502764 -0.33200318 1.462569 130 110 92
-0.057040192 -0.33200318 1.462569 135 113 95
-0.05557762 -0.33200318 1.462569 129 109 91
-0.05411505 -0.33200318 1.462569 128 108 91
-0.052652486 -0.33200318 1.462569 135 115 96
-0.051189914 -0.33200318 1.462569 137 116 95
-0.049727343 -0.33200318 1.462569 133 113 93
-0.04826478 -0.33200318 1.462569 133 113 93
-0.046802208 -0.33200318 1.462569 127 107 89
-0.045339637 -0.33200318 1.462569 130 109 90
-0.043877073 -0.33200318 1.462569 126 105 87
-0.0424145 -0.33200318 1.462569 124 104 86
-0.04095193 -0.33200318 1.462569 124 104 86
-0.039489366 -0.33200318 1.462569 126 105 88
-0.038026795 -0.33200318 1.462569 128 107 90
-0.036564223 -0.33200318 1.462569 128 108 90
-0.035101656 -0.33200318 1.462569 131 109 92
-0.03363909 -0.33200318 1.462569 134 111 94
-0.032176517 -0.33200318 1.462569 141 118 99
-0.03071395 -0.33200318 1.462569 147 127 110
-0.029251382 -0.33200318 1.462569 158 139 121
-0.02778881 -0.33200318 1.462569 164 147 130
-0.026326243 -0.33200318 1.462569 174 153 134
-0.024952156 -0.3331847 1.4677739 184 164 144
-0.023484383 -0.3331847 1.4677739 188 167 148
-0.02201661 -0.3331847 1.4677739 195 174 153
-0.020548835 -0.3331847 1.4677739 193 174 152
-0.01908106 -0.3331847 1.4677739 195 176 153
-0.017613286 -0.3331847 1.4677739 206 184 161
-0.016145514 -0.3331847 1.4677739 209 189 166
-0.014677739 -0.3331847 1.4677739 209 189 166
-0.013209965 -0.3331847 1.4677739 209 187 164
-0.011742191 -0.3331847 1.4677739 214 191 167
-0.010274418 -0.3331847 1.4677739 218 196 171
-0.008806643 -0.3331847 1.4677739 218 197 173
-0.0073388694 -0.3331847 1.4677739 214 195 174
-0.0058710957 -0.3331847 1.4677739 213 192 172
-0.0044033215 -0.3331847 1.4677739 214 192 172
-0.0029355478 -0.3331847 1.4677739 212 187 168
-0.0014677739 -0.3331847 1.4677739 209 186 163
0.0 -0.3331847 1.4677739 209 187 163
0.0014677739 -0.3331847 1.4677739 208 186 164
0.0029355478 -0.3331847 1.4677739 207 184 162
0.0044033215 -0.3331847 1.4677739 210 187 166
0.0058710957 -0.3331847 1.4677739 203 182 162
0.0073388694 -0.3331847 1.4677739 203 179 160
0.008775414 -0.33200318 1.462569 201 176 158
0.0102379825 -0.33200318 1.462569 209 185 165
0.011700552 -0.33200318 1.462569 218 196 174
0.013163121 -0.33200318 1.462569 219 196 175
0.014625691 -0.33200318 1.462569 216 197 173
0.016088258 -0.33200318 1.462569 217 195 172
0.017550828 -0.33200318 1.462569 205 183 160
0.019013397 -0.33200318 1.462569 203 179 157
0.020475965 -0.33200318 1.462569 208 184 160
0.021938536 -0.33200318 1.462569 208 186 162
0.023401104 -0.33200318 1.462569 208 185 162
0.024863672 -0.33200318 1.462569 207 186 163
0.026326243 -0.33200318 1.462569 209 188 165
0.02778881 -0.33200318 1.462569 212 190 167
0.029251382 -0.33200318 1.462569 205 184 162
0.03071395 -0.33200318 1.462569 211 190 166
0.032176517 -0.33200318 1.462569 216 192 170
0.03363909 -0.33200318 1.462569 212 190 167
0.035101656 -0.33200318 1.462569 214 190 167
0.036564223 -0.33200318 1.462569 204 181 159
0.038026795 -0.33200318 1.462569 201 178 157
0.039489366 -0.33200318 1.462569 221 199 173
0.04095193 -0.33200318 1.462569 222 200 175
0.0424145 -0.33200318 1.462569 214 193 167
0.043877073 -0.33200318 1.462569 206 183 161
0.045339637 -0.33200318 1.462569 213 189 166
0.046802208 -0.33200318 1.462569 206 181 159
0.04826478 -0.33200318 1.462569 208 184 159
0.049727343 -0.33200318 1.462569 210 189 163
0.051189914 -0.33200318 1.462569 206 184 159
0.052652486 -0.33200318 1.462569 205 180 158
0.05411505 -0.33200318 1.462569 204 184 160
0.05557762 -0.33200318 1.462569 207 185 163
0.057040192 -0.33200318 1.462569 212 190 168
0.058502764 -0.33200318 1.462569 213 191 169
0.059965327 -0.33200318 1.462569 214 190 169
0.0614279 -0.33200318 1.462569 209 186 165
0.06289047 -0.33200318 1.462569 206 184 163
0.064353034 -0.33200318 1.462569 206 185 164
0.065815605 -0.33200318 1.462569 210 188 166
0.06727818 -0.33200318 1.462569 209 188 165
0.06874075 -0.33200318 1.462569 203 180 160
0.07020331 -0.33200318 1.462569 194 173 153
0.071665876 -0.33200318 1.462569 198 179 158
0.07312845 -0.33200318 1.462569 203 181 160
0.07459102 -0.33200318 1.462569 196 174 153
0.07605359 -0.33200318 1.462569 183 162 142
0.07751616 -0.33200318 1.462569 171 150 131
0.07897873 -0.33200318 1.462569 173 151 130
0.08072756 -0.3331847 1.4677739 168 148 126
0.08219534 -0.3331847 1.4677739 162 141 119
0.08366311 -0.3331847 1.4677739 153 130 111
0.08513089 -0.3331847 1.4677739 140 119 102
0.086598665 -0.3331847 1.4677739 136 114 98
0.08806644 -0.3331847 1.4677739 135 113 97
0.08953421 -0.3331847 1.4677739 135 112 96
0.09100198 -0.3331847 1.4677739 135 113 96
0.09246976 -0.3331847 1.4677739 134 113 96
0.09393753 -0.3331847 1.4677739 132 112 96
0.0954053 -0.3331847 1.4677739 135 114 98
0.096873075 -0.3331847 1.4677739 140 119 102
0.098340854 -0.3331847 1.4677739 137 117 100
0.099808626 -0.3331847 1.4677739 136 117 100
0.1012764 -0.3331847 1.4677739 136 116 100
0.10274417 -0.3331847 1.4677739 139 118 102
0.10421194 -0.3331847 1.4677739 138 117 100
0.10567972 -0.3331847 1.4677739 133 111 96
0.1071475 -0.3331847 1.4677739 130 109 95
0.10861527 -0.3331847 1.4677739 137 115 99
0.11008304 -0.3331847 1.4677739 138 116 100
0.11155082 -0.3331847 1.4677739 133 112 97
0.113018595 -0.3331847 1.4677739 134 114 98
0.11448637 -0.3331847 1.4677739 140 119 103
0.11595414 -0.3331847 1.4677739 143 122 105
0.11742191 -0.3331847 1.4677739 146 123 106
0.11888969 -0.3331847 1.4677739 145 121 105
0.12035746 -0.3331847 1.4677739 144 122 106
0.12182523 -0.3331847 1.4677739 147 125 108
0.123293005 -0.3331847 1.4677739 152 131 113
0.12476078 -0.3331847 1.4677739 160 137 119
0.12622856 -0.3331847 1.4677739 161 138 122
0.12769632 -0.3331847 1.4677739 158 137 121
0.12916411 -0.3331847 1.4677739 163 141 125
0.13063188 -0.3331847 1.4677739 170 151 133
0.13209966 -0.3331847 1.4677739 179 156 140
0.13356742 -0.3331847 1.4677739 181 159 142
0.1350352 -0.3331847 1.4677739 185 162 144
0.13650298 -0.3331847 1.4677739 182 160 142
0.13797075 -0.3331847 1.4677739 179 157 138
0.13943852 -0.3331847 1.4677739 172 150 133
0.14090629 -0.3331847 1.4677739 179 156 139
0.14237407 -0.3331847 1.4677739 187 164 146
0.14384185 -0.3331847 1.4677739 194 168 151
0.14530961 -0.3331847 1.4677739 194 173 155
0.14677739 -0.3331847 1.4677739 200 178 158
0.14824516 -0.3331847 1.4677739 203 180 159
0.14971294 -0.3331847 1.4677739 208 185 162
0.15118071 -0.3331847 1.4677739 207 187 164
0.15210718 -0.33200318 1.462569 215 195 170
0.15356974 -0.33200318 1.462569 215 193 170
0.15503232 -0.33200318 1.462569 186 165 147
0.15649489 -0.33200318 1.462569 192 170 152
0.15795746 -0.33200318 1.462569 203 182 161
0.15942001 -0.33200318 1.462569 199 177 157
0.16088258 -0.33200318 1.462569 197 175 155
0.16234516 -0.33200318 1.462569 194 172 153
0.16380772 -0.33200318 1.462569 189 166 148
0.1652703 -0.33200318 1.462569 190 169 150
0.16673286 -0.33200318 1.462569 199 176 157
0.16819544 -0.33200318 1.462569 202 178 158
0.169658 -0.33200318 1.462569 197 175 155
0.17112057 -0.33200318 1.462569 188 168 149
0.17197332 -0.33083 1.4574009 194 171 151
0.17343071 -0.33083 1.4574009 198 174 154
0.1748881 -0.33083 1.4574009 199 178 157
0.1763455 -0.33083 1.4574009 193 173 153
0.17780292 -0.33083 1.4574009 196 177 155
0.17926031 -0.33083 1.4574009 199 180 158
0.18008138 -0.3296651 1.4522692 201 180 158
0.18153365 -0.3296651 1.4522692 187 166 146
0.18298592 -0.3296651 1.4522692 184 161 142
0.18443818 -0.3296651 1.4522692 188 167 147
0.18523823 -0.3285084 1.4471736 195 171 150
0.18734273 -0.3296651 1.4522692 190 168 148
0.18813257 -0.3285084 1.4471736 188 166 146
0.18891688 -0.32735977 1.4421135 180 159 141
0.19102691 -0.3285084 1.4471736 174 154 136
0.1918011 -0.32735977 1.4421135 184 162 143
0.19392127 -0.3285084 1.4471736 183 161 142
0.19468533 -0.32735977 1.4421135 178 157 139
0.19612744 -0.32735977 1.4421135 178 156 138
0.19826278 -0.3285084 1.4471736 180 157 138
0.19970997 -0.3285084 1.4471736 176 154 135
0.20115714 -0.3285084 1.4471736 178 155 135
0.19968492 -0.32377484 1.4263209 172 148 130
0.19341907 -0.311391 1.3717664 163 141 127
-0.1885848 -0.30933335 1.3567252 237 162 0
-0.18722807 -0.30933335 1.3567252 239 163 0
-0.18587135 -0.30933335 1.3567252 240 166 0
-0.18451463 -0.30933335 1.3567252 241 168 0
-0.18315789 -0.30933335 1.3567252 241 168 0
-0.18180119 -0.30933335 1.3567252 243 170 0
-0.18044446 -0.30933335 1.3567252 243 171 0
-0.17908773 -0.30933335 1.3567252 244 173 0
-0.177731 -0.30933335 1.3567252 245 175 0
-0.17637429 -0.30933335 1.3567252 247 175 0
-0.17501755 -0.30933335 1.3567252 247 177 0
-0.17366083 -0.30933335 1.3567252 249 176 0
-0.17230411 -0.30933335 1.3567252 249 177 0
-0.17094737 -0.30933335 1.3567252 249 178 0
-0.16959065 -0.30933335 1.3567252 247 177 0
-0.16823393 -0.30933335 1.3567252 247 177 0
-0.1668772 -0.30933335 1.3567252 247 177 0
-0.16615814 -0.31052506 1.361952 246 178 0
-0.16479619 -0.31052506 1.361952 248 180 0
-0.16343424 -0.31052506 1.361952 249 182 0
-0.16207229 -0.31052506 1.361952 249 181 0
-0.16071032 -0.31052506 1.361952 248 181 0
-0.15987632 -0.31155387 1.3664643 249 181 0
-0.15850985 -0.31155387 1.3664643 249 181 0
-0.15775314 -0.31276277 1.3717664 249 181 0
-0.15638138 -0.31276277 1.3717664 249 181 0
-0.15500961 -0.31276277 1.3717664 249 181 0
-0.15363784 -0.31276277 1.3717664 248 180 0
-0.15226609 -0.31276277 1.3717664 246 179 0
-0.1508943 -0.31276277 1.3717664 242 176 0
-0.14952254 -0.31276277 1.3717664 230 144 0
-0.14864516 -0.31380644 1.3763441 209 113 0
-0.14726882 -0.31380644 1.3763441 212 108 0
-0.14589247 -0.31380644 1.3763441 211 107 0
-0.14500001 -0.31485718 1.3809525 210 108 0
-0.14418226 -0.3160919 1.3863679 211 107 0
-0.1427959 -0.3160919 1.3863679 209 108 0
-0.14188646 -0.31715795 1.3910437 210 108 0
-0.14002316 -0.3160919 1.3863679 207 110 0
-0.13965389 -0.31841084 1.3965389 206 118 0
-0.13920002 -0.32058185 1.4060607 203 146 68
-0.13826531 -0.32167846 1.4108704 203 174 147
-0.13787632 -0.3240804 1.4214053 200 174 149
-0.13645491 -0.3240804 1.4214053 202 174 144
-0.13550049 -0.32520118 1.4263209 202 177 151
-0.13453943 -0.32632968 1.4312705 204 179 152
-0.13364924 -0.3276562 1.4370887 196 170 145
-0.13221216 -0.3276562 1.4370887 193 168 144
-0.13077506 -0.3276562 1.4370887 195 169 146
-0.12933798 -0.3276562 1.4370887 205 178 153
-0.1283481 -0.32880187 1.4421135 194 169 147
-0.126906 -0.32880187 1.4421135 201 177 152
-0.12546387 -0.32880187 1.4421135 204 179 156
-0.124456935 -0.32995558 1.4471736 205 183 164
-0.12257965 -0.32880187 1.4421135 200 179 157
-0.121562585 -0.32995558 1.4471736 194 172 149
-0.12011541 -0.32995558 1.4471736 189 168 144
-0.118668236 -0.32995558 1.4471736 182 154 133
-0.117221065 -0.32995558 1.4471736 175 152 133
-0.11618154 -0.33111736 1.4522692 181 157 135
-0.11472926 -0.33111736 1.4522692 179 157 135
-0.113277 -0.33111736 1.4522692 181 159 136
-0.11182473 -0.33111736 1.4522692 183 160 138
-0.11037246 -0.33111736 1.4522692 177 155 132
-0.10892019 -0.33111736 1.4522692 169 147 126
-0.10746792 -0.33111736 1.4522692 163 143 120
-0.106015645 -0.33111736 1.4522692 156 134 111
-0.10493287 -0.3322874 1.4574009 146 122 103
-0.10347547 -0.3322874 1.4574009 138 117 99
-0.102018066 -0.3322874 1.4574009 137 114 94
-0.10056066 -0.3322874 1.4574009 136 114 95
-0.099103265 -0.3322874 1.4574009 139 116 96
-0.09764586 -0.3322874 1.4574009 134 113 94
-0.09618846 -0.3322874 1.4574009 135 113 93
-0.094731055 -0.3322874 1.4574009 127 107 89
-0.09327366 -0.3322874 1.4574009 126 105 88
-0.09181626 -0.3322874 1.4574009 133 110 92
-0.09035885 -0.3322874 1.4574009 132 111 91
-0.08890146 -0.3322874 1.4574009 129 107 90
-0.08744405 -0.3322874 1.4574009 127 106 89
-0.08598666 -0.3322874 1.4574009 132 111 92
-0.08452925 -0.3322874 1.4574009 135 115 94
-0.08307185 -0.3322874 1.4574009 140 119 97
-0.08161445 -0.3322874 1.4574009 140 118 96
-0.08015705 -0.3322874 1.4574009 142 120 98
-0.07869965 -0.3322874 1.4574009 150 126 101
-0.07724225 -0.3322874 1.4574009 136 114 94
-0.075784855 -0.3322874 1.4574009 129 110 90
-0.07432745 -0.3322874 1.4574009 134 114 93
-0.072870046 -0.3322874 1.4574009 134 113 93
-0.071412645 -0.3322874 1.4574009 132 112 92
-0.069955245 -0.3322874 1.4574009 129 110 92
-0.068497844 -0.3322874 1.4574009 136 115 96
-0.06704044 -0.3322874 1.4574009 135 115 95
-0.065583035 -0.3322874 1.4574009 134 114 95
-0.06412564 -0.3322874 1.4574009 135 114 95
-0.06289047 -0.33346573 1.462569 130 110 92
-0.0614279 -0.33346573 1.462569 127 107 90
-0.059965327 -0.33346573 1.462569 128 108 91
-0.058502764 -0.33346573 1.462569 132 111 93
-0.057040192 -0.33346573 1.462569 133 110 93
-0.05557762 -0.33346573 1.462569 123 103 87
-0.05411505 -0.33346573 1.462569 127 107 91
-0.052652486 -0.33346573 1.462569 135 114 96
-0.051189914 -0.33346573 1.462569 134 114 94
-0.049727343 -0.33346573 1.462569 130 110 91
-0.04826478 -0.33346573 1.462569 132 112 92
-0.046802208 -0.33346573 1.462569 125 106 88
-0.045339637 -0.33346573 1.462569 126 106 88
-0.043877073 -0.33346573 1.462569 126 105 88
-0.0424145 -0.33346573 1.462569 125 104 87
-0.04095193 -0.33346573 1.462569 124 104 87
-0.039489366 -0.33346573 1.462569 129 108 91
-0.038026795 -0.33346573 1.462569 127 106 89
-0.036564223 -0.33346573 1.462569 130 109 91
-0.035101656 -0.33346573 1.462569 132 111 94
-0.03363909 -0.33346573 1.462569 137 114 96
-0.032176517 -0.33346573 1.462569 144 119 100
-0.03071395 -0.33346573 1.462569 150 129 111
-0.029251382 -0.33346573 1.462569 156 136 119
-0.02778881 -0.33346573 1.462569 163 146 130
-0.026326243 -0.33346573 1.462569 176 154 135
-0.024863672 -0.33346573 1.462569 183 162 143
-0.023318416 -0.3322874 1.4574009 190 169 148
-0.021861013 -0.3322874 1.4574009 195 173 152
-0.020403612 -0.3322874 1.4574009 192 172 151
-0.018946214 -0.3322874 1.4574009 194 175 152
-0.017488811 -0.3322874 1.4574009 208 188 164
-0.01603141 -0.3322874 1.4574009 213 192 169
-0.014574009 -0.3322874 1.4574009 213 192 171
-0.013116608 -0.3322874 1.4574009 213 192 169
-0.011659208 -0.3322874 1.4574009 212 189 166
-0.010201806 -0.3322874 1.4574009 216 192 168
-0.008744406 -0.3322874 1.4574009 218 196 173
-0.0072870045 -0.3322874 1.4574009 216 194 175
-0.005829604 -0.3322874 1.4574009 217 194 175
-0.004372203 -0.3322874 1.4574009 216 192 174
-0.002914802 -0.3322874 1.4574009 216 194 174
-0.001457401 -0.3322874 1.4574009 214 191 168
0.0 -0.3322874 1.4574009 208 187 163
0.001457401 -0.3322874 1.4574009 218 194 170
0.002914802 -0.3322874 1.4574009 209 188 165
0.004372203 -0.3322874 1.4574009 214 191 170
0.005829604 -0.3322874 1.4574009 205 182 162
0.0072870045 -0.3322874 1.4574009 205 180 161
0.008744406 -0.3322874 1.4574009 203 178 160
0.010201806 -0.3322874 1.4574009 204 179 162
0.011659208 -0.3322874 1.4574009 206 186 166
0.013116608 -0.3322874 1.4574009 216 194 175
0.014574009 -0.3322874 1.4574009 217 197 175
0.01603141 -0.3322874 1.4574009 219 197 174
0.017488811 -0.3322874 1.4574009 217 195 171
0.018946214 -0.3322874 1.4574009 210 185 162
0.020403612 -0.3322874 1.4574009 207 184 162
0.021861013 -0.3322874 1.4574009 205 182 159
0.023401104 -0.33346573 1.462569 203 182 159
0.024863672 -0.33346573 1.462569 211 189 167
0.026326243 -0.33346573 1.462569 216 192 170
0.02778881 -0.33346573 1.462569 212 188 166
0.029251382 -0.33346573 1.462569 207 183 162
0.03071395 -0.33346573 1.462569 207 186 163
0.032176517 -0.33346573 1.462569 212 190 167
0.03363909 -0.33346573 1.462569 216 193 170
0.035101656 -0.33346573 1.462569 221 197 173
0.036564223 -0.33346573 1.462569 217 195 170
0.038026795 -0.33346573 1.462569 216 195 170
0.039489366 -0.33346573 1.462569 220 202 175
0.04095193 -0.33346573 1.462569 223 204 176
0.0424145 -0.33346573 1.462569 221 199 174
0.043877073 -0.33346573 1.462569 216 193 168
0.045339637 -0.33346573 1.462569 211 187 164
0.046802208 -0.33346573 1.462569 205 182 160
0.04826478 -0.33346573 1.462569 214 190 164
0.049727343 -0.33346573 1.462569 213 191 164
0.051189914 -0.33346573 1.462569 209 186 161
0.052652486 -0.33346573 1.462569 212 188 164
0.05411505 -0.33346573 1.462569 209 186 163
0.055381235 -0.3322874 1.4574009 213 188 166
0.057040192 -0.33346573 1.462569 205 182 162
0.058296036 -0.3322874 1.4574009 203 180 160
0.059753437 -0.3322874 1.4574009 207 184 163
0.061210837 -0.3322874 1.4574009 209 188 166
0.06266824 -0.3322874 1.4574009 208 186 165
0.06412564 -0.3322874 1.4574009 210 187 166
0.065583035 -0.3322874 1.4574009 215 192 169
0.06727818 -0.33346573 1.462569 217 195 171
0.068497844 -0.3322874 1.4574009 198 178 156
0.069955245 -0.3322874 1.4574009 191 171 151
0.071412645 -0.3322874 1.4574009 202 180 159
0.072870046 -0.3322874 1.4574009 207 184 162
0.07432745 -0.3322874 1.4574009 200 178 157
0.075784855 -0.3322874 1.4574009 195 172 150
0.07724225 -0.3322874 1.4574009 186 165 143
0.07869965 -0.3322874 1.4574009 176 155 134
0.08015705 -0.3322874 1.4574009 171 152 131
0.08161445 -0.3322874 1.4574009 168 149 128
0.08307185 -0.3322874 1.4574009 162 142 120
0.08452925 -0.3322874 1.4574009 159 136 116
0.08598666 -0.3322874 1.4574009 150 127 109
0.08744405 -0.3322874 1.4574009 141 119 102
0.08890146 -0.3322874 1.4574009 140 118 101
0.09035885 -0.3322874 1.4574009 139 116 100
0.09181626 -0.3322874 1.4574009 145 122 104
0.09327366 -0.3322874 1.4574009 147 124 106
0.094731055 -0.3322874 1.4574009 145 122 105
0.09618846 -0.3322874 1.4574009 145 122 105
0.09764586 -0.3322874 1.4574009 145 123 105
0.099103265 -0.3322874 1.4574009 144 124 105
0.10056066 -0.3322874 1.4574009 142 121 104
0.102018066 -0.3322874 1.4574009 140 118 102
0.10347547 -0.3322874 1.4574009 140 118 102
0.10493287 -0.3322874 1.4574009 135 114 99
0.10639027 -0.3322874 1.4574009 137 116 101
0.10784767 -0.3322874 1.4574009 143 121 105
0.10930507 -0.3322874 1.4574009 143 122 107
0.11076247 -0.3322874 1.4574009 142 120 104
0.11261781 -0.33346573 1.462569 145 124 107
0.114080384 -0.33346573 1.462569 145 125 108
0.115542956 -0.33346573 1.462569 150 129 111
0.11700553 -0.33346573 1.462569 157 132 114
0.11846808 -0.33346573 1.462569 162 137 118
0.119930655 -0.33346573 1.462569 164 138 120
0.121393226 -0.33346573 1.462569 167 144 125
0.1228558 -0.33346573 1.462569 171 150 132
0.12431837 -0.33346573 1.462569 174 153 138
0.12578094 -0.33346573 1.462569 176 155 139
0.1272435 -0.33346573 1.462569 178 157 141
0.12870607 -0.33346573 1.462569 178 157 140
0.13016865 -0.33346573 1.462569 176 155 139
0.13163121 -0.33346573 1.462569 183 160 144
0.13309377 -0.33346573 1.462569 184 161 146
0.13455635 -0.33346573 1.462569 186 163 147
0.13601892 -0.33346573 1.462569 186 165 147
0.1374815 -0.33346573 1.462569 187 162 144
0.13894406 -0.33346573 1.462569 186 163 145
0.14040662 -0.33346573 1.462569 177 155 137
0.14186919 -0.33346573 1.462569 179 159 141
0.14333175 -0.33346573 1.462569 191 169 151
0.14479433 -0.33346573 1.462569 198 177 158
0.1462569 -0.33346573 1.462569 208 185 164
0.14771947 -0.33346573 1.462569 206 184 162
0.14918204 -0.33346573 1.462569 197 177 156
0.1506446 -0.33346573 1.462569 209 189 165
0.15156971 -0.3322874 1.4574009 213 192 169
0.1530271 -0.3322874 1.4574009 210 189 167
0.1544845 -0.3322874 1.4574009 205 184 163
0.15594189 -0.3322874 1.4574009 207 182 162
0.1573993 -0.3322874 1.4574009 203 181 160
0.1588567 -0.3322874 1.4574009 200 179 158
0.1603141 -0.3322874 1.4574009 201 177 158
0.1617715 -0.3322874 1.4574009 203 180 160
0.1632289 -0.3322874 1.4574009 195 174 154
0.1646863 -0.3322874 1.4574009 191 170 151
0.1661437 -0.3322874 1.4574009 202 178 158
0.16760111 -0.3322874 1.4574009 205 181 161
0.1690585 -0.3322874 1.4574009 197 174 155
0.17051591 -0.3322874 1.4574009 188 165 147
0.17197332 -0.3322874 1.4574009 191 170 149
0.17282003 -0.33111736 1.4522692 201 177 157
0.17427231 -0.33111736 1.4522692 198 176 156
0.17572458 -0.33111736 1.4522692 200 178 156
0.17717685 -0.33111736 1.4522692 199 180 157
0.1786291 -0.33111736 1.4522692 203 183 160
0.18008138 -0.33111736 1.4522692 203 184 160
0.1808967 -0.32995558 1.4471736 203 178 157
0.18234387 -0.32995558 1.4471736 189 167 147
0.18379104 -0.32995558 1.4471736 189 166 146
0.18459053 -0.32880187 1.4421135 193 169 149
0.1866854 -0.32995558 1.4471736 193 169 149
0.18813257 -0.32995558 1.4471736 188 165 145
0.18891688 -0.32880187 1.4421135 193 169 150
0.19035898 -0.32880187 1.4421135 186 164 144
0.1918011 -0.32880187 1.4421135 176 155 136
0.1932432 -0.32880187 1.4421135 185 161 142
0.19400698 -0.3276562 1.4370887 179 157 138
0.19544406 -0.3276562 1.4370887 169 148 131
0.19756955 -0.32880187 1.4421135 169 148 130
0.19901167 -0.32880187 1.4421135 175 152 134
0.20115714 -0.32995558 1.4471736 182 158 138
0.19899675 -0.3240804 1.4214053 181 154 138
-0.17230411 -0.31069008 1.3567252 241 167 0
-0.17094737 -0.31069008 1.3567252 243 169 0
-0.16959065 -0.31069008 1.3567252 242 171 0
-0.16823393 -0.31069008 1.3567252 244 172 0
-0.1668772 -0.31069008 1.3567252 246 174 0
-0.16552047 -0.31069008 1.3567252 246 175 0
-0.16416375 -0.31069008 1.3567252 247 175 0
-0.16343424 -0.311887 1.361952 247 178 0
-0.16207229 -0.311887 1.361952 247 179 0
-0.16071032 -0.311887 1.361952 248 175 0
-0.15934837 -0.311887 1.361952 249 177 0
-0.15850985 -0.31292033 1.3664643 246 180 0
-0.15714338 -0.31292033 1.3664643 246 181 0
-0.15577693 -0.31292033 1.3664643 246 179 0
-0.15441047 -0.31292033 1.3664643 246 179 0
-0.15363784 -0.3141345 1.3717664 246 179 0
-0.15226609 -0.3141345 1.3717664 244 177 0
-0.1508943 -0.3141345 1.3717664 238 160 0
-0.14952254 -0.3141345 1.3717664 212 120 0
-0.14815077 -0.3141345 1.3717664 211 109 0
-0.14726882 -0.3151828 1.3763441 211 108 0
-0.14589247 -0.3151828 1.3763441 210 107 0
-0.14500001 -0.31623814 1.3809525 211 107 0
-0.14361906 -0.31623814 1.3809525 212 107 0
-0.1427959 -0.31747824 1.3863679 210 108 0
-0.14140953 -0.31747824 1.3863679 209 108 0
-0.14002316 -0.31747824 1.3863679 207 110 0
-0.13910437 -0.318549 1.3910437 208 117 0
-0.13872707 -0.3208939 1.4012835 203 146 74
-0.13826531 -0.32308933 1.4108704 202 174 141
-0.13787632 -0.32550183 1.4214053 202 177 149
-0.13645491 -0.32550183 1.4214053 205 177 146
-0.1350335 -0.32550183 1.4214053 201 176 149
-0.13407417 -0.3266275 1.4263209 200 173 147
-0.13310815 -0.32776093 1.4312705 196 169 145
-0.13167688 -0.32776093 1.4312705 191 167 143
-0.13077506 -0.32909334 1.4370887 202 174 150
-0.12933798 -0.32909334 1.4370887 201 176 150
-0.1279009 -0.32909334 1.4370887 188 165 142
-0.126906 -0.33024397 1.4421135 201 175 152
-0.12546387 -0.33024397 1.4421135 198 176 153
-0.12402176 -0.33024397 1.4421135 202 180 161
-0.12257965 -0.33024397 1.4421135 195 175 153
-0.12113754 -0.33024397 1.4421135 193 169 147
-0.11969542 -0.33024397 1.4421135 191 169 144
-0.118668236 -0.33140275 1.4471736 185 162 131
-0.117221065 -0.33140275 1.4471736 179 156 135
-0.11577389 -0.33140275 1.4471736 180 158 137
-0.114326715 -0.33140275 1.4471736 179 155 137
-0.11287954 -0.33140275 1.4471736 182 157 137
-0.111432366 -0.33140275 1.4471736 181 159 137
-0.10998519 -0.33140275 1.4471736 174 152 131
-0.10853802 -0.33140275 1.4471736 174 150 129
-0.107090846 -0.33140275 1.4471736 168 147 125
-0.10564367 -0.33140275 1.4471736 160 138 117
-0.104563385 -0.33256963 1.4522692 148 126 108
-0.10311112 -0.33256963 1.4522692 131 113 97
-0.10165884 -0.33256963 1.4522692 136 114 94
-0.10020658 -0.33256963 1.4522692 135 113 94
-0.0987543 -0.33256963 1.4522692 141 118 97
-0.097302034 -0.33256963 1.4522692 137 115 94
-0.09584977 -0.33256963 1.4522692 136 113 93
-0.0943975 -0.33256963 1.4522692 135 113 93
-0.092945226 -0.33256963 1.4522692 133 112 93
-0.09149296 -0.33256963 1.4522692 134 111 93
-0.09004069 -0.33256963 1.4522692 136 112 93
-0.088588424 -0.33256963 1.4522692 132 110 91
-0.08713616 -0.33256963 1.4522692 132 110 92
-0.08568388 -0.33256963 1.4522692 131 110 91
-0.084231615 -0.33256963 1.4522692 137 116 95
-0.08277934 -0.33256963 1.4522692 139 119 97
-0.08132707 -0.33256963 1.4522692 139 118 96
-0.079874806 -0.33256963 1.4522692 140 118 96
-0.07842254 -0.33256963 1.4522692 147 123 100
-0.07697027 -0.33256963 1.4522692 133 112 92
-0.075518 -0.33256963 1.4522692 131 111 91
-0.07406573 -0.33256963 1.4522692 134 114 94
-0.072613455 -0.33256963 1.4522692 135 113 93
-0.071161196 -0.33256963 1.4522692 135 114 94
-0.06970892 -0.33256963 1.4522692 137 116 96
-0.068256654 -0.33256963 1.4522692 134 114 95
-0.06680438 -0.33256963 1.4522692 134 114 95
-0.06535211 -0.33256963 1.4522692 137 115 97
-0.063899845 -0.33256963 1.4522692 136 115 96
-0.062447574 -0.33256963 1.4522692 135 115 96
-0.060995307 -0.33256963 1.4522692 134 111 94
-0.059543036 -0.33256963 1.4522692 130 110 92
-0.05809077 -0.33256963 1.4522692 135 113 95
-0.0566385 -0.33256963 1.4522692 127 105 89
-0.05518623 -0.33256963 1.4522692 120 100 85
-0.05373396 -0.33256963 1.4522692 135 114 95
-0.052281693 -0.33256963 1.4522692 135 114 95
-0.05082942 -0.33256963 1.4522692 137 117 95
-0.04937715 -0.33256963 1.4522692 134 113 93
-0.047924884 -0.33256963 1.4522692 134 113 93
-0.046472613 -0.33256963 1.4522692 127 107 89
-0.045020346 -0.33256963 1.4522692 128 108 89
-0.04356808 -0.33256963 1.4522692 130 109 90
-0.042115808 -0.33256963 1.4522692 126 105 87
-0.040807225 -0.33374482 1.4574009 122 104 86
-0.039349824 -0.33374482 1.4574009 132 111 92
-0.037892427 -0.33374482 1.4574009 133 111 93
-0.036435023 -0.33374482 1.4574009 132 110 92
-0.034977622 -0.33374482 1.4574009 131 110 92
-0.03352022 -0.33374482 1.4574009 133 112 94
-0.03206282 -0.33374482 1.4574009 141 119 99
-0.030605419 -0.33374482 1.4574009 154 132 114
-0.029148018 -0.33374482 1.4574009 160 140 122
-0.027690617 -0.33374482 1.4574009 163 144 128
-0.026233217 -0.33374482 1.4574009 176 155 135
-0.024775816 -0.33374482 1.4574009 186 166 146
-0.023318416 -0.33374482 1.4574009 191 169 148
-0.021861013 -0.33374482 1.4574009 187 167 147
-0.020403612 -0.33374482 1.4574009 191 172 150
-0.018946214 -0.33374482 1.4574009 198 175 153
-0.017488811 -0.33374482 1.4574009 204 182 160
-0.01603141 -0.33374482 1.4574009 206 183 161
-0.014574009 -0.33374482 1.4574009 213 192 170
-0.013116608 -0.33374482 1.4574009 214 191 169
-0.011659208 -0.33374482 1.4574009 202 182 160
-0.010201806 -0.33374482 1.4574009 201 178 157
-0.008744406 -0.33374482 1.4574009 202 180 159
-0.0072870045 -0.33374482 1.4574009 212 192 172
-0.005829604 -0.33374482 1.4574009 218 195 177
-0.004372203 -0.33374482 1.4574009 218 197 177
-0.002914802 -0.33374482 1.4574009 213 192 172
-0.001457401 -0.33374482 1.4574009 207 187 165
0.0 -0.33374482 1.4574009 205 185 162
0.001457401 -0.33374482 1.4574009 215 194 170
0.002914802 -0.33374482 1.4574009 205 185 164
0.004372203 -0.33374482 1.4574009 211 190 168
0.005829604 -0.33374482 1.4574009 213 191 170
0.0072870045 -0.33374482 1.4574009 213 193 171
0.008744406 -0.33374482 1.4574009 210 190 168
0.010201806 -0.33374482 1.4574009 209 187 167
0.011659208 -0.33374482 1.4574009 211 188 168
0.013116608 -0.33374482 1.4574009 212 189 170
0.014574009 -0.33374482 1.4574009 213 195 173
0.01603141 -0.33374482 1.4574009 221 200 176
0.01742723 -0.33256963 1.4522692 215 194 170
0.0188795 -0.33256963 1.4522692 211 188 163
0.020331768 -0.33256963 1.4522692 208 185 161
0.02178404 -0.33256963 1.4522692 203 179 157
0.023318416 -0.33374482 1.4574009 208 185 162
0.024775816 -0.33374482 1.4574009 218 194 170
0.026233217 -0.33374482 1.4574009 220 198 174
0.027690617 -0.33374482 1.4574009 210 187 165
0.029148018 -0.33374482 1.4574009 202 179 158
0.030605419 -0.33374482 1.4574009 206 183 161
0.03206282 -0.33374482 1.4574009 210 189 165
0.03352022 -0.33374482 1.4574009 219 195 173
0.034977622 -0.33374482 1.4574009 219 196 172
0.036435023 -0.33374482 1.4574009 217 195 169
0.037892427 -0.33374482 1.4574009 218 196 171
0.039349824 -0.33374482 1.4574009 221 199 173
0.040807225 -0.33374482 1.4574009 218 198 172
0.042264625 -0.33374482 1.4574009 219 200 174
0.043722026 -0.33374482 1.4574009 220 199 172
0.045179427 -0.33374482 1.4574009 209 186 162
0.04663683 -0.33374482 1.4574009 203 178 156
0.04809423 -0.33374482 1.4574009 213 189 164
0.049551632 -0.33374482 1.4574009 213 189 164
0.051009033 -0.33374482 1.4574009 204 181 157
0.052466433 -0.33374482 1.4574009 207 184 161
0.053923834 -0.33374482 1.4574009 209 189 165
0.055381235 -0.33374482 1.4574009 218 194 172
0.056838635 -0.33374482 1.4574009 213 191 168
0.058296036 -0.33374482 1.4574009 211 188 167
0.059753437 -0.33374482 1.4574009 208 183 164
0.061210837 -0.33374482 1.4574009 212 189 167
0.06266824 -0.33374482 1.4574009 214 190 169
0.06412564 -0.33374482 1.4574009 218 193 170
0.065583035 -0.33374482 1.4574009 214 190 167
0.06704044 -0.33374482 1.4574009 204 181 160
0.068497844 -0.33374482 1.4574009 196 174 154
0.07020331 -0.3349283 1.462569 197 174 154
0.071665876 -0.3349283 1.462569 209 186 163
0.07312845 -0.3349283 1.462569 212 189 166
0.07459102 -0.3349283 1.462569 213 192 168
0.07605359 -0.3349283 1.462569 204 181 159
0.07751616 -0.3349283 1.462569 192 169 149
0.07897873 -0.3349283 1.462569 184 163 142
0.08044129 -0.3349283 1.462569 178 159 138
0.08190386 -0.3349283 1.462569 172 154 132
0.08336643 -0.3349283 1.462569 169 150 127
0.084829 -0.3349283 1.462569 171 150 125
0.086291574 -0.3349283 1.462569 168 145 122
0.087754145 -0.3349283 1.462569 160 137 116
0.0892167 -0.3349283 1.462569 153 130 111
0.09067927 -0.3349283 1.462569 149 126 108
0.092141844 -0.3349283 1.462569 149 125 107
0.093604416 -0.3349283 1.462569 144 123 105
0.09506699 -0.3349283 1.462569 147 125 106
0.09652956 -0.3349283 1.462569 148 125 107
0.09799213 -0.3349283 1.462569 151 129 110
0.099454686 -0.3349283 1.462569 154 131 112
0.10091726 -0.3349283 1.462569 152 130 112
0.10237983 -0.3349283 1.462569 151 127 110
0.1038424 -0.3349283 1.462569 153 130 112
0.10530497 -0.3349283 1.462569 148 127 109
0.10676754 -0.3349283 1.462569 151 130 113
0.1082301 -0.3349283 1.462569 157 136 117
0.10969267 -0.3349283 1.462569 161 139 120
0.11115524 -0.3349283 1.462569 163 140 120
0.11261781 -0.3349283 1.462569 163 141 121
0.114080384 -0.3349283 1.462569 168 145 124
0.115542956 -0.3349283 1.462569 166 144 123
0.11700553 -0.3349283 1.462569 171 146 126
0.11846808 -0.3349283 1.462569 177 151 131
0.119930655 -0.3349283 1.462569 182 157 136
0.121393226 -0.3349283 1.462569 184 159 138
0.1228558 -0.3349283 1.462569 184 162 143
0.12431837 -0.3349283 1.462569 186 164 147
0.12578094 -0.3349283 1.462569 188 165 149
0.1272435 -0.3349283 1.462569 187 164 148
0.12870607 -0.3349283 1.462569 186 164 147
0.13016865 -0.3349283 1.462569 187 164 147
0.13163121 -0.3349283 1.462569 185 163 148
0.13309377 -0.3349283 1.462569 182 159 144
0.13455635 -0.3349283 1.462569 180 159 143
0.13601892 -0.3349283 1.462569 180 160 144
0.1374815 -0.3349283 1.462569 185 163 144
0.13894406 -0.3349283 1.462569 183 161 142
0.13991049 -0.33374482 1.4574009 179 157 141
0.14136788 -0.33374482 1.4574009 178 156 140
0.14282529 -0.33374482 1.4574009 190 169 151
0.14428268 -0.33374482 1.4574009 199 177 157
0.14574009 -0.33374482 1.4574009 210 187 166
0.1471975 -0.33374482 1.4574009 216 192 170
0.1486549 -0.33374482 1.4574009 203 180 159
0.15011229 -0.33374482 1.4574009 206 183 162
0.15156971 -0.33374482 1.4574009 210 190 167
0.1530271 -0.33374482 1.4574009 213 190 169
0.1544845 -0.33374482 1.4574009 209 186 165
0.15594189 -0.33374482 1.4574009 208 185 164
0.1573993 -0.33374482 1.4574009 207 186 165
0.1588567 -0.33374482 1.4574009 210 190 167
0.1603141 -0.33374482 1.4574009 205 185 164
0.1617715 -0.33374482 1.4574009 204 180 160
0.16265415 -0.33256963 1.4522692 203 180 160
0.1646863 -0.33374482 1.4574009 206 180 160
0.1661437 -0.33374482 1.4574009 209 186 165
0.16701096 -0.33256963 1.4522692 206 182 161
0.16846323 -0.33256963 1.4522692 198 175 156
0.1699155 -0.33256963 1.4522692 194 171 152
0.17136776 -0.33256963 1.4522692 197 175 154
0.17282003 -0.33256963 1.4522692 198 176 155
0.17427231 -0.33256963 1.4522692 192 171 151
0.17572458 -0.33256963 1.4522692 200 180 158
0.17717685 -0.33256963 1.4522692 200 181 158
0.1786291 -0.33256963 1.4522692 202 182 160
0.17944953 -0.33140275 1.4471736 202 182 159
0.1808967 -0.33140275 1.4471736 197 175 154
0.18234387 -0.33140275 1.4471736 188 165 147
0.18379104 -0.33140275 1.4471736 184 164 144
0.18459053 -0.33024397 1.4421135 191 169 149
0.1866854 -0.33140275 1.4471736 187 167 147
0.18747476 -0.33024397 1.4421135 182 162 142
0.18825862 -0.32909334 1.4370887 185 165 144
0.19035898 -0.33024397 1.4421135 189 167 147
0.1911328 -0.32909334 1.4370887 188 164 143
0.19256988 -0.32909334 1.4370887 176 154 135
0.19400698 -0.32909334 1.4370887 171 151 133
0.19465278 -0.32776093 1.4312705 172 151 133
0.19688115 -0.32909334 1.4370887 166 146 128
0.19831824 -0.32909334 1.4370887 159 140 123
0.20115714 -0.33140275 1.4471736 167 145 128
0.1983133 -0.3243839 1.4165236 174 148 136
-0.17366083 -0.31204683 1.3567252 227 145 0
-0.17230411 -0.31204683 1.3567252 227 146 0
-0.17094737 -0.31204683 1.3567252 228 148 0
-0.16959065 -0.31204683 1.3567252 228 152 0
-0.16823393 -0.31204683 1.3567252 231 155 0
-0.1668772 -0.31204683 1.3567252 234 157 0
-0.16552047 -0.31204683 1.3567252 235 161 0
-0.16416375 -0.31204683 1.3567252 237 162 0
-0.16343424 -0.31324896 1.361952 237 163 0
-0.16207229 -0.31324896 1.361952 240 166 0
-0.16071032 -0.31324896 1.361952 240 167 0
-0.15873684 -0.31204683 1.3567252 242 167 0
