ply
format ascii 1.0
element vertex 1078
property float32 x
property float32 y
property float32 z
property uchar red
property uchar green
property uchar blue
element face 0
property list uint8 int32 vertex_indices
end_header
0.03804741 -0.3107205 1.5853087 219 199 176
0.039480966 -0.30953076 1.5792385 223 202 179
0.040903583 -0.3083501 1.5732148 218 197 174
0.042639438 -0.30953076 1.5792385 218 195 174
0.04438864 -0.3107205 1.5853087 218 195 174
0.045797918 -0.30953076 1.5792385 220 199 174
0.047377154 -0.30953076 1.5792385 217 193 170
0.048956394 -0.30953076 1.5792385 209 187 164
0.050535634 -0.30953076 1.5792385 206 182 161
0.05211487 -0.30953076 1.5792385 207 188 164
0.05369411 -0.30953076 1.5792385 216 193 169
0.055062514 -0.3083501 1.5732148 214 193 169
0.05663573 -0.3083501 1.5732148 211 193 167
0.058208946 -0.3083501 1.5732148 209 190 167
0.060011063 -0.30953076 1.5792385 219 199 174
0.061590303 -0.30953076 1.5792385 209 190 166
0.06316954 -0.30953076 1.5792385 204 183 164
0.06474878 -0.30953076 1.5792385 215 192 170
0.06607502 -0.3083501 1.5732148 215 189 167
0.068168275 -0.3107205 1.5853087 217 196 172
0.06975358 -0.3107205 1.5853087 220 199 175
0.07133889 -0.3107205 1.5853087 215 198 173
0.072924204 -0.3107205 1.5853087 212 197 174
0.07422421 -0.30953076 1.5792385 217 199 177
0.07633934 -0.31171897 1.5904028 206 188 167
0.07792974 -0.31171897 1.5904028 195 177 157
0.07952014 -0.31171897 1.5904028 189 168 154
0.081110545 -0.31171897 1.5904028 172 155 142
0.08270095 -0.31171897 1.5904028 160 143 127
0.084291354 -0.31171897 1.5904028 154 137 116
0.085881755 -0.31171897 1.5904028 136 119 105
0.087472156 -0.31171897 1.5904028 133 115 100
0.089062564 -0.31171897 1.5904028 126 109 94
0.090652965 -0.31171897 1.5904028 123 110 95
0.092243366 -0.31171897 1.5904028 124 110 95
0.093833774 -0.31171897 1.5904028 129 112 98
0.09511852 -0.3107205 1.5853087 125 109 95
0.09633355 -0.30953076 1.5792385 118 104 88
0.09753931 -0.3083501 1.5732148 116 103 87
0.098735906 -0.30717838 1.5672367 118 105 91
0.09886309 -0.30276823 1.5447358 119 105 94
0.09929218 -0.2994041 1.527572 126 112 103
0.1001398 -0.29738486 1.5172696 132 117 107
0.10018288 -0.2930723 1.4952669 129 111 106
0.10058418 -0.2899191 1.4791791 127 109 105
0.10056066 -0.28565058 1.4574009 126 111 105
0.102018066 -0.28565058 1.4574009 119 106 99
0.10347547 -0.28565058 1.4574009 111 99 95
0.10493287 -0.28565058 1.4574009 108 95 92
0.10676754 -0.2866635 1.462569 105 90 87
0.10784767 -0.28565058 1.4574009 104 88 87
0.10969267 -0.2866635 1.462569 110 96 92
0.11115524 -0.2866635 1.462569 106 92 86
0.11182473 -0.28464478 1.4522692 100 86 82
0.113277 -0.28464478 1.4522692 96 80 76
0.11472926 -0.28464478 1.4522692 91 75 71
0.11618154 -0.28464478 1.4522692 92 76 73
0.117221065 -0.28364602 1.4471736 89 72 70
0.118668236 -0.28364602 1.4471736 89 74 70
0.12053835 -0.28464478 1.4522692 91 76 72
0.122421674 -0.28565058 1.4574009 94 78 73
0.12387908 -0.28565058 1.4574009 94 79 75
0.12533648 -0.28565058 1.4574009 96 81 77
0.12679388 -0.28565058 1.4574009 97 80 76
0.12825128 -0.28565058 1.4574009 96 81 77
0.12925196 -0.28464478 1.4522692 97 83 79
0.13024563 -0.28364602 1.4471736 97 83 78
0.13215649 -0.28464478 1.4522692 97 82 77
0.13360876 -0.28464478 1.4522692 95 80 77
0.13553828 -0.28565058 1.4574009 95 80 77
0.1384635 -0.28871113 1.4730159 94 79 76
0.14102781 -0.2909626 1.4845031 89 73 70
0.14354563 -0.2930723 1.4952669 91 74 70
0.14610024 -0.29521284 1.5061879 76 64 57
0.14814743 -0.29629487 1.5117085 78 66 57
0.15020968 -0.29738486 1.5172696 78 64 56
0.15219353 -0.2982993 1.5219352 78 64 56
0.15485834 -0.30051714 1.5332508 79 65 57
0.15639159 -0.30051714 1.5332508 78 64 56
0.15792483 -0.30051714 1.5332508 77 64 56
0.1588675 -0.2994041 1.527572 79 65 57
0.16099133 -0.30051714 1.5332508 86 71 62
0.16252458 -0.30051714 1.5332508 90 69 62
0.16405784 -0.30051714 1.5332508 101 80 73
0.16620897 -0.30163848 1.5389719 114 94 86
0.16774794 -0.30163848 1.5389719 128 107 96
0.1692869 -0.30163848 1.5389719 139 120 102
0.17082588 -0.30163848 1.5389719 141 123 103
0.17366083 -0.30390644 1.5505431 149 131 116
0.17521137 -0.30390644 1.5505431 154 130 116
0.17676191 -0.30390644 1.5505431 160 138 125
0.17898534 -0.30505326 1.5563942 179 156 140
0.18054174 -0.30505326 1.5563942 186 160 143
0.18141355 -0.30390644 1.5505431 174 148 132
0.18365452 -0.30505326 1.5563942 196 169 151
0.18579517 -0.30601555 1.561304 206 182 161
0.18735647 -0.30601555 1.561304 208 187 165
0.18891779 -0.30601555 1.561304 191 168 150
0.19120286 -0.30717838 1.5672367 201 177 158
0.19350542 -0.3083501 1.5732148 213 187 167
0.19507863 -0.3083501 1.5732148 209 183 164
0.19590458 -0.30717838 1.5672367 211 185 165
0.19822507 -0.3083501 1.5732148 215 190 169
0.19979829 -0.3083501 1.5732148 202 180 160
0.20357156 -0.31171897 1.5904028 198 173 158
0.20450482 -0.3107205 1.5853087 197 175 158
0.20609014 -0.3107205 1.5853087 208 185 168
0.20767543 -0.3107205 1.5853087 209 186 166
0.20926075 -0.3107205 1.5853087 204 184 165
0.21152358 -0.31171897 1.5904028 211 189 169
0.21311398 -0.31171897 1.5904028 197 173 157
0.21553549 -0.3129256 1.5965592 201 178 160
0.21713205 -0.3129256 1.5965592 204 181 162
0.21957858 -0.31414163 1.6027634 216 190 170
0.22118135 -0.31414163 1.6027634 210 185 167
0.22350793 -0.31516224 1.6079706 213 185 168
0.22438687 -0.31414163 1.6027634 212 187 164
0.22598964 -0.31414163 1.6027634 199 170 149
0.22833182 -0.31516224 1.6079706 192 161 137
0.22993979 -0.31516224 1.6079706 185 152 126
-0.22828445 -0.3123058 1.5853087 191 146 124
-0.22669914 -0.3123058 1.5853087 190 143 123
-0.22511382 -0.3123058 1.5853087 189 144 122
-0.22352852 -0.3123058 1.5853087 180 136 115
-0.2219432 -0.3123058 1.5853087 190 144 120
-0.22035791 -0.3123058 1.5853087 190 148 121
-0.2187726 -0.3123058 1.5853087 186 151 122
-0.21718729 -0.3123058 1.5853087 188 156 130
-0.21629478 -0.31330937 1.5904028 185 153 131
-0.21553549 -0.31452215 1.5965592 181 154 135
-0.21393894 -0.31452215 1.5965592 188 166 144
-0.21234238 -0.31452215 1.5965592 185 162 143
-0.2107458 -0.31452215 1.5965592 190 166 145
-0.20834278 -0.31330937 1.5904028 196 171 146
-0.20675236 -0.31330937 1.5904028 189 165 141
-0.20450482 -0.3123058 1.5853087 183 162 142
-0.20214254 -0.31111 1.5792385 191 170 150
-0.2013342 -0.3123058 1.5853087 195 172 152
-0.19974889 -0.3123058 1.5853087 195 172 152
-0.19816358 -0.3123058 1.5853087 192 171 151
-0.19720994 -0.31330937 1.5904028 187 164 146
-0.19561955 -0.31330937 1.5904028 183 161 143
-0.19402914 -0.31330937 1.5904028 188 167 148
-0.19243875 -0.31330937 1.5904028 191 169 149
-0.19158709 -0.31452215 1.5965592 193 169 146
-0.18925793 -0.31330937 1.5904028 191 168 145
-0.18766755 -0.31330937 1.5904028 186 163 142
-0.18607713 -0.31330937 1.5904028 189 166 145
-0.18520087 -0.31452215 1.5965592 190 166 144
-0.18360431 -0.31452215 1.5965592 185 161 140
-0.18200774 -0.31452215 1.5965592 184 160 138
-0.18041117 -0.31452215 1.5965592 179 157 133
-0.17755456 -0.3123058 1.5853087 186 164 142
-0.17596927 -0.3123058 1.5853087 188 167 145
-0.17438395 -0.3123058 1.5853087 192 171 147
-0.17279865 -0.3123058 1.5853087 197 175 152
-0.17121333 -0.3123058 1.5853087 195 173 153
-0.16962802 -0.3123058 1.5853087 190 169 147
-0.16804272 -0.3123058 1.5853087 192 168 145
-0.16645741 -0.3123058 1.5853087 190 165 141
-0.1648721 -0.3123058 1.5853087 185 160 137
-0.16328679 -0.3123058 1.5853087 177 155 134
-0.16170147 -0.3123058 1.5853087 175 151 131
-0.16011618 -0.3123058 1.5853087 184 161 140
-0.15853086 -0.3123058 1.5853087 177 157 138
-0.15694556 -0.3123058 1.5853087 171 149 130
-0.15536025 -0.3123058 1.5853087 167 145 125
-0.15377495 -0.3123058 1.5853087 162 139 120
-0.15218964 -0.3123058 1.5853087 149 128 109
-0.15002766 -0.31111 1.5792385 151 129 106
-0.1478822 -0.30992332 1.5732148 145 124 102
-0.14630897 -0.30992332 1.5732148 149 125 104
-0.14528994 -0.31111 1.5792385 152 128 106
-0.14316253 -0.30992332 1.5732148 145 123 104
-0.1410513 -0.30874562 1.5672367 141 120 99
-0.13948406 -0.30874562 1.5672367 141 119 96
-0.13791682 -0.30874562 1.5672367 144 118 97
-0.13583346 -0.30757686 1.561304 140 109 93
-0.1338499 -0.30660966 1.5563942 127 97 82
-0.13229351 -0.30660966 1.5563942 109 85 71
-0.13024563 -0.30545697 1.5505431 96 74 61
-0.12869507 -0.30545697 1.5505431 95 79 69
-0.12714453 -0.30545697 1.5505431 83 69 61
-0.12512359 -0.30431294 1.5447358 80 67 53
-0.12311775 -0.30317745 1.5389719 82 66 49
-0.12157878 -0.30317745 1.5389719 99 76 58
-0.11959357 -0.3020504 1.5332508 114 85 64
-0.11806031 -0.3020504 1.5332508 117 81 58
-0.11652706 -0.3020504 1.5332508 110 74 54
-0.1145679 -0.3009317 1.527572 94 66 52
-0.112277955 -0.2989021 1.5172696 76 60 50
-0.11076068 -0.2989021 1.5172696 68 56 48
-0.108445525 -0.296719 1.5061879 71 59 51
-0.10693934 -0.296719 1.5061879 90 79 73
-0.10543315 -0.296719 1.5061879 80 67 63
-0.103926964 -0.296719 1.5061879 75 62 59
-0.10167815 -0.29456758 1.4952669 81 68 66
-0.10018288 -0.29456758 1.4952669 87 73 71
-0.09833112 -0.29350352 1.4898655 90 77 74
-0.09649271 -0.29244712 1.4845031 94 81 73
-0.093604416 -0.2881261 1.462569 83 70 64
-0.092141844 -0.2881261 1.462569 82 68 62
-0.09067927 -0.2881261 1.462569 91 76 72
-0.08890146 -0.28710797 1.4574009 89 75 70
-0.08744405 -0.28710797 1.4574009 87 73 67
-0.08598666 -0.28710797 1.4574009 88 73 68
-0.084231615 -0.28609705 1.4522692 88 73 68
-0.08277934 -0.28609705 1.4522692 85 70 65
-0.08132707 -0.28609705 1.4522692 84 70 64
-0.079874806 -0.28609705 1.4522692 85 70 64
-0.078147374 -0.2850932 1.4471736 85 71 65
-0.07643201 -0.28409636 1.4421135 85 71 65
-0.07498991 -0.28409636 1.4421135 85 72 66
-0.073291525 -0.28310648 1.4370887 84 70 65
-0.07185444 -0.28310648 1.4370887 80 67 62
-0.07041735 -0.28310648 1.4370887 80 67 62
-0.068700984 -0.2819603 1.4312705 82 68 65
-0.06703708 -0.28098524 1.4263209 83 70 69
-0.06538464 -0.28001684 1.4214053 81 65 64
-0.06374356 -0.27905515 1.4165236 106 90 88
-0.0620783 -0.27794147 1.4108704 118 99 96
-0.060667425 -0.27794147 1.4108704 113 96 93
-0.05905455 -0.27699396 1.4060607 113 96 93
-0.057648487 -0.27699396 1.4060607 111 95 92
-0.05624243 -0.27699396 1.4060607 108 93 90
-0.05483637 -0.27699396 1.4060607 109 94 94
-0.053430304 -0.27699396 1.4060607 114 97 95
-0.052024245 -0.27699396 1.4060607 110 100 100
-0.050446205 -0.27605286 1.4012835 115 100 100
-0.049044922 -0.27605286 1.4012835 112 96 95
-0.04764364 -0.27605286 1.4012835 112 96 95
-0.046400003 -0.27699396 1.4060607 111 96 96
-0.04499394 -0.27699396 1.4060607 119 103 101
-0.04343979 -0.27605286 1.4012835 115 101 102
-0.042326115 -0.27794147 1.4108704 112 100 103
-0.04063722 -0.27605286 1.4012835 122 108 109
-0.03923594 -0.27605286 1.4012835 124 110 109
-0.038093504 -0.27794147 1.4108704 127 110 108
-0.036557578 -0.27699396 1.4060607 110 95 95
-0.03527176 -0.27794147 1.4108704 113 96 95
-0.033996567 -0.27905515 1.4165236 109 93 92
-0.03245002 -0.27794147 1.4108704 120 103 104
-0.03103915 -0.27794147 1.4108704 114 99 98
-0.029628279 -0.27794147 1.4108704 118 104 100
-0.028217409 -0.27794147 1.4108704 120 104 102
-0.026806537 -0.27794147 1.4108704 121 105 104
-0.025309093 -0.27699396 1.4060607 121 103 103
-0.023903033 -0.27699396 1.4060607 119 103 105
-0.022664377 -0.27905515 1.4165236 125 109 109
-0.021321079 -0.28001684 1.4214053 123 106 106
-0.019899674 -0.28001684 1.4214053 117 102 102
-0.018478269 -0.28001684 1.4214053 123 106 106
-0.017056864 -0.28001684 1.4214053 126 111 111
-0.01568953 -0.28098524 1.4263209 128 113 115
-0.014263209 -0.28098524 1.4263209 124 109 111
-0.012836888 -0.28098524 1.4263209 132 115 115
-0.011371243 -0.28001684 1.4214053 134 117 119
-0.009984246 -0.28098524 1.4263209 131 113 114
-0.008587623 -0.2819603 1.4312705 130 112 111
-0.0071563525 -0.2819603 1.4312705 125 110 109
-0.005725082 -0.2819603 1.4312705 134 116 119
-0.0042938115 -0.2819603 1.4312705 140 120 120
-0.002862541 -0.2819603 1.4312705 135 115 110
-0.0014370887 -0.28310648 1.4370887 143 127 123
0.0 -0.28310648 1.4370887 149 134 136
0.0014370887 -0.28310648 1.4370887 157 141 144
0.0028741774 -0.28310648 1.4370887 160 144 141
0.004387707 -0.2881261 1.462569 167 147 140
0.006087741 -0.29982123 1.5219352 199 178 162
0.007896192 -0.31111 1.5792385 210 190 168
0.009579355 -0.31452215 1.5965592 211 188 166
0.01109716 -0.3123058 1.5853087 202 182 161
0.012633909 -0.31111 1.5792385 212 190 171
0.014213148 -0.31111 1.5792385 216 196 175
0.015792385 -0.31111 1.5792385 218 197 175
0.017305363 -0.30992332 1.5732148 218 198 177
0.018950863 -0.31111 1.5792385 219 198 176
0.0205301 -0.31111 1.5792385 216 197 175
0.022109339 -0.31111 1.5792385 222 200 178
0.02359822 -0.30992332 1.5732148 212 191 171
0.025267817 -0.31111 1.5792385 221 198 174
0.026847055 -0.31111 1.5792385 226 201 178
0.028426295 -0.31111 1.5792385 216 197 173
0.030005531 -0.31111 1.5792385 211 193 169
0.03158477 -0.31111 1.5792385 220 201 176
0.03316401 -0.31111 1.5792385 219 197 174
0.03474325 -0.31111 1.5792385 222 198 177
0.036322486 -0.31111 1.5792385 216 197 175
0.037757155 -0.30992332 1.5732148 207 187 166
0.039330367 -0.30992332 1.5732148 215 194 172
0.040903583 -0.30992332 1.5732148 211 191 170
0.042639438 -0.31111 1.5792385 214 189 170
0.044218678 -0.31111 1.5792385 218 194 174
0.04562323 -0.30992332 1.5732148 225 203 178
0.047377154 -0.31111 1.5792385 215 194 170
0.048769657 -0.30992332 1.5732148 219 195 172
0.050342873 -0.30992332 1.5732148 217 192 169
0.05191609 -0.30992332 1.5732148 213 192 167
0.053489305 -0.30992332 1.5732148 212 192 166
0.055062514 -0.30992332 1.5732148 213 193 169
0.05642052 -0.30874562 1.5672367 215 193 169
0.057987753 -0.30874562 1.5672367 202 182 160
0.059782162 -0.30992332 1.5732148 222 201 176
0.06135538 -0.30992332 1.5732148 218 200 175
0.06292859 -0.30992332 1.5732148 222 201 181
0.06474878 -0.31111 1.5792385 215 194 174
0.06607502 -0.30992332 1.5732148 214 191 169
0.06764823 -0.30992332 1.5732148 216 197 172
0.0694865 -0.31111 1.5792385 215 195 171
0.07106573 -0.31111 1.5792385 212 197 170
0.072367884 -0.30992332 1.5732148 215 197 174
0.0739411 -0.30992332 1.5732148 215 197 174
0.07609482 -0.3123058 1.5853087 205 186 164
0.077680126 -0.3123058 1.5853087 193 175 155
0.07926543 -0.3123058 1.5853087 196 172 156
0.080850735 -0.3123058 1.5853087 172 154 142
0.08243605 -0.3123058 1.5853087 172 152 135
0.08402136 -0.3123058 1.5853087 155 137 118
0.085606664 -0.3123058 1.5853087 133 118 105
0.08719198 -0.3123058 1.5853087 128 110 96
0.08877728 -0.3123058 1.5853087 129 113 98
0.09036259 -0.3123058 1.5853087 124 110 94
0.091947906 -0.3123058 1.5853087 125 112 96
0.09353321 -0.3123058 1.5853087 126 111 98
0.09475431 -0.31111 1.5792385 123 108 95
0.0959661 -0.30992332 1.5732148 127 111 97
0.09716867 -0.30874562 1.5672367 120 106 91
0.098735906 -0.30874562 1.5672367 124 108 94
0.09923476 -0.30545697 1.5505431 118 102 93
0.09929218 -0.3009317 1.527572 120 106 94
0.1001398 -0.2989021 1.5172696 132 112 98
0.1005474 -0.29563937 1.5007075 127 112 106
0.10094621 -0.29244712 1.4845031 130 114 108
0.1016381 -0.29018414 1.4730159 123 108 101
0.10274417 -0.28915146 1.4677739 113 101 93
0.10458413 -0.29018414 1.4730159 109 97 91
0.10567972 -0.28915146 1.4677739 107 94 90
0.1071475 -0.28915146 1.4677739 105 91 87
0.1082301 -0.2881261 1.462569 102 86 82
0.11008304 -0.28915146 1.4677739 112 96 90
0.11115524 -0.2881261 1.462569 101 88 79
0.11221987 -0.28710797 1.4574009 101 85 81
0.113277 -0.28609705 1.4522692 95 80 75
0.11472926 -0.28609705 1.4522692 94 77 73
0.11618154 -0.28609705 1.4522692 94 76 75
0.117633805 -0.28609705 1.4522692 92 77 74
0.11908607 -0.28609705 1.4522692 93 76 74
0.12053835 -0.28609705 1.4522692 93 77 74
0.122421674 -0.28710797 1.4574009 94 80 75
0.12387908 -0.28710797 1.4574009 97 82 78
0.12533648 -0.28710797 1.4574009 98 83 79
0.12679388 -0.28710797 1.4574009 98 84 79
0.12825128 -0.28710797 1.4574009 98 83 79
0.12970868 -0.28710797 1.4574009 95 81 77
0.13024563 -0.2850932 1.4471736 97 82 79
0.13215649 -0.28609705 1.4522692 95 81 76
0.1350352 -0.28915146 1.4677739 91 77 75
0.13756366 -0.2913983 1.4791791 85 69 69
0.14004736 -0.29350352 1.4898655 84 68 67
0.14205036 -0.29456758 1.4952669 82 67 67
0.14565788 -0.2989021 1.5172696 77 62 58
0.14762771 -0.29982123 1.5219352 73 62 52
0.14970206 -0.3009317 1.527572 73 61 52
0.15122963 -0.3009317 1.527572 74 61 53
0.1527572 -0.3009317 1.527572 72 59 50
0.15428478 -0.3009317 1.527572 74 61 52
0.15581235 -0.3009317 1.527572 71 58 50
0.15792483 -0.3020504 1.5332508 71 57 49
0.15945809 -0.3020504 1.5332508 73 58 50
0.16099133 -0.3020504 1.5332508 82 66 59
0.16313103 -0.30317745 1.5389719 91 70 63
0.16467 -0.30317745 1.5389719 103 82 75
0.16620897 -0.30317745 1.5389719 119 99 90
0.16774794 -0.30317745 1.5389719 129 112 98
0.16992095 -0.30431294 1.5447358 142 125 107
0.17082588 -0.30317745 1.5389719 149 129 110
0.17301041 -0.30431294 1.5447358 161 141 124
0.17521137 -0.30545697 1.5505431 160 137 124
0.17676191 -0.30545697 1.5505431 163 137 122
0.17831245 -0.30545697 1.5505431 176 151 134
0.17918934 -0.30431294 1.5447358 191 166 147
0.18141355 -0.30545697 1.5505431 148 129 114
0.18296409 -0.30545697 1.5505431 156 135 120
0.18579517 -0.30757686 1.561304 202 175 156
0.1880684 -0.30874562 1.5672367 205 180 158
0.1883237 -0.30660966 1.5563942 200 177 154
0.19047908 -0.30757686 1.561304 176 157 138
0.19277011 -0.30874562 1.5672367 198 173 156
0.19507863 -0.30992332 1.5732148 182 159 144
0.19665185 -0.30992332 1.5732148 205 180 161
0.19747181 -0.30874562 1.5672367 211 187 167
0.19903906 -0.30874562 1.5672367 216 192 175
0.20291951 -0.3123058 1.5853087 214 189 171
0.20450482 -0.3123058 1.5853087 200 176 161
0.20609014 -0.3123058 1.5853087 196 175 158
0.20767543 -0.3123058 1.5853087 206 185 166
0.20926075 -0.3123058 1.5853087 211 188 168
0.21084605 -0.3123058 1.5853087 211 188 170
0.21243137 -0.3123058 1.5853087 218 194 176
0.21470438 -0.31330937 1.5904028 190 169 151
0.21629478 -0.31330937 1.5904028 199 174 157
0.2187286 -0.31452215 1.5965592 209 183 166
0.22032517 -0.31452215 1.5965592 213 187 169
0.22278412 -0.31574437 1.6027634 216 188 171
0.22351828 -0.31452215 1.5965592 209 185 163
0.22511484 -0.31452215 1.5965592 201 174 151
0.22759241 -0.31574437 1.6027634 174 147 121
0.22919518 -0.31574437 1.6027634 156 129 101
-0.22828445 -0.3138911 1.5853087 191 125 101
-0.22742762 -0.31489974 1.5904028 190 125 101
-0.22511382 -0.3138911 1.5853087 191 128 107
-0.22352852 -0.3138911 1.5853087 188 127 106
-0.2219432 -0.3138911 1.5853087 182 121 99
-0.22035791 -0.3138911 1.5853087 180 122 99
-0.2187726 -0.3138911 1.5853087 185 132 107
-0.21718729 -0.3138911 1.5853087 193 147 124
-0.21560198 -0.3138911 1.5853087 187 149 128
-0.21401668 -0.3138911 1.5853087 195 164 143
-0.21243137 -0.3138911 1.5853087 197 170 148
-0.21152358 -0.31489974 1.5904028 189 167 148
-0.20926075 -0.3138911 1.5853087 191 167 147
-0.20688024 -0.31268924 1.5792385 193 169 147
-0.20530102 -0.31268924 1.5792385 187 164 143
-0.20372178 -0.31268924 1.5792385 191 169 148
-0.20214254 -0.31268924 1.5792385 192 171 150
-0.2013342 -0.3138911 1.5853087 195 174 152
-0.19974889 -0.3138911 1.5853087 196 175 153
-0.19880036 -0.31489974 1.5904028 192 171 150
-0.19720994 -0.31489974 1.5904028 192 169 148
-0.19499296 -0.3138911 1.5853087 194 170 150
-0.19340765 -0.3138911 1.5853087 191 170 150
-0.19182234 -0.3138911 1.5853087 191 169 147
-0.19084834 -0.31489974 1.5904028 197 173 149
-0.18925793 -0.31489974 1.5904028 189 165 142
-0.18706642 -0.3138911 1.5853087 190 169 147
-0.18548112 -0.3138911 1.5853087 188 167 145
-0.18389581 -0.3138911 1.5853087 179 157 137
-0.18289633 -0.31489974 1.5904028 181 159 138
-0.18130593 -0.31489974 1.5904028 189 166 144
-0.17913988 -0.3138911 1.5853087 194 172 148
-0.17755456 -0.3138911 1.5853087 191 169 148
-0.17596927 -0.3138911 1.5853087 197 175 153
-0.17438395 -0.3138911 1.5853087 195 174 151
-0.17279865 -0.3138911 1.5853087 195 174 151
-0.17055775 -0.31268924 1.5792385 190 169 147
-0.16897851 -0.31268924 1.5792385 185 165 140
-0.16739929 -0.31268924 1.5792385 188 167 141
-0.16582005 -0.31268924 1.5792385 186 163 139
-0.1642408 -0.31268924 1.5792385 180 158 136
-0.16266158 -0.31268924 1.5792385 187 164 140
-0.16108234 -0.31268924 1.5792385 182 160 139
-0.1595031 -0.31268924 1.5792385 181 158 140
-0.15732147 -0.31149653 1.5732148 178 156 140
-0.15574826 -0.31149653 1.5732148 169 148 128
-0.15417504 -0.31149653 1.5732148 167 145 125
-0.15260184 -0.31149653 1.5732148 162 140 121
-0.15102862 -0.31149653 1.5732148 159 136 116
-0.15002766 -0.31268924 1.5792385 150 127 104
-0.1478822 -0.31149653 1.5732148 145 123 101
-0.14630897 -0.31149653 1.5732148 145 125 101
-0.14418578 -0.31031287 1.5672367 153 130 106
-0.14316253 -0.31149653 1.5732148 151 129 108
-0.1410513 -0.31031287 1.5672367 145 122 102
-0.13895606 -0.30913818 1.561304 140 116 96
-0.1369627 -0.30816606 1.5563942 138 112 94
-0.13583346 -0.30913818 1.561304 135 105 89
-0.1338499 -0.30816606 1.5563942 124 96 81
-0.13229351 -0.30816606 1.5563942 110 88 74
-0.13024563 -0.30700755 1.5505431 109 89 77
-0.12869507 -0.30700755 1.5505431 102 87 77
-0.12714453 -0.30700755 1.5505431 88 74 68
-0.12512359 -0.3058577 1.5447358 73 66 57
-0.12311775 -0.30471644 1.5389719 74 66 57
-0.12157878 -0.30471644 1.5389719 75 60 51
-0.11959357 -0.30358365 1.5332508 81 63 55
-0.11806031 -0.30358365 1.5332508 87 67 57
-0.116095476 -0.30245927 1.527572 90 67 55
-0.1145679 -0.30245927 1.527572 73 59 49
-0.11304033 -0.30245927 1.527572 65 54 45
-0.11076068 -0.30041936 1.5172696 65 53 45
-0.10884301 -0.29931825 1.5117085 66 55 46
-0.107331306 -0.29931825 1.5117085 74 61 55
-0.10543315 -0.29822522 1.5061879 70 60 53
-0.103926964 -0.29822522 1.5061879 70 60 55
-0.10242078 -0.29822522 1.5061879 74 63 60
-0.10018288 -0.29606283 1.4952669 76 64 62
-0.09868761 -0.29606283 1.4952669 82 71 68
-0.09684126 -0.29499337 1.4898655 89 79 70
-0.093604416 -0.28958866 1.462569 85 75 68
-0.092141844 -0.28958866 1.462569 79 65 59
-0.09067927 -0.28958866 1.462569 86 70 63
-0.08890146 -0.28856537 1.4574009 91 77 71
-0.08744405 -0.28856537 1.4574009 87 73 66
-0.08568388 -0.2875493 1.4522692 83 69 64
-0.084231615 -0.2875493 1.4522692 86 72 66
-0.08277934 -0.2875493 1.4522692 85 70 65
-0.08132707 -0.2875493 1.4522692 85 71 66
-0.07959455 -0.2865404 1.4471736 85 71 65
-0.078147374 -0.2865404 1.4471736 85 71 65
-0.0767002 -0.2865404 1.4471736 85 71 65
-0.07498991 -0.2855385 1.4421135 84 71 65
-0.07354779 -0.2855385 1.4421135 83 70 64
-0.072105676 -0.2855385 1.4421135 81 68 63
-0.070132256 -0.28339154 1.4312705 81 67 62
-0.068700984 -0.28339154 1.4312705 80 66 62
-0.06703708 -0.28241152 1.4263209 81 69 67
-0.06538464 -0.28143826 1.4214053 78 65 64
-0.06374356 -0.28047168 1.4165236 96 82 80
-0.0620783 -0.27935237 1.4108704 114 95 93
-0.060667425 -0.27935237 1.4108704 112 96 91
-0.05905455 -0.27840003 1.4060607 113 96 93
-0.057648487 -0.27840003 1.4060607 113 96 93
-0.05624243 -0.27840003 1.4060607 109 94 91
-0.05483637 -0.27840003 1.4060607 109 94 92
-0.053430304 -0.27840003 1.4060607 112 96 94
-0.052024245 -0.27840003 1.4060607 113 100 100
-0.050446205 -0.27745414 1.4012835 122 105 104
-0.049212124 -0.27840003 1.4060607 112 99 96
-0.04764364 -0.27745414 1.4012835 112 96 94
-0.046400003 -0.27840003 1.4060607 109 95 96
-0.04499394 -0.27840003 1.4060607 106 93 92
-0.043736983 -0.27935237 1.4108704 111 96 94
-0.042326115 -0.27935237 1.4108704 110 97 99
-0.04091524 -0.27935237 1.4108704 112 98 99
-0.03950437 -0.27935237 1.4108704 117 101 101
-0.03796364 -0.27840003 1.4060607 118 100 100
-0.036557578 -0.27840003 1.4060607 108 90 91
-0.03527176 -0.27935237 1.4108704 105 88 86
-0.03386089 -0.27935237 1.4108704 109 92 90
-0.032339398 -0.27840003 1.4060607 110 93 93
-0.03103915 -0.27935237 1.4108704 112 96 94
-0.029628279 -0.27935237 1.4108704 118 103 101
-0.028217409 -0.27935237 1.4108704 115 99 98
-0.026806537 -0.27935237 1.4108704 120 103 102
-0.025223102 -0.27745414 1.4012835 118 102 103
-0.023903033 -0.27840003 1.4060607 116 101 103
-0.022664377 -0.28047168 1.4165236 117 103 105
-0.021247854 -0.28047168 1.4165236 117 102 104
-0.01983133 -0.28047168 1.4165236 113 99 99
-0.018414807 -0.28047168 1.4165236 117 102 102
-0.017056864 -0.28143826 1.4214053 121 106 106
-0.015635459 -0.28143826 1.4214053 122 108 110
-0.014263209 -0.28241152 1.4263209 119 102 103
-0.012836888 -0.28241152 1.4263209 120 102 102
-0.011371243 -0.28143826 1.4214053 120 105 105
-0.009949837 -0.28143826 1.4214053 126 107 106
-0.008557925 -0.28241152 1.4263209 126 108 109
-0.0071563525 -0.28339154 1.4312705 118 102 102
-0.005725082 -0.28339154 1.4312705 124 105 108
-0.0042938115 -0.28339154 1.4312705 132 112 114
-0.002862541 -0.28339154 1.4312705 134 112 114
-0.0014312705 -0.28339154 1.4312705 140 122 124
0.0 -0.28454357 1.4370887 143 126 124
0.0014370887 -0.28454357 1.4370887 152 133 134
0.0028741774 -0.28454357 1.4370887 157 137 136
0.004341521 -0.2865404 1.4471736 162 144 140
0.0059810677 -0.29606283 1.4952669 185 165 152
0.007781971 -0.30816606 1.5563942 210 190 168
0.009511853 -0.3138911 1.5853087 210 189 168
0.011012504 -0.31149653 1.5732148 214 193 170
0.012633909 -0.31268924 1.5792385 213 193 172
0.0141589325 -0.31149653 1.5732148 215 192 172
0.015732147 -0.31149653 1.5732148 221 200 179
0.017305363 -0.31149653 1.5732148 212 194 172
0.018878577 -0.31149653 1.5732148 210 189 169
0.020451792 -0.31149653 1.5732148 214 193 173
0.022025008 -0.31149653 1.5732148 222 201 179
0.02359822 -0.31149653 1.5732148 221 199 178
0.025267817 -0.31268924 1.5792385 213 192 170
0.026847055 -0.31268924 1.5792385 201 179 159
0.028317865 -0.31149653 1.5732148 213 196 171
0.029891081 -0.31149653 1.5732148 224 205 179
0.031464294 -0.31149653 1.5732148 221 201 178
0.03316401 -0.31268924 1.5792385 214 193 171
0.03474325 -0.31268924 1.5792385 216 193 172
0.036183942 -0.31149653 1.5732148 216 193 173
0.037757155 -0.31149653 1.5732148 215 196 174
0.039330367 -0.31149653 1.5732148 215 195 172
0.040903583 -0.31149653 1.5732148 221 200 179
0.0424768 -0.31149653 1.5732148 216 196 174
0.044050016 -0.31149653 1.5732148 215 194 171
0.045797918 -0.31268924 1.5792385 220 198 174
0.04719644 -0.31149653 1.5732148 218 197 173
0.048584335 -0.31031287 1.5672367 217 196 172
0.050342873 -0.31149653 1.5732148 225 203 178
0.051718812 -0.31031287 1.5672367 215 194 170
0.053489305 -0.31149653 1.5732148 220 199 174
0.054853283 -0.31031287 1.5672367 212 191 168
0.05642052 -0.31031287 1.5672367 214 192 168
0.057987753 -0.31031287 1.5672367 213 193 171
0.059554994 -0.31031287 1.5672367 212 191 169
0.06112223 -0.31031287 1.5672367 220 201 177
0.06268947 -0.31031287 1.5672367 221 201 179
0.06450181 -0.31149653 1.5732148 221 200 179
0.06607502 -0.31149653 1.5732148 216 196 171
0.06764823 -0.31149653 1.5732148 218 197 172
0.0694865 -0.31268924 1.5792385 224 201 177
0.070794664 -0.31149653 1.5732148 219 201 176
0.072367884 -0.31149653 1.5732148 222 200 177
0.07366013 -0.31031287 1.5672367 214 193 172
0.07580345 -0.31268924 1.5792385 209 187 166
0.07738269 -0.31268924 1.5792385 200 181 160
0.07896193 -0.31268924 1.5792385 194 171 158
0.08054117 -0.31268924 1.5792385 173 152 140
0.0821204 -0.31268924 1.5792385 165 145 130
0.08369964 -0.31268924 1.5792385 157 140 123
0.085278876 -0.31268924 1.5792385 146 128 116
0.086858116 -0.31268924 1.5792385 132 116 101
0.088437356 -0.31268924 1.5792385 131 113 99
0.090016596 -0.31268924 1.5792385 136 120 103
0.091595836 -0.31268924 1.5792385 132 118 100
0.09281967 -0.31149653 1.5732148 124 110 98
0.09439288 -0.31149653 1.5732148 119 105 93
0.09560143 -0.31031287 1.5672367 122 107 93
0.09716867 -0.31031287 1.5672367 123 108 92
0.098362155 -0.30913818 1.561304 121 106 93
0.09960923 -0.30816606 1.5563942 121 106 95
0.10003317 -0.30471644 1.5389719 119 105 95
0.10044772 -0.30134317 1.5219352 123 107 94
0.10165706 -0.30041936 1.5172696 128 113 100
0.102048114 -0.29714006 1.5007075 129 113 103
0.10280072 -0.29499337 1.4898655 124 108 98
0.103542544 -0.29287747 1.4791791 116 101 92
0.10502172 -0.29287747 1.4791791 111 97 91
0.106057145 -0.29165715 1.4730159 108 95 92
0.10798008 -0.29287747 1.4791791 107 91 89
0.10900317 -0.29165715 1.4730159 104 89 86
0.11008304 -0.29061922 1.4677739 106 89 84
0.11155082 -0.29061922 1.4677739 99 84 78
0.11261781 -0.28958866 1.462569 102 86 83
0.113277 -0.2875493 1.4522692 98 81 79
0.11472926 -0.2875493 1.4522692 97 80 77
0.11700553 -0.28958866 1.462569 99 82 81
0.11846808 -0.28958866 1.462569 95 79 76
0.119930655 -0.28958866 1.462569 97 79 77
0.12096428 -0.28856537 1.4574009 97 81 77
0.122421674 -0.28856537 1.4574009 98 84 81
0.12387908 -0.28856537 1.4574009 98 84 80
0.12533648 -0.28856537 1.4574009 99 85 82
0.12679388 -0.28856537 1.4574009 100 86 83
0.12779969 -0.2875493 1.4522692 96 81 78
0.12970868 -0.28856537 1.4574009 88 73 69
0.13116607 -0.28856537 1.4574009 86 72 68
0.13404445 -0.29165715 1.4730159 84 71 67
0.13706763 -0.29499337 1.4898655 82 68 66
0.1395658 -0.29714006 1.5007075 77 63 63
0.1421006 -0.29931825 1.5117085 74 60 60
0.14414062 -0.30041936 1.5172696 71 58 57
0.14664692 -0.30245927 1.527572 66 52 50
0.14817448 -0.30245927 1.527572 64 53 45
0.14970206 -0.30245927 1.527572 62 49 43
0.15122963 -0.30245927 1.527572 63 50 40
0.1527572 -0.30245927 1.527572 63 49 40
0.15485834 -0.30358365 1.5332508 70 55 46
0.15639159 -0.30358365 1.5332508 70 55 47
0.15792483 -0.30358365 1.5332508 73 59 51
0.16005307 -0.30471644 1.5389719 75 61 53
0.16159205 -0.30471644 1.5389719 85 69 61
0.16374199 -0.3058577 1.5447358 93 74 67
0.16467 -0.30471644 1.5389719 108 89 82
0.16620897 -0.30471644 1.5389719 129 108 98
0.16774794 -0.30471644 1.5389719 140 122 108
0.16992095 -0.3058577 1.5447358 146 129 111
0.17146567 -0.3058577 1.5447358 152 133 115
0.17366083 -0.30700755 1.5505431 161 141 121
0.17521137 -0.30700755 1.5505431 163 141 125
0.17609988 -0.3058577 1.5447358 160 135 121
0.17831245 -0.30700755 1.5505431 171 145 129
0.17986299 -0.30700755 1.5505431 201 174 157
0.18141355 -0.30700755 1.5505431 185 160 146
0.18227883 -0.3058577 1.5447358 197 170 152
0.18521091 -0.30816606 1.5563942 198 174 154
0.18735647 -0.30913818 1.561304 206 183 162
0.1883237 -0.30816606 1.5563942 203 179 158
0.19047908 -0.30913818 1.561304 192 170 151
0.1914365 -0.30816606 1.5563942 199 175 157
0.19507863 -0.31149653 1.5732148 200 176 159
0.19590458 -0.31031287 1.5672367 176 154 139
0.19672431 -0.30913818 1.561304 200 175 157
0.1982856 -0.30913818 1.561304 207 181 165
0.20214254 -0.31268924 1.5792385 219 194 173
0.20450482 -0.3138911 1.5853087 211 188 167
0.20530102 -0.31268924 1.5792385 215 189 169
0.20688024 -0.31268924 1.5792385 200 179 160
0.20845948 -0.31268924 1.5792385 208 187 168
0.21003872 -0.31268924 1.5792385 208 187 168
0.21161796 -0.31268924 1.5792385 204 184 165
0.2131972 -0.31268924 1.5792385 198 177 159
0.21560198 -0.3138911 1.5853087 202 180 161
0.2178852 -0.31489974 1.5904028 203 179 162
0.21947558 -0.31489974 1.5904028 207 185 165
0.221066 -0.31489974 1.5904028 212 187 170
0.2226564 -0.31489974 1.5904028 209 188 166
0.2242468 -0.31489974 1.5904028 210 187 164
0.22671139 -0.31611872 1.5965592 197 175 150
0.22830796 -0.31611872 1.5965592 195 166 140
-0.22741036 -0.31426847 1.5792385 192 119 91
-0.22583112 -0.31426847 1.5792385 193 118 91
-0.22425188 -0.31426847 1.5792385 191 119 91
-0.22267264 -0.31426847 1.5792385 200 122 93
-0.2210934 -0.31426847 1.5792385 181 111 84
-0.21951416 -0.31426847 1.5792385 184 115 86
-0.21793492 -0.31426847 1.5792385 185 119 95
-0.21635568 -0.31426847 1.5792385 183 129 112
-0.21477644 -0.31426847 1.5792385 189 148 128
-0.2131972 -0.31426847 1.5792385 196 169 147
-0.21243137 -0.31547645 1.5853087 192 168 147
-0.21084605 -0.31547645 1.5853087 192 170 153
-0.20993318 -0.31649017 1.5904028 190 167 150
-0.20767543 -0.31547645 1.5853087 192 170 151
-0.20609014 -0.31547645 1.5853087 191 170 150
-0.20450482 -0.31547645 1.5853087 195 173 155
-0.20214254 -0.31426847 1.5792385 195 173 154
-0.2005633 -0.31426847 1.5792385 191 169 151
-0.19898406 -0.31426847 1.5792385 193 172 152
-0.19740482 -0.31426847 1.5792385 195 172 154
-0.19657828 -0.31547645 1.5853087 189 168 150
-0.19499296 -0.31547645 1.5853087 188 167 148
-0.19340765 -0.31547645 1.5853087 195 174 156
-0.19182234 -0.31547645 1.5853087 193 171 153
-0.18950862 -0.31426847 1.5792385 192 170 147
-0.18865174 -0.31547645 1.5853087 194 170 148
-0.18706642 -0.31547645 1.5853087 191 168 146
-0.18548112 -0.31547645 1.5853087 191 168 146
-0.18389581 -0.31547645 1.5853087 189 165 144
-0.18161243 -0.31426847 1.5792385 188 165 144
-0.18003319 -0.31426847 1.5792385 192 168 148
-0.17845395 -0.31426847 1.5792385 194 171 150
-0.17620006 -0.31306973 1.5732148 199 176 156
-0.17462684 -0.31306973 1.5732148 198 175 154
-0.17305362 -0.31306973 1.5732148 191 170 150
-0.1714804 -0.31306973 1.5732148 193 170 147
-0.1699072 -0.31306973 1.5732148 192 169 147
-0.16833398 -0.31306973 1.5732148 192 169 146
-0.16676077 -0.31306973 1.5732148 190 169 143
-0.16518755 -0.31306973 1.5732148 186 165 140
-0.16361433 -0.31306973 1.5732148 187 165 141
-0.16204113 -0.31306973 1.5732148 186 165 141
-0.16046791 -0.31306973 1.5732148 187 164 142
-0.1588947 -0.31306973 1.5732148 182 159 139
-0.15732147 -0.31306973 1.5732148 164 146 128
-0.15574826 -0.31306973 1.5732148 169 148 128
-0.15417504 -0.31306973 1.5732148 168 145 124
-0.15260184 -0.31306973 1.5732148 163 142 122
-0.15102862 -0.31306973 1.5732148 161 138 118
-0.14888749 -0.31188008 1.5672367 151 127 104
-0.1478822 -0.31306973 1.5732148 147 124 100
-0.14575301 -0.31188008 1.5672367 147 124 101
-0.14418578 -0.31188008 1.5672367 155 132 105
-0.14207865 -0.3106995 1.561304 152 130 108
-0.1410513 -0.31188008 1.5672367 144 121 102
-0.13895606 -0.3106995 1.561304 138 114 95
-0.1369627 -0.30972245 1.5563942 130 106 91
-0.1354063 -0.30972245 1.5563942 126 99 84
-0.1338499 -0.30972245 1.5563942 123 96 81
-0.13229351 -0.30972245 1.5563942 115 92 79
-0.13024563 -0.30855808 1.5505431 120 97 86
-0.12869507 -0.30855808 1.5505431 106 87 79
-0.12666833 -0.30740243 1.5447358 98 81 77
-0.12512359 -0.30740243 1.5447358 77 68 63
-0.12311775 -0.3062554 1.5389719 69 62 56
-0.12157878 -0.3062554 1.5389719 72 59 55
-0.11959357 -0.30511692 1.5332508 69 56 50
-0.11806031 -0.30511692 1.5332508 66 56 47
-0.11652706 -0.30511692 1.5332508 66 54 46
-0.1145679 -0.30398685 1.527572 65 54 46
-0.11304033 -0.30398685 1.527572 65 54 46
-0.11110127 -0.30286512 1.5219352 65 54 46
-0.10957934 -0.30286512 1.5219352 66 54 46
-0.10772614 -0.30193666 1.5172696 70 56 50
-0.10620887 -0.30193666 1.5172696 70 57 50
-0.10430788 -0.30082998 1.5117085 70 58 51
-0.10242078 -0.29973137 1.5061879 68 56 50
-0.10091459 -0.29973137 1.5061879 73 61 58
-0.09868761 -0.2975581 1.4952669 76 64 61
-0.097192355 -0.2975581 1.4952669 75 65 58
-0.09393753 -0.29208702 1.4677739 79 69 62
-0.09246976 -0.29208702 1.4677739 79 66 60
-0.09067927 -0.29105124 1.462569 81 65 62
-0.0892167 -0.29105124 1.462569 88 74 68
-0.08713616 -0.28900155 1.4522692 91 78 71
-0.08568388 -0.28900155 1.4522692 84 70 63
-0.084231615 -0.28900155 1.4522692 86 72 66
-0.082488894 -0.28798756 1.4471736 88 74 68
-0.081041716 -0.28798756 1.4471736 86 73 67
-0.07959455 -0.28798756 1.4471736 87 73 66
-0.078147374 -0.28798756 1.4471736 86 72 65
-0.0767002 -0.28798756 1.4471736 85 71 65
-0.07498991 -0.2869806 1.4421135 83 70 65
-0.07354779 -0.2869806 1.4421135 83 69 64
-0.07185444 -0.28598064 1.4370887 80 66 61
-0.07041735 -0.28598064 1.4370887 80 66 61
-0.068980254 -0.28598064 1.4370887 80 65 61
-0.06726971 -0.28482282 1.4312705 82 67 65
-0.06561077 -0.28383785 1.4263209 78 65 63
-0.063963234 -0.28285965 1.4214053 82 67 67
-0.06232704 -0.2818882 1.4165236 106 89 87
-0.060910515 -0.2818882 1.4165236 111 95 89
-0.05905455 -0.27980608 1.4060607 111 95 89
-0.057648487 -0.27980608 1.4060607 111 95 89
-0.05624243 -0.27980608 1.4060607 109 95 89
-0.05483637 -0.27980608 1.4060607 108 93 90
-0.053430304 -0.27980608 1.4060607 108 96 92
-0.052024245 -0.27980608 1.4060607 119 105 100
-0.050618187 -0.27980608 1.4060607 115 101 100
-0.049212124 -0.27980608 1.4060607 105 92 90
-0.047806066 -0.27980608 1.4060607 110 94 90
-0.046400003 -0.27980608 1.4060607 109 95 91
-0.045147855 -0.2807632 1.4108704 103 87 80
-0.043736983 -0.2807632 1.4108704 106 90 87
-0.042326115 -0.2807632 1.4108704 107 93 95
-0.04091524 -0.2807632 1.4108704 106 93 92
-0.0393697 -0.27980608 1.4060607 108 94 93
-0.03796364 -0.27980608 1.4060607 108 92 91
-0.036433373 -0.2788554 1.4012835 106 89 88
-0.035151515 -0.27980608 1.4060607 103 86 84
-0.033745456 -0.27980608 1.4060607 111 92 90
-0.032339398 -0.27980608 1.4060607 103 86 86
-0.030933334 -0.27980608 1.4060607 107 91 90
-0.029527275 -0.27980608 1.4060607 111 97 94
-0.028217409 -0.2807632 1.4108704 112 97 95
-0.026806537 -0.2807632 1.4108704 119 104 102
-0.025309093 -0.27980608 1.4060607 117 102 103
-0.023984797 -0.2807632 1.4108704 115 100 100
-0.022664377 -0.2818882 1.4165236 117 102 104
-0.021247854 -0.2818882 1.4165236 120 104 106
-0.01983133 -0.2818882 1.4165236 111 98 98
-0.018414807 -0.2818882 1.4165236 115 101 99
-0.016998284 -0.2818882 1.4165236 112 97 98
-0.015635459 -0.28285965 1.4214053 119 101 103
-0.014214053 -0.28285965 1.4214053 120 100 100
-0.012792649 -0.28285965 1.4214053 116 97 99
-0.011371243 -0.28285965 1.4214053 112 97 100
-0.009949837 -0.28285965 1.4214053 116 100 97
-0.008557925 -0.28383785 1.4263209 123 106 104
-0.0071316045 -0.28383785 1.4263209 117 100 99
-0.005725082 -0.28482282 1.4312705 120 102 103
-0.0042938115 -0.28482282 1.4312705 123 104 107
-0.002862541 -0.28482282 1.4312705 127 107 109
-0.0014312705 -0.28482282 1.4312705 131 114 115
0.0 -0.28598064 1.4370887 136 120 119
0.0014370887 -0.28598064 1.4370887 142 126 125
0.0028741774 -0.28598064 1.4370887 151 131 130
0.004311266 -0.28598064 1.4370887 154 138 135
0.0059167165 -0.29435664 1.4791791 169 151 143
0.0076948595 -0.3062554 1.5389719 205 183 164
0.009439289 -0.31306973 1.5732148 206 186 165
0.010929128 -0.3106995 1.561304 213 190 168
0.012585718 -0.31306973 1.5732148 209 186 167
0.01410513 -0.31188008 1.5672367 212 189 170
0.015672367 -0.31188008 1.5672367 229 202 181
0.017305363 -0.31306973 1.5732148 223 201 180
0.018878577 -0.31306973 1.5732148 220 199 178
0.020451792 -0.31306973 1.5732148 224 202 181
0.021941314 -0.31188008 1.5672367 222 201 179
0.02359822 -0.31306973 1.5732148 209 191 170
0.025171436 -0.31306973 1.5732148 206 188 165
0.026744653 -0.31306973 1.5732148 218 194 172
0.028317865 -0.31306973 1.5732148 216 195 173
0.029777497 -0.31188008 1.5672367 214 195 172
0.031344734 -0.31188008 1.5672367 216 196 173
0.03303751 -0.31306973 1.5732148 202 180 161
0.03474325 -0.31426847 1.5792385 197 175 157
0.036183942 -0.31306973 1.5732148 208 188 167
0.03761368 -0.31188008 1.5672367 216 196 173
0.039180916 -0.31188008 1.5672367 219 199 176
0.040748153 -0.31188008 1.5672367 218 200 177
0.0424768 -0.31306973 1.5732148 209 188 166
0.044050016 -0.31306973 1.5732148 209 186 165
0.045449864 -0.31188008 1.5672367 220 200 175
0.0470171 -0.31188008 1.5672367 221 201 176
0.048584335 -0.31188008 1.5672367 214 194 170
0.05015157 -0.31188008 1.5672367 209 189 165
0.051718812 -0.31188008 1.5672367 210 189 164
0.053286046 -0.31188008 1.5672367 211 190 165
0.05464564 -0.3106995 1.561304 211 191 166
0.056206945 -0.3106995 1.561304 209 189 165
0.057987753 -0.31188008 1.5672367 211 191 167
0.05932955 -0.3106995 1.561304 214 192 170
0.06112223 -0.31188008 1.5672367 217 195 172
0.06268947 -0.31188008 1.5672367 221 200 178
0.064256705 -0.31188008 1.5672367 220 199 178
0.065823935 -0.31188008 1.5672367 211 191 168
0.06764823 -0.31306973 1.5732148 207 185 164
0.06922145 -0.31306973 1.5732148 205 183 162
0.070794664 -0.31306973 1.5732148 212 192 169
0.07209289 -0.31188008 1.5672367 213 192 171
0.07366013 -0.31188008 1.5672367 213 192 171
0.07551431 -0.31306973 1.5732148 197 175 155
0.07708752 -0.31306973 1.5732148 170 152 135
0.078660734 -0.31306973 1.5732148 194 172 158
0.080233954 -0.31306973 1.5732148 170 152 139
0.081496306 -0.31188008 1.5672367 175 155 139
0.08306354 -0.31188008 1.5672367 163 145 129
0.08463078 -0.31188008 1.5672367 166 148 134
0.08619802 -0.31188008 1.5672367 162 145 127
0.08810003 -0.31306973 1.5732148 154 136 120
0.08967324 -0.31306973 1.5732148 143 129 113
0.09089973 -0.31188008 1.5672367 137 124 107
0.092466965 -0.31188008 1.5672367 134 118 102
0.0940342 -0.31188008 1.5672367 129 113 99
0.09523954 -0.3106995 1.561304 125 109 95
0.09680085 -0.3106995 1.561304 123 108 93
0.09805284 -0.30972245 1.5563942 121 105 91
0.099923454 -0.3106995 1.561304 128 110 97
0.10003317 -0.3062554 1.5389719 114 101 90
0.10119455 -0.30511692 1.5332508 116 104 92
0.10196966 -0.30286512 1.5219352 121 106 98
0.10279618 -0.30082998 1.5117085 127 112 104
0.10354882 -0.29864082 1.5007075 121 104 96
0.10429059 -0.29648325 1.4898655 118 102 95
0.10539973 -0.29541615 1.4845031 113 98 92
0.1065009 -0.29435664 1.4791791 112 97 93
0.1071475 -0.29208702 1.4677739 107 92 89
0.10861527 -0.29208702 1.4677739 103 89 86
0.10930507 -0.2900228 1.4574009 103 88 83
0.11076247 -0.2900228 1.4574009 100 84 79
0.111432366 -0.28798756 1.4471736 103 87 84
0.11248486 -0.2869806 1.4421135 99 82 78
0.11392697 -0.2869806 1.4421135 98 82 77
0.11618154 -0.28900155 1.4522692 102 85 82
0.11804948 -0.2900228 1.4574009 99 83 82
0.11950687 -0.2900228 1.4574009 98 83 81
0.121393226 -0.29105124 1.462569 100 85 83
0.123293005 -0.29208702 1.4677739 100 86 83
0.12476078 -0.29208702 1.4677739 99 85 81
0.12578094 -0.29105124 1.462569 99 86 83
0.1272435 -0.29105124 1.462569 100 85 82
0.12779969 -0.28900155 1.4522692 88 74 70
0.13016865 -0.29105124 1.462569 80 66 62
0.1340879 -0.29648325 1.4898655 77 62 59
0.13756548 -0.30082998 1.5117085 74 59 56
0.14105909 -0.30511692 1.5332508 73 57 53
0.14312439 -0.3062554 1.5389719 70 56 50
0.14466336 -0.3062554 1.5389719 68 56 48
0.14620233 -0.3062554 1.5389719 68 56 49
0.14719208 -0.30511692 1.5332508 64 51 44
0.14872533 -0.30511692 1.5332508 61 49 42
0.15025857 -0.30511692 1.5332508 64 52 45
0.15179183 -0.30511692 1.5332508 65 52 43
0.15332507 -0.30511692 1.5332508 64 50 41
0.15543616 -0.3062554 1.5389719 66 52 44
0.15697514 -0.3062554 1.5389719 71 57 49
0.1585141 -0.3062554 1.5389719 76 62 54
0.16005307 -0.3062554 1.5389719 73 59 51
0.16159205 -0.3062554 1.5389719 81 65 56
0.16313103 -0.3062554 1.5389719 95 77 69
0.16528673 -0.30740243 1.5447358 113 94 87
0.16683146 -0.30740243 1.5447358 133 111 101
0.1683762 -0.30740243 1.5447358 145 128 111
0.16992095 -0.30740243 1.5447358 156 139 119
0.17146567 -0.30740243 1.5447358 163 143 124
0.17301041 -0.30740243 1.5447358 173 150 130
0.17521137 -0.30855808 1.5505431 179 153 135
0.17676191 -0.30855808 1.5505431 190 164 145
0.17831245 -0.30855808 1.5505431 189 163 145
0.17918934 -0.30740243 1.5447358 188 163 148
0.18073408 -0.30740243 1.5447358 176 154 141
0.18296409 -0.30855808 1.5505431 181 159 143
0.18451461 -0.30855808 1.5505431 205 184 163
0.18676731 -0.30972245 1.5563942 207 184 163
0.18761571 -0.30855808 1.5505431 213 189 167
0.1898801 -0.30972245 1.5563942 207 186 165
0.19204038 -0.3106995 1.561304 207 186 166
0.19433734 -0.31188008 1.5672367 216 194 174
0.19590458 -0.31188008 1.5672367 216 192 173
0.19610567 -0.30972245 1.5563942 203 183 162
0.1982856 -0.3106995 1.561304 192 171 154
0.20137149 -0.31306973 1.5732148 194 175 155
0.20372178 -0.31426847 1.5792385 214 191 171
0.20451792 -0.31306973 1.5732148 211 185 166
0.20609114 -0.31306973 1.5732148 206 182 163
0.20766436 -0.31306973 1.5732148 209 187 167
0.20923756 -0.31306973 1.5732148 209 189 169
0.21081078 -0.31306973 1.5732148 217 193 174
0.21238399 -0.31306973 1.5732148 203 181 163
0.21477644 -0.31426847 1.5792385 196 173 156
0.21718729 -0.31547645 1.5853087 192 169 154
0.2187726 -0.31547645 1.5853087 212 188 170
0.21951416 -0.31426847 1.5792385 211 186 168
0.2226564 -0.31649017 1.5904028 206 183 163
0.2242468 -0.31649017 1.5904028 207 187 167
0.22671139 -0.31771526 1.5965592 205 181 159
0.22830796 -0.31771526 1.5965592 188 165 142
-0.22741036 -0.31584772 1.5792385 183 104 80
-0.22583112 -0.31584772 1.5792385 181 101 78
-0.22425188 -0.31584772 1.5792385 180 100 73
-0.22267264 -0.31584772 1.5792385 181 103 74
-0.2210934 -0.31584772 1.5792385 179 103 75
-0.21951416 -0.31584772 1.5792385 183 110 80
-0.21793492 -0.31584772 1.5792385 181 119 93
-0.21635568 -0.31584772 1.5792385 196 149 122
-0.21477644 -0.31584772 1.5792385 199 163 138
-0.2131972 -0.31584772 1.5792385 191 166 143
-0.21243137 -0.31706172 1.5853087 189 168 145
-0.21084605 -0.31706172 1.5853087 182 162 145
-0.20926075 -0.31706172 1.5853087 186 164 147
-0.20688024 -0.31584772 1.5792385 190 169 150
-0.20530102 -0.31584772 1.5792385 188 168 149
-0.20372178 -0.31584772 1.5792385 192 170 151
-0.20214254 -0.31584772 1.5792385 190 169 150
-0.2005633 -0.31584772 1.5792385 189 167 149
-0.19898406 -0.31584772 1.5792385 181 160 142
-0.19665185 -0.31464294 1.5732148 186 165 147
-0.19582558 -0.31584772 1.5792385 191 170 151
-0.19424634 -0.31584772 1.5792385 188 167 148
-0.1926671 -0.31584772 1.5792385 190 167 149
-0.19108786 -0.31584772 1.5792385 191 170 151
-0.18950862 -0.31584772 1.5792385 191 167 145
-0.18792938 -0.31584772 1.5792385 192 169 145
-0.18635014 -0.31584772 1.5792385 190 166 145
-0.18477091 -0.31584772 1.5792385 192 169 147
-0.18319167 -0.31584772 1.5792385 195 171 149
-0.18091969 -0.31464294 1.5732148 190 167 145
-0.17934649 -0.31464294 1.5732148 193 169 147
-0.17777327 -0.31464294 1.5732148 197 174 151
-0.17620006 -0.31464294 1.5732148 195 175 153
-0.17462684 -0.31464294 1.5732148 195 176 154
-0.17305362 -0.31464294 1.5732148 189 169 150
-0.1714804 -0.31464294 1.5732148 190 168 150
-0.1699072 -0.31464294 1.5732148 195 171 151
-0.16833398 -0.31464294 1.5732148 193 170 149
-0.16676077 -0.31464294 1.5732148 189 167 144
-0.16518755 -0.31464294 1.5732148 188 167 141
-0.16299261 -0.31344733 1.5672367 189 169 141
-0.16142537 -0.31344733 1.5672367 196 172 148
-0.15985814 -0.31344733 1.5672367 188 165 141
-0.15829091 -0.31344733 1.5672367 184 161 140
-0.15672366 -0.31344733 1.5672367 186 163 144
-0.15515643 -0.31344733 1.5672367 177 155 132
-0.15358919 -0.31344733 1.5672367 169 147 124
-0.15202196 -0.31344733 1.5672367 164 143 123
-0.15045471 -0.31344733 1.5672367 157 136 117
-0.14888749 -0.31344733 1.5672367 154 133 112
-0.14676258 -0.3122608 1.561304 151 129 107
-0.14575301 -0.31344733 1.5672367 151 129 108
-0.14418578 -0.31344733 1.5672367 153 130 109
-0.14207865 -0.3122608 1.561304 147 125 106
-0.14051737 -0.3122608 1.561304 139 119 100
-0.13895606 -0.3122608 1.561304 136 114 96
-0.1369627 -0.31127885 1.5563942 129 106 85
-0.13489725 -0.3101086 1.5505431 116 94 73
-0.1333467 -0.3101086 1.5505431 110 91 76
-0.13229351 -0.31127885 1.5563942 115 95 81
-0.13024563 -0.3101086 1.5505431 117 97 84
-0.12869507 -0.3101086 1.5505431 109 90 79
-0.12666833 -0.30894715 1.5447358 108 91 83
-0.12465672 -0.30779436 1.5389719 94 81 75
-0.12311775 -0.30779436 1.5389719 72 63 56
-0.12157878 -0.30779436 1.5389719 70 61 53
-0.119150616 -0.3055144 1.527572 63 56 49
-0.11806031 -0.30665013 1.5332508 63 56 51
-0.11652706 -0.30665013 1.5332508 65 54 47
-0.11499381 -0.30665013 1.5332508 65 53 45
-0.11304033 -0.3055144 1.527572 63 51 43
-0.11110127 -0.30438706 1.5219352 63 52 43
-0.10884301 -0.3023417 1.5117085 64 52 45
-0.10772614 -0.30345392 1.5172696 66 53 46
-0.10620887 -0.30345392 1.5172696 66 53 46
-0.1046916 -0.30345392 1.5172696 67 55 49
-0.10279618 -0.3023417 1.5117085 66 54 51
-0.10091459 -0.30123758 1.5061879 71 57 53
-0.0994084 -0.30123758 1.5061879 73 59 55
-0.09754599 -0.3001415 1.5007075 72 60 55
-0.094273016 -0.29460317 1.4730159 76 65 59
-0.092800006 -0.29460317 1.4730159 77 65 59
-0.09100198 -0.29355478 1.4677739 77 64 58
-0.0892167 -0.2925138 1.462569 82 66 63
-0.08744405 -0.29148018 1.4574009 88 74 68
-0.08598666 -0.29148018 1.4574009 86 70 66
-0.084231615 -0.29045382 1.4522692 84 68 64
-0.08277934 -0.29045382 1.4522692 87 73 68
-0.081041716 -0.28943473 1.4471736 86 73 67
-0.07959455 -0.28943473 1.4471736 87 74 68
-0.078147374 -0.28943473 1.4471736 86 74 67
-0.07643201 -0.2884227 1.4421135 84 71 66
-0.07498991 -0.2884227 1.4421135 82 69 64
-0.073291525 -0.28741777 1.4370887 82 68 63
