ply
format ascii 1.0
element vertex 1083
property float32 x
property float32 y
property float32 z
property uchar red
property uchar green
property uchar blue
element face 0
property list uint8 int32 vertex_indices
end_header
-0.082554415 -0.13562511 1.9655812 84 82 74
-0.08091015 -0.13616587 1.9734185 80 76 68
-0.07893674 -0.13616587 1.9734185 80 78 69
-0.077271424 -0.13671097 1.9813185 86 83 75
-0.07559271 -0.13726045 1.9892819 79 76 67
-0.07360343 -0.13726045 1.9892819 83 80 72
-0.07132747 -0.13671097 1.9813185 87 84 76
-0.069346145 -0.13671097 1.9813185 78 75 66
-0.06763558 -0.13726045 1.9892819 88 84 75
-0.0656463 -0.13726045 1.9892819 87 83 75
-0.06365702 -0.13726045 1.9892819 80 77 68
-0.0619166 -0.13781436 1.9973097 89 85 77
-0.05991929 -0.13781436 1.9973097 84 81 73
-0.057921983 -0.13781436 1.9973097 84 79 72
-0.055924673 -0.13781436 1.9973097 89 85 78
-0.05414587 -0.13837278 2.0054026 86 81 73
-0.052140463 -0.13837278 2.0054026 84 80 71
-0.050135065 -0.13837278 2.0054026 88 85 76
-0.048129663 -0.13837278 2.0054026 85 80 71
-0.04612426 -0.13837278 2.0054026 88 84 75
-0.04411886 -0.13837278 2.0054026 88 82 73
-0.042113453 -0.13837278 2.0054026 88 82 74
-0.04010805 -0.13837278 2.0054026 93 86 80
-0.03810265 -0.13837278 2.0054026 88 84 74
-0.036097243 -0.13837278 2.0054026 90 84 76
-0.03409184 -0.13837278 2.0054026 91 85 77
-0.03208644 -0.13837278 2.0054026 87 81 72
-0.03008104 -0.13837278 2.0054026 92 86 79
-0.028075635 -0.13837278 2.0054026 91 87 79
-0.026070232 -0.13837278 2.0054026 88 82 74
-0.024064831 -0.13837278 2.0054026 92 86 78
-0.02205943 -0.13837278 2.0054026 88 82 74
-0.020135613 -0.13893573 2.0135612 87 81 73
-0.01812205 -0.13893573 2.0135612 90 85 78
-0.01610849 -0.13893573 2.0135612 89 84 78
-0.014094928 -0.13893573 2.0135612 88 82 77
-0.012032416 -0.13837278 2.0054026 90 84 79
-0.010027013 -0.13837278 2.0054026 85 81 76
-0.00802161 -0.13837278 2.0054026 84 81 75
-0.006016208 -0.13837278 2.0054026 83 79 73
-0.0040271226 -0.13893573 2.0135612 84 79 74
-0.0020054025 -0.13837278 2.0054026 80 76 71
0.0 -0.1393894 2.020136 77 73 67
0.0020201362 -0.1393894 2.020136 73 70 64
0.0040402724 -0.1393894 2.020136 67 63 57
0.0060604084 -0.1393894 2.020136 66 63 56
0.008080545 -0.1393894 2.020136 63 60 54
0.01010068 -0.1393894 2.020136 59 56 49
0.012120817 -0.1393894 2.020136 58 55 49
0.014140953 -0.1393894 2.020136 51 47 41
0.016227324 -0.13996066 2.0284154 53 50 45
0.018255739 -0.13996066 2.0284154 51 51 44
0.020284155 -0.13996066 2.0284154 52 54 48
0.02231257 -0.13996066 2.0284154 57 57 51
0.024340983 -0.13996066 2.0284154 57 57 51
0.0263694 -0.13996066 2.0284154 53 55 48
0.028397815 -0.13996066 2.0284154 57 58 50
0.030551441 -0.14053662 2.0367627 62 60 51
0.03232218 -0.1393894 2.020136 70 66 58
0.034483064 -0.13996066 2.0284154 70 65 58
0.036511477 -0.13996066 2.0284154 78 74 66
0.038539894 -0.13996066 2.0284154 79 73 65
0.04056831 -0.13996066 2.0284154 79 75 69
0.042596724 -0.13996066 2.0284154 81 71 68
0.04462514 -0.13996066 2.0284154 87 78 76
0.046653558 -0.13996066 2.0284154 83 70 68
0.048681967 -0.13996066 2.0284154 72 58 54
0.050710384 -0.13996066 2.0284154 65 56 49
0.05295583 -0.14053662 2.0367627 62 49 42
0.054767217 -0.13996066 2.0284154 66 50 44
0.05679563 -0.13996066 2.0284154 67 53 46
0.05906612 -0.14053662 2.0367627 79 55 48
0.061102882 -0.14053662 2.0367627 80 53 46
0.06288088 -0.13996066 2.0284154 105 75 69
0.06464436 -0.1393894 2.020136 113 79 71
0.06666449 -0.1393894 2.020136 127 86 75
0.06868463 -0.1393894 2.020136 146 90 81
0.070704766 -0.1393894 2.020136 163 112 98
0.073022954 -0.13996066 2.0284154 236 184 158
0.07505137 -0.13996066 2.0284154 229 201 173
0.07739698 -0.14053662 2.0367627 227 201 176
0.07943375 -0.14053662 2.0367627 220 200 170
0.08080544 -0.1393894 2.020136 229 204 173
0.083165035 -0.13996066 2.0284154 227 199 166
0.08456957 -0.13893573 2.0135612 232 177 139
0.085196696 -0.13671097 1.9813185 209 144 110
0.08553444 -0.13413355 1.9439645 129 120 111
0.08546431 -0.13104528 1.899207 112 120 112
0.08669815 -0.13004723 1.8847424 108 117 110
0.088582896 -0.13004723 1.8847424 111 119 109
0.09046764 -0.13004723 1.8847424 115 123 115
0.092352375 -0.13004723 1.8847424 117 124 117
0.09387962 -0.12955387 1.8775923 121 130 122
0.09575721 -0.12955387 1.8775923 130 140 130
0.09763481 -0.12955387 1.8775923 143 156 145
0.09951239 -0.12955387 1.8775923 139 150 139
0.10093052 -0.12896676 1.8690836 120 129 120
0.1027996 -0.12896676 1.8690836 124 129 122
0.104668684 -0.12896676 1.8690836 111 118 110
0.10613695 -0.12848157 1.8620517 102 108 101
0.107999 -0.12848157 1.8620517 116 124 116
0.10986105 -0.12848157 1.8620517 104 110 103
0.11172311 -0.12848157 1.8620517 120 127 120
0.11358515 -0.12848157 1.8620517 134 143 135
0.11544721 -0.12848157 1.8620517 133 142 136
0.11730926 -0.12848157 1.8620517 167 180 172
0.119171314 -0.12848157 1.8620517 167 180 171
0.12103336 -0.12848157 1.8620517 158 169 161
0.12243479 -0.128 1.8550725 184 200 189
0.124289855 -0.128 1.8550725 169 182 173
0.12614493 -0.128 1.8550725 184 200 191
0.128 -0.128 1.8550725 186 198 189
0.12985507 -0.128 1.8550725 175 190 181
0.13171014 -0.128 1.8550725 197 210 200
0.13406771 -0.12848157 1.8620517 179 189 180
0.13592978 -0.12848157 1.8620517 194 207 197
0.13779183 -0.12848157 1.8620517 174 186 176
0.13965389 -0.12848157 1.8620517 194 204 196
0.14151593 -0.12848157 1.8620517 169 177 168
0.14337797 -0.12848157 1.8620517 191 200 190
0.14524004 -0.12848157 1.8620517 178 187 177
0.1476576 -0.12896676 1.8690836 182 186 177
0.14896414 -0.12848157 1.8620517 171 175 174
0.15266414 -0.13004723 1.8847424 150 149 145
0.15513967 -0.13054433 1.891947 177 174 160
0.1651104 -0.13726045 1.9892819 171 161 133
0.18526916 -0.15218538 2.2055852 228 170 31
0.19938074 -0.16185023 2.3456557 241 173 0
-0.21426706 -0.16482082 2.354583 220 197 176
-0.21110901 -0.1641959 2.3456557 219 201 176
-0.20777865 -0.1634214 2.3345914 223 201 176
-0.20295496 -0.16144145 2.3063064 222 202 177
-0.1918859 -0.15439096 2.2055852 213 205 180
-0.17646876 -0.14363736 2.0519624 142 144 132
-0.16523698 -0.13607751 1.9439645 136 140 129
-0.15771776 -0.13143146 1.8775923 134 141 129
-0.15584016 -0.13143146 1.8775923 136 142 130
-0.15211596 -0.12985507 1.8550725 139 143 132
-0.14914285 -0.12888889 1.8412699 144 151 138
-0.14730158 -0.12888889 1.8412699 140 147 135
-0.14546031 -0.12888889 1.8412699 141 147 136
-0.14361905 -0.12888889 1.8412699 143 153 141
-0.14177777 -0.12888889 1.8412699 148 156 145
-0.1399365 -0.12888889 1.8412699 153 161 149
-0.13809524 -0.12888889 1.8412699 153 162 151
-0.13625397 -0.12888889 1.8412699 156 166 152
-0.1344127 -0.12888889 1.8412699 163 174 161
-0.13208006 -0.12841117 1.8344454 154 164 157
-0.13024563 -0.12841117 1.8344454 150 160 153
-0.12793697 -0.12793697 1.8276712 149 159 151
-0.12610932 -0.12793697 1.8276712 147 158 146
-0.12428164 -0.12793697 1.8276712 161 171 160
-0.12245397 -0.12793697 1.8276712 160 168 157
-0.1206263 -0.12793697 1.8276712 155 165 155
-0.11879863 -0.12793697 1.8276712 158 169 158
-0.11697096 -0.12793697 1.8276712 150 157 148
-0.11471965 -0.12746628 1.8209468 150 159 152
-0.11289871 -0.12746628 1.8209468 167 178 170
-0.111077756 -0.12746628 1.8209468 167 178 167
-0.109256804 -0.12746628 1.8209468 167 178 171
-0.10743586 -0.12746628 1.8209468 176 188 178
-0.105614915 -0.12746628 1.8209468 168 179 171
-0.10379397 -0.12746628 1.8209468 167 179 172
-0.10197302 -0.12746628 1.8209468 175 185 177
-0.100152075 -0.12746628 1.8209468 163 173 166
-0.09833113 -0.12746628 1.8209468 176 185 177
-0.09686657 -0.12793697 1.8276712 163 169 161
-0.095038906 -0.12793697 1.8276712 163 171 162
-0.093211226 -0.12793697 1.8276712 156 163 155
-0.091722265 -0.12841117 1.8344454 149 153 145
-0.08988783 -0.12841117 1.8344454 134 138 131
-0.088053375 -0.12841117 1.8344454 126 127 122
-0.08621893 -0.12841117 1.8344454 113 113 104
-0.084384486 -0.12841117 1.8344454 114 113 103
-0.083478265 -0.12985507 1.8550725 138 137 123
-0.08356511 -0.1329445 1.899207 120 116 106
-0.08418566 -0.13704641 1.957806 80 77 69
-0.082883574 -0.1381393 1.9734185 87 83 75
-0.08091015 -0.1381393 1.9734185 77 72 64
-0.07925274 -0.13869229 1.9813185 86 82 74
-0.077271424 -0.13869229 1.9813185 80 76 67
-0.07559271 -0.13924973 1.9892819 79 75 67
-0.07360343 -0.13924973 1.9892819 86 82 74
-0.07161415 -0.13924973 1.9892819 82 78 70
-0.06962486 -0.13924973 1.9892819 82 77 70
-0.06763558 -0.13924973 1.9892819 87 83 75
-0.06591122 -0.13981168 1.9973097 80 76 68
-0.06391391 -0.13981168 1.9973097 81 78 70
-0.0619166 -0.13981168 1.9973097 86 83 75
-0.05991929 -0.13981168 1.9973097 84 79 72
-0.057921983 -0.13981168 1.9973097 86 81 74
-0.05615127 -0.14037818 2.0054026 89 83 76
-0.05414587 -0.14037818 2.0054026 84 78 71
-0.052140463 -0.14037818 2.0054026 89 86 77
-0.050135065 -0.14037818 2.0054026 88 82 75
-0.048129663 -0.14037818 2.0054026 84 80 73
-0.04612426 -0.14037818 2.0054026 86 82 75
-0.04411886 -0.14037818 2.0054026 87 81 74
-0.042113453 -0.14037818 2.0054026 88 83 75
-0.04010805 -0.14037818 2.0054026 89 84 75
-0.03810265 -0.14037818 2.0054026 86 80 71
-0.0362441 -0.14094928 2.0135612 88 83 75
-0.03423054 -0.14094928 2.0135612 89 82 75
-0.03208644 -0.14037818 2.0054026 85 77 69
-0.030203419 -0.14094928 2.0135612 94 86 80
-0.028189857 -0.14094928 2.0135612 87 81 75
-0.026176296 -0.14094928 2.0135612 87 81 76
-0.024162736 -0.14094928 2.0135612 88 83 78
-0.022149174 -0.14094928 2.0135612 84 78 73
-0.020135613 -0.14094928 2.0135612 85 78 73
-0.01812205 -0.14094928 2.0135612 83 77 72
-0.01610849 -0.14094928 2.0135612 79 72 67
-0.014094928 -0.14094928 2.0135612 74 67 62
-0.012120817 -0.14140953 2.020136 70 64 59
-0.010067807 -0.14094928 2.0135612 68 64 59
-0.008054245 -0.14094928 2.0135612 63 58 54
-0.0060604084 -0.14140953 2.020136 54 50 46
-0.0040402724 -0.14140953 2.020136 58 55 51
-0.0020201362 -0.14140953 2.020136 52 49 45
0.0 -0.14140953 2.020136 51 49 45
0.0020201362 -0.14140953 2.020136 52 50 46
0.0040402724 -0.14140953 2.020136 49 47 43
0.0060604084 -0.14140953 2.020136 51 49 44
0.008080545 -0.14140953 2.020136 49 47 42
0.01010068 -0.14140953 2.020136 49 48 41
0.012120817 -0.14140953 2.020136 53 51 46
0.014140953 -0.14140953 2.020136 46 45 41
0.016227324 -0.14198908 2.0284154 53 53 48
0.018255739 -0.14198908 2.0284154 54 54 49
0.020284155 -0.14198908 2.0284154 52 55 50
0.02231257 -0.14198908 2.0284154 60 63 56
0.024340983 -0.14198908 2.0284154 57 57 50
0.0263694 -0.14198908 2.0284154 66 65 57
0.02851468 -0.1425734 2.0367627 70 70 59
0.030426232 -0.14198908 2.0284154 68 63 53
0.032454647 -0.14198908 2.0284154 79 74 69
0.034483064 -0.14198908 2.0284154 75 70 64
0.03636245 -0.14140953 2.020136 80 75 71
0.038382586 -0.14140953 2.020136 74 69 67
0.04040272 -0.14140953 2.020136 78 71 68
0.042596724 -0.14198908 2.0284154 72 64 61
0.04462514 -0.14198908 2.0284154 69 59 51
0.046463132 -0.14140953 2.020136 58 43 36
0.048483267 -0.14140953 2.020136 58 40 30
0.050710384 -0.14198908 2.0284154 58 37 27
0.0527388 -0.14198908 2.0284154 72 45 37
0.054543674 -0.14140953 2.020136 87 54 48
0.056563813 -0.14140953 2.020136 100 60 55
0.058824047 -0.14198908 2.0284154 111 64 58
0.060852464 -0.14198908 2.0284154 117 69 62
0.062624216 -0.14140953 2.020136 116 68 59
0.06417288 -0.14037818 2.0054026 121 72 60
0.066447526 -0.14094928 2.0135612 129 71 65
0.06846108 -0.14094928 2.0135612 149 82 75
0.07047464 -0.14094928 2.0135612 161 90 81
0.0724882 -0.14094928 2.0135612 175 104 92
0.07474504 -0.14140953 2.020136 187 125 110
0.07676517 -0.14140953 2.020136 221 177 156
0.0791082 -0.14198908 2.0284154 229 206 181
0.08080544 -0.14140953 2.020136 232 207 178
0.082825586 -0.14140953 2.020136 228 205 170
0.08422691 -0.14037818 2.0054026 231 204 169
0.085196696 -0.13869229 1.9813185 230 201 180
0.08519979 -0.13554512 1.9363589 128 127 116
0.08513762 -0.13243629 1.891947 114 123 113
0.08669815 -0.13193196 1.8847424 109 117 110
0.088582896 -0.13193196 1.8847424 113 122 111
0.09046764 -0.13193196 1.8847424 118 127 116
0.092352375 -0.13193196 1.8847424 118 127 119
0.09387962 -0.13143146 1.8775923 130 139 129
0.09575721 -0.13143146 1.8775923 143 150 140
0.09763481 -0.13143146 1.8775923 136 146 136
0.09951239 -0.13143146 1.8775923 132 138 130
0.10093052 -0.13083586 1.8690836 112 119 111
0.10241284 -0.13034363 1.8620517 115 122 114
0.10427489 -0.13034363 1.8620517 111 118 110
0.10613695 -0.13034363 1.8620517 98 104 98
0.107999 -0.13034363 1.8620517 117 124 116
0.10986105 -0.13034363 1.8620517 108 116 108
0.11172311 -0.13034363 1.8620517 117 126 120
0.11358515 -0.13034363 1.8620517 149 156 150
0.11544721 -0.13034363 1.8620517 137 144 138
0.11730926 -0.13034363 1.8620517 167 180 172
0.11872464 -0.12985507 1.8550725 173 188 178
0.12057971 -0.12985507 1.8550725 161 175 165
0.12243479 -0.12985507 1.8550725 176 192 181
0.124289855 -0.12985507 1.8550725 171 186 177
0.12567389 -0.12937018 1.8481455 177 192 182
0.12752204 -0.12937018 1.8481455 188 202 192
0.12985507 -0.12985507 1.8550725 177 190 181
0.13171014 -0.12985507 1.8550725 196 212 201
0.13356522 -0.12985507 1.8550725 181 193 185
0.1354203 -0.12985507 1.8550725 192 204 195
0.13779183 -0.13034363 1.8620517 182 192 183
0.13965389 -0.13034363 1.8620517 191 202 194
0.14151593 -0.13034363 1.8620517 169 177 171
0.14337797 -0.13034363 1.8620517 192 202 193
0.14524004 -0.13034363 1.8620517 172 180 170
0.1476576 -0.13083586 1.8690836 178 184 174
0.14896414 -0.13034363 1.8620517 171 174 171
0.15266414 -0.13193196 1.8847424 176 176 172
0.15633486 -0.1334566 1.9065229 141 140 130
0.16712558 -0.14094928 2.0135612 184 169 132
0.1867673 -0.15563941 2.2234201 218 160 23
0.19938074 -0.1641959 2.3456557 231 157 0
-0.21662164 -0.1671754 2.354583 219 195 173
-0.21345466 -0.16654155 2.3456557 216 197 173
-0.21011323 -0.16575599 2.3345914 220 198 174
-0.20699751 -0.16513285 2.3258147 226 204 179
-0.20052548 -0.16178761 2.2786987 225 203 178
-0.18576014 -0.15159735 2.135174 171 168 151
-0.16837132 -0.13900423 1.957806 137 143 131
-0.16331264 -0.13641408 1.9213251 131 139 127
-0.15771776 -0.13330905 1.8775923 136 144 131
-0.15513395 -0.13270494 1.8690836 130 136 125
-0.15154792 -0.13121833 1.8481455 137 141 130
-0.14914285 -0.13073017 1.8412699 143 149 136
-0.14730158 -0.13073017 1.8412699 143 148 136
-0.14546031 -0.13073017 1.8412699 140 147 135
-0.14361905 -0.13073017 1.8412699 145 151 140
-0.14177777 -0.13073017 1.8412699 144 150 139
-0.1399365 -0.13073017 1.8412699 149 156 145
-0.13809524 -0.13073017 1.8412699 147 155 143
-0.13625397 -0.13073017 1.8412699 142 151 142
-0.1339145 -0.13024563 1.8344454 146 156 149
-0.13159233 -0.12976465 1.8276712 147 155 146
-0.12976465 -0.12976465 1.8276712 148 156 149
-0.12793697 -0.12976465 1.8276712 146 155 148
-0.12610932 -0.12976465 1.8276712 139 147 138
-0.12428164 -0.12976465 1.8276712 140 146 137
-0.12245397 -0.12976465 1.8276712 140 146 137
-0.120182484 -0.12928721 1.8209468 146 152 141
-0.11836154 -0.12928721 1.8209468 144 151 140
-0.116540596 -0.12928721 1.8209468 139 147 136
-0.11471965 -0.12928721 1.8209468 126 134 122
-0.11289871 -0.12928721 1.8209468 142 151 138
-0.111077756 -0.12928721 1.8209468 148 156 145
-0.109256804 -0.12928721 1.8209468 160 164 156
-0.10743586 -0.12928721 1.8209468 160 172 168
-0.105614915 -0.12928721 1.8209468 163 174 164
-0.10379397 -0.12928721 1.8209468 159 171 163
-0.101524785 -0.12871893 1.8129426 174 183 175
-0.100152075 -0.12928721 1.8209468 159 167 159
-0.09833113 -0.12928721 1.8209468 173 182 174
-0.09686657 -0.12976465 1.8276712 165 171 164
-0.094689235 -0.12928721 1.8209468 167 176 166
-0.093211226 -0.12976465 1.8276712 161 168 159
-0.091722265 -0.13024563 1.8344454 163 169 160
-0.08988783 -0.13024563 1.8344454 148 152 144
-0.088053375 -0.13024563 1.8344454 128 130 124
-0.08621893 -0.13024563 1.8344454 118 120 111
-0.084384486 -0.13024563 1.8344454 115 115 106
-0.083478265 -0.13171014 1.8550725 121 119 109
-0.082928665 -0.1338167 1.8847424 130 125 115
-0.08418566 -0.13900423 1.957806 95 91 83
-0.082883574 -0.14011271 1.9734185 83 78 71
-0.08123405 -0.14067361 1.9813185 76 72 63
-0.07957128 -0.14123902 1.9892819 86 81 73
-0.077581994 -0.14123902 1.9892819 78 73 65
-0.07559271 -0.14123902 1.9892819 79 74 66
-0.07390046 -0.14180899 1.9973097 85 81 73
-0.07161415 -0.14123902 1.9892819 78 74 66
-0.06990584 -0.14180899 1.9973097 85 81 73
-0.06790853 -0.14180899 1.9973097 84 79 72
-0.06591122 -0.14180899 1.9973097 77 72 65
-0.06391391 -0.14180899 1.9973097 84 81 73
-0.0619166 -0.14180899 1.9973097 82 80 72
-0.05991929 -0.14180899 1.9973097 81 77 69
-0.058156673 -0.14238358 2.0054026 87 83 75
-0.05615127 -0.14238358 2.0054026 84 78 70
-0.05414587 -0.14238358 2.0054026 85 79 72
-0.052140463 -0.14238358 2.0054026 86 83 75
-0.050135065 -0.14238358 2.0054026 80 75 68
-0.048129663 -0.14238358 2.0054026 83 80 72
-0.04612426 -0.14238358 2.0054026 85 82 74
-0.04411886 -0.14238358 2.0054026 83 78 70
-0.042113453 -0.14238358 2.0054026 86 81 72
-0.04010805 -0.14238358 2.0054026 84 77 69
-0.038257662 -0.14296284 2.0135612 84 77 70
-0.0362441 -0.14296284 2.0135612 89 81 70
-0.03423054 -0.14296284 2.0135612 83 74 66
-0.03221698 -0.14296284 2.0135612 80 73 65
-0.030203419 -0.14296284 2.0135612 83 75 66
-0.028189857 -0.14296284 2.0135612 71 65 59
-0.026176296 -0.14296284 2.0135612 76 70 66
-0.024162736 -0.14296284 2.0135612 69 62 58
-0.022221496 -0.14342965 2.020136 62 58 53
-0.02020136 -0.14342965 2.020136 59 54 50
-0.018181225 -0.14342965 2.020136 53 47 43
-0.01616109 -0.14342965 2.020136 50 45 41
-0.014140953 -0.14342965 2.020136 48 44 40
-0.012120817 -0.14342965 2.020136 47 43 39
-0.010067807 -0.14296284 2.0135612 44 43 39
-0.008080545 -0.14342965 2.020136 48 46 42
-0.006085246 -0.1440175 2.0284154 44 43 39
-0.004056831 -0.1440175 2.0284154 45 46 43
-0.0020284154 -0.1440175 2.0284154 47 48 44
0.0 -0.14342965 2.020136 48 49 45
0.0020284154 -0.1440175 2.0284154 50 51 47
0.004056831 -0.1440175 2.0284154 49 50 46
0.006085246 -0.1440175 2.0284154 49 50 47
0.008080545 -0.14342965 2.020136 49 50 44
0.010142078 -0.1440175 2.0284154 49 50 45
0.012120817 -0.14342965 2.020136 59 58 53
0.014198908 -0.1440175 2.0284154 54 53 51
0.016227324 -0.1440175 2.0284154 55 56 51
0.018255739 -0.1440175 2.0284154 61 61 57
0.020367626 -0.14461015 2.0367627 58 57 54
0.02240439 -0.14461015 2.0367627 62 61 54
0.024441153 -0.14461015 2.0367627 64 59 50
0.0263694 -0.1440175 2.0284154 68 64 53
0.028397815 -0.1440175 2.0284154 76 70 60
0.030426232 -0.1440175 2.0284154 74 69 59
0.03232218 -0.14342965 2.020136 80 75 70
0.034342315 -0.14342965 2.020136 76 68 63
0.03636245 -0.14342965 2.020136 75 69 63
0.038382586 -0.14342965 2.020136 73 66 61
0.04040272 -0.14342965 2.020136 65 55 51
0.042596724 -0.1440175 2.0284154 58 42 40
0.044442993 -0.14342965 2.020136 58 36 21
0.046463132 -0.14342965 2.020136 72 44 35
0.048483267 -0.14342965 2.020136 77 47 38
0.050503403 -0.14342965 2.020136 91 53 43
0.0527388 -0.1440175 2.0284154 100 60 50
0.054543674 -0.14342965 2.020136 101 58 49
0.056379713 -0.14296284 2.0135612 100 56 49
0.058583945 -0.14342965 2.020136 94 50 42
0.060406838 -0.14296284 2.0135612 95 48 39
0.062420398 -0.14296284 2.0135612 101 53 44
0.06417288 -0.14238358 2.0054026 107 54 44
0.066178285 -0.14238358 2.0054026 116 58 50
0.06846108 -0.14296284 2.0135612 124 67 57
0.07047464 -0.14296284 2.0135612 136 72 61
0.0724882 -0.14296284 2.0135612 143 78 68
0.07450177 -0.14296284 2.0135612 167 93 86
0.07676517 -0.14342965 2.020136 199 127 114
0.07878531 -0.14342965 2.020136 204 162 139
0.08054245 -0.14296284 2.0135612 232 205 174
0.083165035 -0.1440175 2.0284154 236 208 174
0.08484572 -0.14342965 2.020136 233 209 173
0.085196696 -0.14067361 1.9813185 230 210 185
0.08519979 -0.1374815 1.9363589 143 137 125
0.085793525 -0.13536313 1.9065229 109 114 106
0.08669815 -0.1338167 1.8847424 114 122 114
0.088582896 -0.1338167 1.8847424 115 125 113
0.09046764 -0.1338167 1.8847424 121 129 119
0.092352375 -0.1338167 1.8847424 120 129 121
0.09387962 -0.13330905 1.8775923 132 145 134
0.09575721 -0.13330905 1.8775923 140 148 138
0.09763481 -0.13330905 1.8775923 123 133 124
0.09951239 -0.13330905 1.8775923 128 137 128
0.10093052 -0.13270494 1.8690836 109 115 108
0.10241284 -0.13220568 1.8620517 109 116 108
0.10427489 -0.13220568 1.8620517 113 120 113
0.10613695 -0.13220568 1.8620517 105 109 103
0.107999 -0.13220568 1.8620517 115 123 115
0.10986105 -0.13220568 1.8620517 115 123 115
0.11172311 -0.13220568 1.8620517 119 128 121
0.11358515 -0.13220568 1.8620517 165 175 165
0.11501449 -0.13171014 1.8550725 141 149 143
0.11686957 -0.13171014 1.8550725 166 177 169
0.11872464 -0.13171014 1.8550725 179 191 182
0.12057971 -0.13171014 1.8550725 154 166 158
0.12243479 -0.13171014 1.8550725 177 193 182
0.124289855 -0.13171014 1.8550725 158 172 164
0.12567389 -0.13121833 1.8481455 171 186 176
0.12752204 -0.13121833 1.8481455 186 200 191
0.12937018 -0.13121833 1.8481455 177 191 181
0.13121833 -0.13121833 1.8481455 190 206 195
0.13356522 -0.13171014 1.8550725 188 197 188
0.1354203 -0.13171014 1.8550725 188 197 188
0.13727535 -0.13171014 1.8550725 186 198 188
0.13913043 -0.13171014 1.8550725 189 200 192
0.14151593 -0.13220568 1.8620517 173 183 176
0.14337797 -0.13220568 1.8620517 194 202 194
0.14524004 -0.13220568 1.8620517 171 182 172
0.14710209 -0.13220568 1.8620517 187 193 182
0.14840579 -0.13171014 1.8550725 170 171 159
0.15266414 -0.1338167 1.8847424 147 145 138
0.15633486 -0.13536313 1.9065229 173 168 157
0.16835847 -0.1440175 2.0284154 162 144 114
0.18828985 -0.15914977 2.241546 202 142 26
0.20013955 -0.1671754 2.354583 218 142 0
-0.29667747 -0.16952999 2.354583 217 199 184
-0.29432288 -0.16952999 2.354583 218 200 179
-0.21897623 -0.16952999 2.354583 211 193 179
-0.21580033 -0.16888721 2.3456557 218 196 171
-0.21244782 -0.16809058 2.3345914 221 198 172
-0.20932332 -0.16745867 2.3258147 223 202 174
-0.20526126 -0.16605406 2.3063064 224 204 178
-0.19725604 -0.16139132 2.241546 225 204 179
-0.1829193 -0.15138148 2.1025207 145 144 130
-0.16837132 -0.14096203 1.957806 136 142 129
-0.16331264 -0.1383354 1.9213251 130 138 125
-0.15831836 -0.13570145 1.8847424 123 131 120
-0.15584016 -0.13518664 1.8775923 128 136 125
-0.15268825 -0.13406771 1.8620517 132 136 126
-0.14969978 -0.13306646 1.8481455 142 148 136
-0.14785165 -0.13306646 1.8481455 143 148 135
-0.14546031 -0.13257143 1.8412699 141 147 134
-0.14361905 -0.13257143 1.8412699 137 143 131
-0.14177777 -0.13257143 1.8412699 142 148 135
-0.1399365 -0.13257143 1.8412699 134 141 128
-0.13809524 -0.13257143 1.8412699 138 147 133
-0.13574897 -0.13208006 1.8344454 129 137 126
-0.13342 -0.13159233 1.8276712 133 142 132
-0.13159233 -0.13159233 1.8276712 128 135 125
-0.12976465 -0.13159233 1.8276712 130 137 127
-0.12793697 -0.13159233 1.8276712 128 134 125
-0.12610932 -0.13159233 1.8276712 124 129 119
-0.12428164 -0.13159233 1.8276712 127 134 126
-0.12245397 -0.13159233 1.8276712 121 126 120
-0.120182484 -0.13110816 1.8209468 111 118 110
-0.11836154 -0.13110816 1.8209468 127 134 127
-0.116540596 -0.13110816 1.8209468 125 133 125
-0.11471965 -0.13110816 1.8209468 126 132 122
-0.11289871 -0.13110816 1.8209468 131 137 127
-0.111077756 -0.13110816 1.8209468 137 143 137
-0.109256804 -0.13110816 1.8209468 132 137 133
-0.10743586 -0.13110816 1.8209468 136 145 141
-0.105614915 -0.13110816 1.8209468 152 160 142
-0.10379397 -0.13110816 1.8209468 144 153 138
-0.10197302 -0.13110816 1.8209468 145 154 144
-0.100521915 -0.13159233 1.8276712 166 174 163
-0.09869424 -0.13159233 1.8276712 147 154 146
-0.0972256 -0.13208006 1.8344454 165 169 161
-0.09539116 -0.13208006 1.8344454 162 168 159
-0.09355672 -0.13208006 1.8344454 164 168 160
-0.091722265 -0.13208006 1.8344454 161 166 158
-0.08988783 -0.13208006 1.8344454 161 163 154
-0.08772822 -0.13159233 1.8276712 142 144 135
-0.08621893 -0.13208006 1.8344454 111 111 104
-0.084384486 -0.13208006 1.8344454 106 107 99
-0.08316655 -0.13306646 1.8481455 126 128 116
-0.08261406 -0.13518664 1.8775923 124 121 111
-0.08418566 -0.14096203 1.957806 97 92 85
-0.082883574 -0.14208613 1.9734185 77 70 63
-0.08123405 -0.14265494 1.9813185 83 76 69
-0.07957128 -0.1432283 1.9892819 84 78 71
-0.077581994 -0.1432283 1.9892819 75 69 61
-0.07589777 -0.14380631 1.9973097 83 77 70
-0.07390046 -0.14380631 1.9973097 82 77 69
-0.071903154 -0.14380631 1.9973097 76 72 64
-0.06990584 -0.14380631 1.9973097 86 81 73
-0.06790853 -0.14380631 1.9973097 79 74 67
-0.066178285 -0.14438897 2.0054026 79 73 66
-0.06417288 -0.14438897 2.0054026 85 80 72
-0.06216748 -0.14438897 2.0054026 80 75 67
-0.06016208 -0.14438897 2.0054026 81 75 67
-0.058156673 -0.14438897 2.0054026 85 79 71
-0.05615127 -0.14438897 2.0054026 79 71 63
-0.05414587 -0.14438897 2.0054026 84 78 69
-0.052140463 -0.14438897 2.0054026 82 76 69
-0.050135065 -0.14438897 2.0054026 77 72 65
-0.04832547 -0.1449764 2.0135612 80 75 67
-0.046311907 -0.1449764 2.0135612 70 65 59
-0.044298347 -0.1449764 2.0135612 71 66 60
-0.042284787 -0.1449764 2.0135612 71 67 61
-0.040271226 -0.1449764 2.0135612 60 57 51
-0.038257662 -0.1449764 2.0135612 58 57 50
-0.0362441 -0.1449764 2.0135612 56 54 49
-0.03423054 -0.1449764 2.0135612 43 40 38
-0.03221698 -0.1449764 2.0135612 47 44 43
-0.030203419 -0.1449764 2.0135612 43 39 38
-0.028189857 -0.1449764 2.0135612 42 41 40
-0.026176296 -0.1449764 2.0135612 46 46 45
-0.024241634 -0.1454498 2.020136 43 42 40
-0.022221496 -0.1454498 2.020136 44 41 40
-0.02020136 -0.1454498 2.020136 44 43 42
-0.018181225 -0.1454498 2.020136 44 44 44
-0.01616109 -0.1454498 2.020136 44 44 44
-0.014140953 -0.1454498 2.020136 45 45 45
-0.012170492 -0.14604591 2.0284154 46 47 47
-0.01010068 -0.1454498 2.020136 45 44 44
-0.008113662 -0.14604591 2.0284154 48 48 46
-0.006085246 -0.14604591 2.0284154 47 47 45
-0.004056831 -0.14604591 2.0284154 48 48 46
-0.0020284154 -0.14604591 2.0284154 51 50 46
0.0 -0.14604591 2.0284154 50 50 46
0.0020284154 -0.14604591 2.0284154 52 53 48
0.004056831 -0.14604591 2.0284154 53 53 49
0.006085246 -0.14604591 2.0284154 51 52 48
0.008113662 -0.14604591 2.0284154 55 54 49
0.010142078 -0.14604591 2.0284154 52 52 46
0.012170492 -0.14604591 2.0284154 58 58 52
0.014198908 -0.14604591 2.0284154 58 57 53
0.016227324 -0.14604591 2.0284154 57 58 54
0.018330865 -0.14664692 2.0367627 64 65 60
0.020367626 -0.14664692 2.0367627 61 60 55
0.02240439 -0.14664692 2.0367627 73 69 64
0.024441153 -0.14664692 2.0367627 70 66 60
0.026477914 -0.14664692 2.0367627 68 66 58
0.02851468 -0.14664692 2.0367627 74 71 64
0.030551441 -0.14664692 2.0367627 77 72 65
0.032454647 -0.14604591 2.0284154 79 73 69
0.034342315 -0.1454498 2.020136 79 69 65
0.03636245 -0.1454498 2.020136 65 52 47
0.038382586 -0.1454498 2.020136 58 44 39
0.04040272 -0.1454498 2.020136 57 41 35
0.04242286 -0.1454498 2.020136 65 41 34
0.044442993 -0.1454498 2.020136 81 48 38
0.046311907 -0.1449764 2.0135612 88 49 41
0.048483267 -0.1454498 2.020136 93 50 43
0.050503403 -0.1454498 2.020136 97 54 47
0.052523542 -0.1454498 2.020136 95 52 40
0.054366153 -0.1449764 2.0135612 98 53 41
0.056379713 -0.1449764 2.0135612 100 55 45
0.058583945 -0.1454498 2.020136 103 59 52
0.060406838 -0.1449764 2.0135612 95 48 39
0.06216748 -0.14438897 2.0054026 98 47 38
0.06391391 -0.14380631 1.9973097 109 56 47
0.06591122 -0.14380631 1.9973097 116 61 46
0.06790853 -0.14380631 1.9973097 100 48 30
0.06990584 -0.14380631 1.9973097 107 48 33
0.071903154 -0.14380631 1.9973097 127 66 54
0.07390046 -0.14380631 1.9973097 142 76 66
0.0762053 -0.14438897 2.0054026 155 91 82
0.078210704 -0.14438897 2.0054026 147 104 91
0.07989239 -0.14380631 1.9973097 225 194 162
0.0822215 -0.14438897 2.0054026 243 216 184
0.08456957 -0.1449764 2.0135612 232 210 181
0.085539125 -0.1432283 1.9892819 230 210 183
0.08553444 -0.13996544 1.9439645 199 184 167
0.085793525 -0.13726965 1.9065229 118 121 112
0.08669815 -0.13570145 1.8847424 114 122 110
0.087846935 -0.13457403 1.8690836 116 124 113
0.09046764 -0.13570145 1.8847424 123 131 124
0.09200202 -0.13518664 1.8775923 124 132 126
0.09387962 -0.13518664 1.8775923 135 147 136
0.09575721 -0.13518664 1.8775923 136 146 135
0.09763481 -0.13518664 1.8775923 117 126 117
0.09906143 -0.13457403 1.8690836 120 128 119
0.10055079 -0.13406771 1.8620517 110 115 108
0.10241284 -0.13406771 1.8620517 102 107 101
0.10427489 -0.13406771 1.8620517 114 123 114
0.10613695 -0.13406771 1.8620517 108 115 108
0.107999 -0.13406771 1.8620517 116 123 115
0.10986105 -0.13406771 1.8620517 127 136 128
0.11172311 -0.13406771 1.8620517 115 123 117
0.113159426 -0.13356522 1.8550725 159 169 162
0.11501449 -0.13356522 1.8550725 155 167 159
0.11686957 -0.13356522 1.8550725 160 171 163
0.11872464 -0.13356522 1.8550725 167 179 170
0.12057971 -0.13356522 1.8550725 162 174 165
0.12243479 -0.13356522 1.8550725 181 195 185
0.124289855 -0.13356522 1.8550725 167 181 172
0.12567389 -0.13306646 1.8481455 167 182 173
0.12752204 -0.13306646 1.8481455 184 200 191
0.12937018 -0.13306646 1.8481455 170 182 173
0.13121833 -0.13306646 1.8481455 184 199 189
0.13306646 -0.13306646 1.8481455 177 190 181
0.13491462 -0.13306646 1.8481455 181 190 182
0.13727535 -0.13356522 1.8550725 194 207 198
0.13913043 -0.13356522 1.8550725 179 188 181
0.1409855 -0.13356522 1.8550725 186 195 186
0.14284058 -0.13356522 1.8550725 187 195 187
0.14524004 -0.13406771 1.8620517 182 188 180
0.14710209 -0.13406771 1.8620517 185 190 180
0.14952669 -0.13457403 1.8690836 177 178 174
0.15208498 -0.13518664 1.8775923 173 171 165
0.15816264 -0.13887452 1.9288127 141 135 123
0.17303903 -0.15010616 2.0848076 180 152 121
0.19053346 -0.16331439 2.2682555 199 135 21
0.19769424 -0.16745867 2.3258147 208 131 0
0.20172639 -0.16888721 2.3456557 208 131 0
-0.33777443 -0.17123286 2.3456557 211 194 172
-0.33542877 -0.17123286 2.3456557 210 193 170
-0.3343508 -0.17188457 2.354583 205 185 164
-0.3319962 -0.17188457 2.354583 201 185 163
-0.32964164 -0.17188457 2.354583 207 187 166
-0.32728705 -0.17188457 2.354583 208 188 167
-0.32493246 -0.17188457 2.354583 202 185 164
-0.3225779 -0.17188457 2.354583 207 193 170
-0.30374122 -0.17188457 2.354583 225 184 161
-0.30138662 -0.17188457 2.354583 231 185 162
-0.2978983 -0.17123286 2.3456557 222 175 153
-0.2955526 -0.17123286 2.3456557 221 172 148
-0.29320696 -0.17123286 2.3456557 221 170 142
-0.2908613 -0.17123286 2.3456557 219 171 140
-0.2896137 -0.17188457 2.354583 222 177 147
-0.28725913 -0.17188457 2.354583 229 189 159
-0.28490454 -0.17188457 2.354583 228 189 161
-0.28254995 -0.17188457 2.354583 225 188 159
-0.2236854 -0.17188457 2.354583 91 92 105
-0.2213308 -0.17188457 2.354583 128 124 125
-0.21814598 -0.17123286 2.3456557 214 194 179
-0.21478242 -0.17042518 2.3345914 218 195 170
-0.21164913 -0.16978447 2.3258147 221 202 175
-0.20756757 -0.16836037 2.3063064 223 204 176
-0.20449892 -0.16773507 2.2977407 225 204 179
-0.19960648 -0.16558266 2.2682555 225 205 179
-0.18512125 -0.15533164 2.1278305 156 153 139
-0.17039339 -0.14463624 1.9813185 131 137 123
-0.16205445 -0.13917616 1.9065229 129 135 123
-0.15771776 -0.13706423 1.8775923 121 127 117
-0.15513395 -0.1364431 1.8690836 116 123 114
-0.15268825 -0.13592978 1.8620517 126 131 120
-0.15026088 -0.1354203 1.8550725 142 148 136
-0.14785165 -0.13491462 1.8481455 142 147 134
-0.14546031 -0.1344127 1.8412699 138 144 130
-0.14415535 -0.13491462 1.8481455 137 142 127
-0.1423072 -0.13491462 1.8481455 139 145 129
-0.1399365 -0.1344127 1.8412699 135 141 126
-0.1375834 -0.1339145 1.8344454 131 139 126
-0.13574897 -0.1339145 1.8344454 115 119 108
-0.1339145 -0.1339145 1.8344454 124 131 118
-0.13159233 -0.13342 1.8276712 117 123 114
-0.12976465 -0.13342 1.8276712 112 118 110
-0.12793697 -0.13342 1.8276712 119 127 117
-0.12610932 -0.13342 1.8276712 103 109 100
-0.12428164 -0.13342 1.8276712 111 118 103
-0.122003436 -0.13292912 1.8209468 113 119 107
-0.120182484 -0.13292912 1.8209468 110 118 104
-0.11836154 -0.13292912 1.8209468 122 129 120
-0.116540596 -0.13292912 1.8209468 127 134 126
-0.11471965 -0.13292912 1.8209468 125 132 123
-0.11289871 -0.13292912 1.8209468 131 138 129
-0.111077756 -0.13292912 1.8209468 133 140 133
-0.109256804 -0.13292912 1.8209468 133 140 135
-0.10743586 -0.13292912 1.8209468 153 163 156
-0.105614915 -0.13292912 1.8209468 133 140 127
-0.10379397 -0.13292912 1.8209468 148 155 144
-0.10197302 -0.13292912 1.8209468 157 164 150
-0.100152075 -0.13292912 1.8209468 149 151 144
-0.09869424 -0.13342 1.8276712 161 166 159
-0.09686657 -0.13342 1.8276712 159 163 156
-0.09539116 -0.1339145 1.8344454 157 160 153
-0.09355672 -0.1339145 1.8344454 162 164 156
-0.091722265 -0.1339145 1.8344454 156 157 149
-0.08988783 -0.1339145 1.8344454 155 155 148
-0.08772822 -0.13342 1.8276712 150 152 142
-0.085900545 -0.13342 1.8276712 133 133 123
-0.08469841 -0.1344127 1.8412699 111 111 102
-0.08285714 -0.1344127 1.8412699 115 117 107
-0.08223968 -0.1364431 1.8690836 125 121 111
-0.08451999 -0.14348742 1.9655812 96 89 82
-0.082883574 -0.14405955 1.9734185 75 66 60
-0.08123405 -0.14463624 1.9813185 87 80 73
-0.07989239 -0.1458036 1.9973097 78 71 64
-0.07789508 -0.1458036 1.9973097 75 69 62
-0.07589777 -0.1458036 1.9973097 80 74 67
-0.0741999 -0.14639439 2.0054026 72 66 58
-0.071903154 -0.1458036 1.9973097 78 71 63
-0.06990584 -0.1458036 1.9973097 82 76 69
-0.06790853 -0.1458036 1.9973097 74 66 59
-0.066178285 -0.14639439 2.0054026 77 70 62
-0.06417288 -0.14639439 2.0054026 77 68 62
-0.06216748 -0.14639439 2.0054026 70 65 56
-0.06016208 -0.14639439 2.0054026 71 66 56
-0.058156673 -0.14639439 2.0054026 65 61 51
-0.05615127 -0.14639439 2.0054026 62 59 49
-0.05414587 -0.14639439 2.0054026 64 57 49
-0.052140463 -0.14639439 2.0054026 52 43 37
-0.050135065 -0.14639439 2.0054026 53 45 40
-0.04832547 -0.14698997 2.0135612 52 46 41
-0.046311907 -0.14698997 2.0135612 38 36 31
-0.044298347 -0.14698997 2.0135612 42 37 35
-0.042284787 -0.14698997 2.0135612 43 40 37
-0.040271226 -0.14698997 2.0135612 37 36 34
-0.038257662 -0.14698997 2.0135612 41 43 39
-0.0362441 -0.14698997 2.0135612 34 35 37
-0.03423054 -0.14698997 2.0135612 38 40 41
-0.03221698 -0.14698997 2.0135612 43 43 45
-0.030203419 -0.14698997 2.0135612 41 38 42
-0.028189857 -0.14698997 2.0135612 40 42 44
-0.026261771 -0.14746994 2.020136 41 42 44
-0.024241634 -0.14746994 2.020136 41 42 43
-0.022221496 -0.14746994 2.020136 42 44 44
-0.02020136 -0.14746994 2.020136 43 43 45
-0.018181225 -0.14746994 2.020136 46 48 49
-0.01616109 -0.14746994 2.020136 45 47 48
-0.014198908 -0.14807433 2.0284154 44 44 46
-0.012170492 -0.14807433 2.0284154 48 50 51
-0.01010068 -0.14746994 2.020136 49 48 49
-0.008080545 -0.14746994 2.020136 50 51 51
-0.006085246 -0.14807433 2.0284154 47 48 47
-0.004056831 -0.14807433 2.0284154 49 50 47
-0.0020284154 -0.14807433 2.0284154 55 55 51
0.0 -0.14746994 2.020136 53 53 49
0.0020201362 -0.14746994 2.020136 56 56 51
0.0040402724 -0.14746994 2.020136 57 57 51
0.0060604084 -0.14746994 2.020136 54 54 49
0.008080545 -0.14746994 2.020136 60 61 55
0.01010068 -0.14746994 2.020136 57 57 52
0.012170492 -0.14807433 2.0284154 62 62 58
0.014198908 -0.14807433 2.0284154 68 68 62
0.016227324 -0.14807433 2.0284154 62 63 55
0.018255739 -0.14807433 2.0284154 72 73 66
0.020284155 -0.14807433 2.0284154 64 62 54
0.02231257 -0.14807433 2.0284154 79 74 67
0.024340983 -0.14807433 2.0284154 72 68 61
0.0263694 -0.14807433 2.0284154 77 73 66
0.028397815 -0.14807433 2.0284154 76 73 65
0.030426232 -0.14807433 2.0284154 78 74 66
0.032454647 -0.14807433 2.0284154 72 62 59
0.034342315 -0.14746994 2.020136 68 57 55
0.03636245 -0.14746994 2.020136 61 44 42
0.038257662 -0.14698997 2.0135612 62 40 38
0.040271226 -0.14698997 2.0135612 72 44 36
0.04242286 -0.14746994 2.020136 81 48 38
0.044442993 -0.14746994 2.020136 88 47 39
0.046311907 -0.14698997 2.0135612 93 50 42
0.048129663 -0.14639439 2.0054026 96 53 44
0.050339032 -0.14698997 2.0135612 101 58 52
0.052352592 -0.14698997 2.0135612 105 62 52
0.05414587 -0.14639439 2.0054026 106 62 51
0.05615127 -0.14639439 2.0054026 105 58 48
0.058156673 -0.14639439 2.0054026 113 63 56
0.06016208 -0.14639439 2.0054026 117 65 56
0.0619166 -0.1458036 1.9973097 117 64 54
0.06365702 -0.14521757 1.9892819 124 70 58
0.0656463 -0.14521757 1.9892819 136 75 58
0.06763558 -0.14521757 1.9892819 166 97 81
0.06962486 -0.14521757 1.9892819 190 108 93
0.07161415 -0.14521757 1.9892819 163 91 80
0.07360343 -0.14521757 1.9892819 134 74 60
0.07559271 -0.14521757 1.9892819 140 79 66
0.077581994 -0.14521757 1.9892819 173 107 93
0.07957128 -0.14521757 1.9892819 209 155 131
0.08156055 -0.14521757 1.9892819 224 200 172
0.08422691 -0.14639439 2.0054026 231 208 182
0.08588432 -0.1458036 1.9973097 231 208 182
0.086143464 -0.14291982 1.957806 225 206 184
0.08612529 -0.13971436 1.9138954 119 120 110
0.08669815 -0.13758619 1.8847424 114 121 110
0.087516434 -0.13592978 1.8620517 120 126 117
0.09046764 -0.13758619 1.8847424 122 129 120
0.09200202 -0.13706423 1.8775923 128 136 129
0.09387962 -0.13706423 1.8775923 130 142 131
0.09575721 -0.13706423 1.8775923 124 133 124
0.09763481 -0.13706423 1.8775923 119 126 117
0.09906143 -0.1364431 1.8690836 116 123 116
0.10055079 -0.13592978 1.8620517 116 124 115
0.10241284 -0.13592978 1.8620517 103 109 102
0.10427489 -0.13592978 1.8620517 117 125 117
0.10613695 -0.13592978 1.8620517 114 120 113
0.107999 -0.13592978 1.8620517 110 117 110
0.10944928 -0.1354203 1.8550725 139 150 140
0.11130435 -0.1354203 1.8550725 122 129 123
0.113159426 -0.1354203 1.8550725 161 172 162
0.11501449 -0.1354203 1.8550725 156 166 156
0.116433166 -0.13491462 1.8481455 163 174 166
0.11872464 -0.1354203 1.8550725 170 182 175
0.12057971 -0.1354203 1.8550725 159 169 162
0.12243479 -0.1354203 1.8550725 177 188 180
0.123825744 -0.13491462 1.8481455 167 181 172
0.12567389 -0.13491462 1.8481455 168 182 174
0.12752204 -0.13491462 1.8481455 180 195 187
0.12937018 -0.13491462 1.8481455 177 192 183
0.13121833 -0.13491462 1.8481455 171 185 176
0.13306646 -0.13491462 1.8481455 176 188 179
0.13491462 -0.13491462 1.8481455 169 180 172
0.13676277 -0.13491462 1.8481455 185 198 189
0.13861091 -0.13491462 1.8481455 168 179 171
0.1409855 -0.1354203 1.8550725 191 197 189
0.14284058 -0.1354203 1.8550725 177 183 177
0.14524004 -0.13592978 1.8620517 187 193 184
0.14710209 -0.13592978 1.8620517 183 188 180
0.14952669 -0.1364431 1.8690836 183 185 185
0.15208498 -0.13706423 1.8775923 161 158 155
0.15816264 -0.14080332 1.9288127 154 146 133
0.17303903 -0.15219097 2.0848076 182 153 122
0.19053346 -0.16558266 2.2682555 204 137 10
0.19769424 -0.16978447 2.3258147 212 133 0
0.20172639 -0.17123286 2.3456557 211 131 0
-0.33777443 -0.17357852 2.3456557 213 195 175
-0.33542877 -0.17357852 2.3456557 209 190 170
-0.3330831 -0.17357852 2.3456557 204 187 166
-0.33073747 -0.17357852 2.3456557 203 185 166
-0.3283918 -0.17357852 2.3456557 206 187 167
-0.32604614 -0.17357852 2.3456557 205 188 167
-0.32370046 -0.17357852 2.3456557 208 191 168
-0.32135484 -0.17357852 2.3456557 207 193 168
-0.31900918 -0.17357852 2.3456557 211 196 170
-0.3166635 -0.17357852 2.3456557 207 189 170
-0.31431788 -0.17357852 2.3456557 205 188 171
-0.3119722 -0.17357852 2.3456557 213 174 146
-0.30962655 -0.17357852 2.3456557 202 138 113
-0.30845037 -0.17423914 2.354583 204 125 91
-0.30493525 -0.17357852 2.3456557 202 122 88
-0.30374122 -0.17423914 2.354583 199 123 92
-0.3002439 -0.17357852 2.3456557 203 124 92
-0.2978983 -0.17357852 2.3456557 208 125 92
-0.2955526 -0.17357852 2.3456557 212 126 93
-0.29320696 -0.17357852 2.3456557 213 127 93
-0.2908613 -0.17357852 2.3456557 212 128 93
-0.2896137 -0.17423914 2.354583 205 125 92
-0.28725913 -0.17423914 2.354583 204 127 92
-0.28490454 -0.17423914 2.354583 204 128 93
-0.28254995 -0.17423914 2.354583 206 129 92
-0.2801954 -0.17423914 2.354583 206 128 93
-0.2637133 -0.17423914 2.354583 209 190 170
-0.2331037 -0.17423914 2.354583 140 136 135
-0.23074913 -0.17423914 2.354583 142 138 137
-0.22839455 -0.17423914 2.354583 186 178 179
-0.22603998 -0.17423914 2.354583 142 135 137
-0.2228373 -0.17357852 2.3456557 136 130 137
-0.22049163 -0.17357852 2.3456557 179 168 158
-0.21711701 -0.17275977 2.3345914 219 199 178
-0.21397497 -0.17211029 2.3258147 217 196 172
-0.20987388 -0.17066666 2.3063064 220 199 174
-0.20679666 -0.1700328 2.2977407 223 202 178
-0.20449892 -0.1700328 2.2977407 226 206 183
-0.20052548 -0.1686237 2.2786987 223 204 181
-0.18737684 -0.159378 2.1537569 212 198 179
-0.1737317 -0.14949007 2.020136 135 131 121
-0.16588853 -0.14442061 1.9516299 130 135 123
-0.15892355 -0.14000407 1.891947 122 125 116
-0.1545503 -0.13779183 1.8620517 115 120 111
-0.15154792 -0.13676277 1.8481455 123 126 117
-0.14969978 -0.13676277 1.8481455 142 146 133
-0.14730158 -0.13625397 1.8412699 141 146 131
-0.14546031 -0.13625397 1.8412699 137 141 127
-0.14361905 -0.13625397 1.8412699 135 141 126
-0.14177777 -0.13625397 1.8412699 136 143 127
-0.13941784 -0.13574897 1.8344454 125 131 117
-0.1375834 -0.13574897 1.8344454 131 140 126
-0.13574897 -0.13574897 1.8344454 118 125 111
-0.1339145 -0.13574897 1.8344454 110 118 105
-0.13159233 -0.13524766 1.8276712 114 123 111
-0.12976465 -0.13524766 1.8276712 108 114 105
-0.12793697 -0.13524766 1.8276712 113 119 109
-0.12610932 -0.13524766 1.8276712 108 114 104
-0.12428164 -0.13524766 1.8276712 110 115 105
-0.122003436 -0.13475007 1.8209468 115 121 111
-0.120182484 -0.13475007 1.8209468 113 119 108
-0.11836154 -0.13475007 1.8209468 122 128 119
-0.116540596 -0.13475007 1.8209468 127 132 123
-0.11471965 -0.13475007 1.8209468 128 131 122
-0.11289871 -0.13475007 1.8209468 132 137 127
-0.111077756 -0.13475007 1.8209468 131 134 127
-0.109256804 -0.13475007 1.8209468 131 135 129
-0.10743586 -0.13475007 1.8209468 129 133 125
-0.105614915 -0.13475007 1.8209468 146 149 139
-0.10379397 -0.13475007 1.8209468 127 131 125
-0.10197302 -0.13475007 1.8209468 130 132 125
-0.100152075 -0.13475007 1.8209468 144 146 143
-0.09833113 -0.13475007 1.8209468 139 141 137
-0.09686657 -0.13524766 1.8276712 148 151 144
-0.095038906 -0.13524766 1.8276712 150 154 146
-0.093211226 -0.13524766 1.8276712 151 153 143
-0.091722265 -0.13574897 1.8344454 159 160 151
-0.08988783 -0.13574897 1.8344454 155 156 147
-0.08772822 -0.13524766 1.8276712 147 149 139
-0.08621893 -0.13574897 1.8344454 139 139 129
-0.084384486 -0.13574897 1.8344454 120 120 111
-0.08255004 -0.13574897 1.8344454 116 117 108
-0.08223968 -0.13831219 1.8690836 116 111 103
-0.08451999 -0.145453 1.9655812 78 70 64
-0.082883574 -0.14603297 1.9734185 76 65 60
-0.08156055 -0.14720686 1.9892819 73 64 58
-0.07989239 -0.14780092 1.9973097 57 48 41
-0.07789508 -0.14780092 1.9973097 64 55 49
-0.0762053 -0.1483998 2.0054026 65 55 48
-0.0741999 -0.1483998 2.0054026 55 43 36
-0.071903154 -0.14780092 1.9973097 57 45 38
-0.06990584 -0.14780092 1.9973097 52 42 34
-0.06818368 -0.1483998 2.0054026 49 39 30
-0.066178285 -0.1483998 2.0054026 53 42 35
-0.06417288 -0.1483998 2.0054026 56 45 38
-0.06216748 -0.1483998 2.0054026 59 49 42
-0.06016208 -0.1483998 2.0054026 61 50 44
-0.058156673 -0.1483998 2.0054026 59 50 44
-0.05615127 -0.1483998 2.0054026 56 50 43
-0.05414587 -0.1483998 2.0054026 57 50 44
-0.052140463 -0.1483998 2.0054026 56 49 43
-0.050135065 -0.1483998 2.0054026 54 47 42
-0.04832547 -0.14900354 2.0135612 49 45 39
-0.046311907 -0.14900354 2.0135612 48 43 41
-0.044298347 -0.14900354 2.0135612 48 46 47
-0.042284787 -0.14900354 2.0135612 46 45 45
-0.040271226 -0.14900354 2.0135612 42 41 41
-0.038257662 -0.14900354 2.0135612 43 43 42
-0.0362441 -0.14900354 2.0135612 41 42 44
-0.03423054 -0.14900354 2.0135612 44 47 47
-0.03221698 -0.14900354 2.0135612 43 46 46
-0.030203419 -0.14900354 2.0135612 42 41 45
-0.028189857 -0.14900354 2.0135612 47 47 47
-0.026261771 -0.14949007 2.020136 45 47 45
-0.024241634 -0.14949007 2.020136 45 47 45
-0.022149174 -0.14900354 2.0135612 46 48 46
-0.02020136 -0.14949007 2.020136 43 45 44
-0.018181225 -0.14949007 2.020136 48 50 49
-0.016227324 -0.15010273 2.0284154 48 49 49
-0.014198908 -0.15010273 2.0284154 44 46 46
-0.012120817 -0.14949007 2.020136 49 50 49
-0.01010068 -0.14949007 2.020136 47 48 47
-0.008080545 -0.14949007 2.020136 50 51 50
-0.006085246 -0.15010273 2.0284154 50 50 48
-0.004056831 -0.15010273 2.0284154 50 50 49
-0.0020284154 -0.15010273 2.0284154 58 59 54
0.0 -0.15010273 2.0284154 55 55 50
0.0020284154 -0.15010273 2.0284154 57 58 52
0.0040402724 -0.14949007 2.020136 59 58 52
0.0060604084 -0.14949007 2.020136 55 56 49
0.008113662 -0.15010273 2.0284154 65 65 58
0.010142078 -0.15010273 2.0284154 65 64 58
0.012170492 -0.15010273 2.0284154 67 66 62
0.014198908 -0.15010273 2.0284154 71 70 62
0.016227324 -0.15010273 2.0284154 63 63 55
0.018181225 -0.14949007 2.020136 81 79 71
0.020284155 -0.15010273 2.0284154 68 65 58
0.02231257 -0.15010273 2.0284154 77 74 67
0.024340983 -0.15010273 2.0284154 73 70 61
0.0263694 -0.15010273 2.0284154 81 76 69
0.028397815 -0.15010273 2.0284154 74 68 61
0.030426232 -0.15010273 2.0284154 75 66 60
0.032454647 -0.15010273 2.0284154 64 50 45
0.034342315 -0.14949007 2.020136 58 38 32
0.0362441 -0.14900354 2.0135612 69 44 39
0.038257662 -0.14900354 2.0135612 78 44 38
0.040271226 -0.14900354 2.0135612 83 44 37
0.04242286 -0.14949007 2.020136 90 51 45
0.044298347 -0.14900354 2.0135612 93 52 46
0.04612426 -0.1483998 2.0054026 96 55 49
0.04832547 -0.14900354 2.0135612 95 54 46
0.050135065 -0.1483998 2.0054026 93 51 42
0.052352592 -0.14900354 2.0135612 96 51 43
0.05414587 -0.1483998 2.0054026 97 52 41
0.055924673 -0.14780092 1.9973097 93 47 35
0.057921983 -0.14780092 1.9973097 97 49 36
0.05991929 -0.14780092 1.9973097 105 55 42
0.0619166 -0.14780092 1.9973097 108 55 41
0.06365702 -0.14720686 1.9892819 118 63 49
0.0656463 -0.14720686 1.9892819 128 68 51
0.06763558 -0.14720686 1.9892819 151 86 72
0.06962486 -0.14720686 1.9892819 175 99 86
0.07161415 -0.14720686 1.9892819 187 105 90
0.07360343 -0.14720686 1.9892819 204 117 98
0.07559271 -0.14720686 1.9892819 172 101 85
0.077581994 -0.14720686 1.9892819 156 95 84
0.07957128 -0.14720686 1.9892819 199 137 120
0.08156055 -0.14720686 1.9892819 235 201 177
0.08388701 -0.14780092 1.9973097 231 209 181
0.086232305 -0.1483998 2.0054026 227 208 181
0.08717801 -0.14661756 1.9813185 230 208 187
0.0874784 -0.14385338 1.9439645 134 132 121
0.087363526 -0.14054132 1.899207 120 123 113
0.088246845 -0.13894184 1.8775923 120 126 116
0.090124436 -0.13894184 1.8775923 122 130 119
0.09200202 -0.13894184 1.8775923 125 137 127
0.09387962 -0.13894184 1.8775923 127 140 130
0.09575721 -0.13894184 1.8775923 119 129 120
0.097192355 -0.13831219 1.8690836 117 125 117
0.098688744 -0.13779183 1.8620517 96 103 97
0.10055079 -0.13779183 1.8620517 118 125 117
0.10241284 -0.13779183 1.8620517 104 110 103
0.10427489 -0.13779183 1.8620517 117 124 116
0.10613695 -0.13779183 1.8620517 126 132 124
0.10759421 -0.13727535 1.8550725 120 125 118
0.10944928 -0.13727535 1.8550725 152 164 154
0.11130435 -0.13727535 1.8550725 143 155 146
0.113159426 -0.13727535 1.8550725 169 183 171
0.11501449 -0.13727535 1.8550725 159 172 161
0.116433166 -0.13676277 1.8481455 168 179 169
0.11872464 -0.13727535 1.8550725 170 181 173
0.12057971 -0.13727535 1.8550725 160 171 163
0.1219776 -0.13676277 1.8481455 167 181 172
0.123825744 -0.13676277 1.8481455 154 167 159
0.12567389 -0.13676277 1.8481455 155 168 160
0.12752204 -0.13676277 1.8481455 178 190 180
0.12937018 -0.13676277 1.8481455 148 158 150
0.13121833 -0.13676277 1.8481455 165 176 168
0.13306646 -0.13676277 1.8481455 163 172 163
0.13491462 -0.13676277 1.8481455 153 163 154
0.13676277 -0.13676277 1.8481455 172 183 173
0.13861091 -0.13676277 1.8481455 166 174 165
0.14045906 -0.13676277 1.8481455 185 191 182
0.1423072 -0.13676277 1.8481455 176 179 171
0.14469565 -0.13727535 1.8550725 184 190 181
0.14655071 -0.13727535 1.8550725 186 191 182
0.14952669 -0.13831219 1.8690836 180 183 183
0.15208498 -0.13894184 1.8775923 173 173 167
0.15816264 -0.14273214 1.9288127 152 142 129
0.17303903 -0.15427577 2.0848076 181 154 122
0.18983747 -0.16723776 2.2599697 206 140 22
0.19769424 -0.17211029 2.3258147 213 134 0
0.20077486 -0.17275977 2.3345914 212 133 0
0.24487664 -0.17423914 2.354583 184 125 0
-0.33618116 -0.17509437 2.3345914 212 194 173
-0.33384657 -0.17509437 2.3345914 207 190 168
-0.33151197 -0.17509437 2.3345914 206 189 168
-0.3291774 -0.17509437 2.3345914 207 187 168
