ply
format ascii 1.0
element vertex 1083
property float32 x
property float32 y
property float32 z
property uchar red
property uchar green
property uchar blue
element face 0
property list uint8 int32 vertex_indices
end_header
0.041782554 -0.23550166 1.899207 85 48 43
0.043349076 -0.23370805 1.8847424 84 48 43
0.044689238 -0.23089442 1.8620517 68 37 36
0.046203636 -0.22917004 1.8481455 47 33 33
0.047873016 -0.22831745 1.8412699 41 33 35
0.04934712 -0.22663122 1.8276712 39 33 36
0.051174793 -0.22663122 1.8276712 38 34 36
0.053002466 -0.22663122 1.8276712 38 33 35
0.054628402 -0.22579741 1.8209468 38 32 35
0.056449354 -0.22579741 1.8209468 36 32 35
0.057802435 -0.22398444 1.8063262 36 32 34
0.059608765 -0.22398444 1.8063262 37 31 33
0.061415087 -0.22398444 1.8063262 35 31 33
0.06322142 -0.22398444 1.8063262 36 31 33
0.06502774 -0.22398444 1.8063262 36 32 34
0.06659103 -0.22316994 1.7997576 35 31 33
0.06839079 -0.22316994 1.7997576 36 30 33
0.07019054 -0.22316994 1.7997576 37 31 33
0.07172947 -0.22236136 1.7932367 38 32 35
0.07320443 -0.22139876 1.7854738 39 34 36
0.07531594 -0.22236136 1.7932367 43 36 37
0.07710917 -0.22236136 1.7932367 65 59 61
0.07890242 -0.22236136 1.7932367 50 43 45
0.08034632 -0.22139876 1.7854738 46 41 42
0.082131796 -0.22139876 1.7854738 48 44 45
0.08391727 -0.22139876 1.7854738 49 45 46
0.08539468 -0.22060293 1.779056 50 44 46
0.087173745 -0.22060293 1.779056 61 52 56
0.088952795 -0.22060293 1.779056 70 63 63
0.08938244 -0.217322 1.7525969 69 63 61
0.08648028 -0.20622224 1.6630825 90 89 85
0.084291354 -0.19720994 1.5904028 111 116 108
0.085606664 -0.19657828 1.5853087 118 125 114
0.08719198 -0.19657828 1.5853087 121 128 118
0.088437356 -0.19582558 1.5792385 108 116 109
0.08967324 -0.19507863 1.5732148 118 125 118
0.09124646 -0.19507863 1.5732148 126 133 125
0.09281967 -0.19507863 1.5732148 119 126 119
0.0940342 -0.19433734 1.5672367 114 122 115
0.0959661 -0.19507863 1.5732148 116 123 116
0.09716867 -0.19433734 1.5672367 115 122 115
0.098362155 -0.1936017 1.561304 114 122 115
0.099923454 -0.1936017 1.561304 113 121 113
0.10148475 -0.1936017 1.561304 117 122 115
0.10304606 -0.1936017 1.561304 119 124 117
0.104607366 -0.1936017 1.561304 118 124 116
0.10616867 -0.1936017 1.561304 115 122 114
0.10739121 -0.1929929 1.5563942 116 123 114
0.10894759 -0.1929929 1.5563942 122 129 121
0.11050399 -0.1929929 1.5563942 130 138 128
0.11206038 -0.1929929 1.5563942 138 147 137
0.11361677 -0.1929929 1.5563942 153 164 153
0.11517317 -0.1929929 1.5563942 161 172 160
0.116729565 -0.1929929 1.5563942 162 172 161
0.118285954 -0.1929929 1.5563942 152 163 152
0.119391814 -0.19226733 1.5505431 149 157 146
0.12094236 -0.19226733 1.5505431 145 149 140
0.1224929 -0.19226733 1.5505431 141 144 135
0.12404344 -0.19226733 1.5505431 133 137 128
0.12606794 -0.1929929 1.5563942 124 127 119
0.12762433 -0.1929929 1.5563942 119 120 111
0.12918073 -0.1929929 1.5563942 114 113 106
0.13073713 -0.1929929 1.5563942 111 109 102
0.13229351 -0.1929929 1.5563942 109 106 100
0.1338499 -0.1929929 1.5563942 115 111 105
0.1354063 -0.1929929 1.5563942 116 112 104
0.1369627 -0.1929929 1.5563942 118 112 105
0.1385191 -0.1929929 1.5563942 115 110 103
0.14007549 -0.1929929 1.5563942 116 110 103
0.14163187 -0.1929929 1.5563942 134 127 117
0.14318827 -0.1929929 1.5563942 149 140 129
0.14686918 -0.19582558 1.5792385 146 137 125
0.15987536 -0.21089943 1.7008018 168 154 139
0.17905052 -0.23370805 1.8847424 208 186 166
0.18794937 -0.24276794 1.957806 217 194 171
0.19066137 -0.24373206 1.9655812 219 194 172
0.193395 -0.24470389 1.9734185 215 189 169
0.19536842 -0.24470389 1.9734185 214 189 166
0.19813184 -0.24568349 1.9813185 213 187 166
0.20091747 -0.24667096 1.9892819 214 190 167
0.20209448 -0.24568349 1.9813185 216 190 168
0.2040758 -0.24568349 1.9813185 219 193 170
0.20605713 -0.24568349 1.9813185 214 188 166
0.20803843 -0.24568349 1.9813185 213 186 165
0.21001977 -0.24568349 1.9813185 220 194 172
0.21200109 -0.24568349 1.9813185 221 194 172
0.21398239 -0.24568349 1.9813185 210 185 163
0.21596372 -0.24568349 1.9813185 203 178 158
0.21794504 -0.24568349 1.9813185 209 183 163
0.21992634 -0.24568349 1.9813185 212 187 166
0.22190768 -0.24568349 1.9813185 217 190 170
0.223889 -0.24568349 1.9813185 216 189 169
0.2258703 -0.24568349 1.9813185 216 189 168
0.22785163 -0.24568349 1.9813185 209 184 164
0.22983295 -0.24568349 1.9813185 212 187 166
0.23274599 -0.24667096 1.9892819 220 193 171
0.23379558 -0.24568349 1.9813185 214 189 168
0.2357769 -0.24568349 1.9813185 214 188 166
0.2377582 -0.24568349 1.9813185 217 190 168
0.23973954 -0.24568349 1.9813185 218 188 167
0.24075705 -0.24470389 1.9734185 208 182 160
0.24370217 -0.24568349 1.9813185 207 180 158
0.24470389 -0.24470389 1.9734185 210 181 161
0.24766481 -0.24568349 1.9813185 212 182 161
0.24865073 -0.24470389 1.9734185 207 179 158
0.25062415 -0.24470389 1.9734185 208 177 155
0.25360876 -0.24568349 1.9813185 188 152 134
0.25559008 -0.24568349 1.9813185 149 108 89
0.2575714 -0.24568349 1.9813185 140 91 70
0.25851783 -0.24470389 1.9734185 138 80 55
0.26049125 -0.24470389 1.9734185 142 78 52
0.26246467 -0.24470389 1.9734185 144 70 42
0.2633879 -0.24373206 1.9655812 144 61 31
0.26535344 -0.24373206 1.9655812 144 57 28
0.26731902 -0.24373206 1.9655812 144 60 26
0.2692846 -0.24373206 1.9655812 153 60 24
0.27017722 -0.24276794 1.957806 159 61 19
0.2732158 -0.24373206 1.9655812 162 62 11
0.27518135 -0.24373206 1.9655812 163 62 0
0.27714694 -0.24373206 1.9655812 194 80 0
0.27800846 -0.24276794 1.957806 193 83 0
0.27996624 -0.24276794 1.957806 196 83 0
-0.2864566 -0.24866024 1.9892819 203 180 156
-0.2844673 -0.24866024 1.9892819 205 183 159
-0.28247803 -0.24866024 1.9892819 196 182 156
-0.28048873 -0.24866024 1.9892819 195 174 152
-0.27849945 -0.24866024 1.9892819 182 148 131
-0.27651018 -0.24866024 1.9892819 187 132 109
-0.2745209 -0.24866024 1.9892819 196 123 94
-0.27253163 -0.24866024 1.9892819 192 109 77
-0.27054232 -0.24866024 1.9892819 192 107 72
-0.26855308 -0.24866024 1.9892819 193 107 78
-0.26656377 -0.24866024 1.9892819 176 97 66
-0.2645745 -0.24866024 1.9892819 187 101 69
-0.2625852 -0.24866024 1.9892819 167 92 61
-0.26059592 -0.24866024 1.9892819 184 102 70
-0.25860667 -0.24866024 1.9892819 196 104 73
-0.25661737 -0.24866024 1.9892819 182 97 67
-0.2546281 -0.24866024 1.9892819 182 93 63
-0.2526388 -0.24866024 1.9892819 183 93 62
-0.2506495 -0.24866024 1.9892819 197 103 69
-0.24866024 -0.24866024 1.9892819 192 100 69
-0.24568349 -0.24766481 1.9813185 201 107 74
-0.24370217 -0.24766481 1.9813185 201 103 74
-0.24172086 -0.24766481 1.9813185 181 92 65
-0.23973954 -0.24766481 1.9813185 194 100 72
-0.2377582 -0.24766481 1.9813185 192 101 72
-0.2357769 -0.24766481 1.9813185 197 108 76
-0.23379558 -0.24766481 1.9813185 201 108 75
-0.23181425 -0.24766481 1.9813185 201 106 71
-0.22983295 -0.24766481 1.9813185 197 110 75
-0.22694314 -0.24667731 1.9734185 206 119 80
-0.2258703 -0.24766481 1.9813185 202 126 92
-0.223889 -0.24766481 1.9813185 203 147 127
-0.22190768 -0.24766481 1.9813185 214 182 156
-0.21992634 -0.24766481 1.9813185 203 178 156
-0.21794504 -0.24766481 1.9813185 205 185 159
-0.21596372 -0.24766481 1.9813185 210 187 162
-0.21398239 -0.24766481 1.9813185 217 196 170
-0.21200109 -0.24766481 1.9813185 214 194 170
-0.21001977 -0.24766481 1.9813185 213 192 169
-0.20803843 -0.24766481 1.9813185 208 188 164
-0.20523553 -0.24667731 1.9734185 199 180 156
-0.2032621 -0.24667731 1.9734185 200 178 153
-0.20209448 -0.24766481 1.9813185 204 182 156
-0.20011316 -0.24766481 1.9813185 191 167 144
-0.19734184 -0.24667731 1.9734185 187 164 141
-0.19536842 -0.24667731 1.9734185 189 165 143
-0.193395 -0.24667731 1.9734185 180 157 136
-0.19142158 -0.24667731 1.9734185 180 157 135
-0.19020657 -0.24766481 1.9813185 175 153 132
-0.18747476 -0.24667731 1.9734185 177 154 134
-0.18624394 -0.24766481 1.9813185 175 153 133
-0.18426262 -0.24766481 1.9813185 180 155 137
-0.18155451 -0.24667731 1.9734185 171 149 131
-0.17958109 -0.24667731 1.9734185 158 137 117
-0.17760767 -0.24667731 1.9734185 148 129 108
-0.17633735 -0.24766481 1.9813185 148 126 106
-0.17435601 -0.24766481 1.9813185 147 125 106
-0.17237471 -0.24766481 1.9813185 145 124 105
-0.17176864 -0.24966371 1.9973097 144 124 104
-0.17045921 -0.25067532 2.0054026 145 123 104
-0.16777402 -0.24966371 1.9973097 143 121 103
-0.16644841 -0.25067532 2.0054026 145 124 104
-0.1637794 -0.24966371 1.9973097 147 126 106
-0.1624376 -0.25067532 2.0054026 147 126 108
-0.1604322 -0.25067532 2.0054026 145 126 107
-0.1584268 -0.25067532 2.0054026 147 126 108
-0.15579017 -0.24966371 1.9973097 149 126 106
-0.15317471 -0.24866024 1.9892819 136 115 99
-0.14832386 -0.24395373 1.9516299 143 123 104
-0.13861091 -0.23101819 1.8481455 126 109 96
-0.12969217 -0.2190746 1.7525969 94 81 75
-0.12458667 -0.21333334 1.7066667 89 76 73
-0.122457735 -0.21260023 1.7008018 114 101 99
-0.120756924 -0.21260023 1.7008018 83 69 67
-0.11905613 -0.21260023 1.7008018 79 66 68
-0.11735533 -0.21260023 1.7008018 82 68 71
-0.11565453 -0.21260023 1.7008018 79 67 67
-0.11395372 -0.21260023 1.7008018 72 63 61
-0.11225292 -0.21260023 1.7008018 73 64 62
-0.110552125 -0.21260023 1.7008018 67 60 58
-0.10803456 -0.211005 1.68804 71 63 61
-0.10671047 -0.21172713 1.693817 67 58 57
-0.10465848 -0.211005 1.68804 67 59 57
-0.10297044 -0.211005 1.68804 67 59 58
-0.1012824 -0.211005 1.68804 65 57 55
-0.099935204 -0.21172713 1.693817 65 58 53
-0.096783996 -0.2085862 1.6686896 87 80 74
-0.09237459 -0.20257586 1.6206069 134 131 121
-0.087765254 -0.19590458 1.5672367 142 146 133
-0.08587172 -0.195163 1.561304 142 143 131
-0.08404529 -0.19454928 1.5563942 148 148 135
-0.082488894 -0.19454928 1.5563942 141 143 130
-0.08118781 -0.195163 1.561304 139 142 129
-0.07848757 -0.19237149 1.5389719 136 140 128
-0.07694859 -0.19237149 1.5389719 134 136 124
-0.07569206 -0.19309197 1.5447358 132 136 123
-0.07387065 -0.19237149 1.5389719 134 137 124
-0.07233168 -0.19237149 1.5389719 134 138 126
-0.07079271 -0.19237149 1.5389719 135 139 127
-0.06899629 -0.19165635 1.5332508 136 140 127
-0.06746303 -0.19165635 1.5332508 137 143 130
-0.065929785 -0.19165635 1.5332508 141 147 134
-0.06415803 -0.1909465 1.527572 142 147 135
-0.06263045 -0.1909465 1.527572 144 150 138
-0.061102882 -0.1909465 1.527572 144 152 139
-0.059575308 -0.1909465 1.527572 146 155 142
-0.058047738 -0.1909465 1.527572 148 157 146
-0.056520164 -0.1909465 1.527572 152 161 149
-0.05499259 -0.1909465 1.527572 154 161 151
-0.053465024 -0.1909465 1.527572 155 165 154
-0.05193745 -0.1909465 1.527572 158 166 156
-0.05040988 -0.1909465 1.527572 157 166 157
-0.048882306 -0.1909465 1.527572 156 166 155
-0.04735473 -0.1909465 1.527572 157 165 156
-0.04582716 -0.1909465 1.527572 156 166 156
-0.044299588 -0.1909465 1.527572 160 169 159
-0.042772017 -0.1909465 1.527572 162 171 160
-0.041244447 -0.1909465 1.527572 159 169 158
-0.039716873 -0.1909465 1.527572 158 168 157
-0.0381893 -0.1909465 1.527572 158 169 158
-0.03666173 -0.1909465 1.527572 161 169 160
-0.03526477 -0.19165635 1.5332508 163 171 162
-0.033731516 -0.19165635 1.5332508 164 171 162
-0.032198265 -0.19165635 1.5332508 164 171 161
-0.030665016 -0.19165635 1.5332508 166 170 161
-0.029240467 -0.19237149 1.5389719 165 170 159
-0.027598515 -0.19165635 1.5332508 165 170 161
-0.026065264 -0.19165635 1.5332508 166 169 160
-0.024715772 -0.19309197 1.5447358 166 168 157
-0.023084579 -0.19237149 1.5389719 162 161 148
-0.021941314 -0.19590458 1.5672367 119 121 110
-0.021944521 -0.211005 1.68804 77 71 65
-0.021932054 -0.2284589 1.8276712 39 28 29
-0.020811416 -0.23649338 1.891947 36 25 26
-0.01891947 -0.23649338 1.891947 37 26 27
-0.017027523 -0.23649338 1.891947 36 27 29
-0.015193656 -0.23740087 1.899207 36 27 29
-0.013193197 -0.2355928 1.8847424 36 27 29
-0.011351682 -0.23649338 1.891947 35 26 27
-0.009496035 -0.23740087 1.899207 34 26 27
-0.007596828 -0.23740087 1.899207 35 25 27
-0.005697621 -0.23740087 1.899207 35 26 27
-0.0038130458 -0.23831536 1.9065229 35 26 28
-0.0019065229 -0.23831536 1.9065229 35 26 26
0.0 -0.23740087 1.899207 35 26 27
0.0019065229 -0.23831536 1.9065229 36 27 27
0.0038130458 -0.23831536 1.9065229 34 26 26
0.0057195686 -0.23831536 1.9065229 34 26 26
0.0076260916 -0.23831536 1.9065229 35 25 24
0.009532615 -0.23831536 1.9065229 36 25 25
0.011439137 -0.23831536 1.9065229 36 25 24
0.013294449 -0.23740087 1.899207 34 24 23
0.015193656 -0.23740087 1.899207 32 23 22
0.017092863 -0.23740087 1.899207 36 24 23
0.01899207 -0.23740087 1.899207 40 27 26
0.020891277 -0.23740087 1.899207 47 29 28
0.022790484 -0.23740087 1.899207 51 33 30
0.024689691 -0.23740087 1.899207 56 37 35
0.026588898 -0.23740087 1.899207 47 30 27
0.028488105 -0.23740087 1.899207 58 37 33
0.030387312 -0.23740087 1.899207 74 44 40
0.032286517 -0.23740087 1.899207 77 47 41
0.034185726 -0.23740087 1.899207 78 45 43
0.035946995 -0.23649338 1.891947 81 48 44
0.03783894 -0.23649338 1.891947 85 49 43
0.039883345 -0.23740087 1.899207 84 48 42
0.041622832 -0.23649338 1.891947 86 49 43
0.043184623 -0.23469904 1.8775923 81 48 43
0.04452174 -0.23188406 1.8550725 58 35 32
0.046031747 -0.23015873 1.8412699 42 33 33
0.047519453 -0.2284589 1.8276712 40 32 35
0.04934712 -0.2284589 1.8276712 38 33 35
0.05136447 -0.22930567 1.8344454 38 33 36
0.052807458 -0.22761835 1.8209468 37 32 35
0.054628402 -0.22761835 1.8209468 37 31 33
0.056449354 -0.22761835 1.8209468 37 31 34
0.058014166 -0.22661783 1.8129426 36 32 34
0.059827108 -0.22661783 1.8129426 37 31 34
0.061415087 -0.22579077 1.8063262 37 31 33
0.06322142 -0.22579077 1.8063262 37 31 34
0.06502774 -0.22579077 1.8063262 35 31 34
0.06659103 -0.2249697 1.7997576 36 30 33
0.06839079 -0.2249697 1.7997576 36 29 33
0.07019054 -0.2249697 1.7997576 36 30 33
0.07172947 -0.22415459 1.7932367 37 31 34
0.0735227 -0.22415459 1.7932367 41 34 38
0.07531594 -0.22415459 1.7932367 44 37 39
0.07710917 -0.22415459 1.7932367 45 38 40
0.07856085 -0.22318423 1.7854738 45 39 40
0.08034632 -0.22318423 1.7854738 49 42 44
0.082131796 -0.22318423 1.7854738 47 42 41
0.08361563 -0.222382 1.779056 48 44 43
0.08508882 -0.22158548 1.7726839 53 46 47
0.08748822 -0.22318423 1.7854738 71 63 65
0.088952795 -0.222382 1.779056 68 61 61
0.090084225 -0.22079468 1.7663574 59 53 51
0.087778084 -0.211005 1.68804 68 65 61
0.08494646 -0.20034543 1.6027634 109 111 104
0.085606664 -0.19816358 1.5853087 120 125 114
0.086858116 -0.19740482 1.5792385 118 124 114
0.088437356 -0.19740482 1.5792385 119 126 119
0.08967324 -0.19665185 1.5732148 124 132 124
0.09089973 -0.19590458 1.5672367 115 123 116
0.09281967 -0.19665185 1.5732148 117 122 114
0.09439288 -0.19665185 1.5732148 118 125 117
0.0959661 -0.19665185 1.5732148 118 126 118
0.09716867 -0.19590458 1.5672367 120 127 120
0.098362155 -0.195163 1.561304 118 125 117
0.099923454 -0.195163 1.561304 120 127 118
0.10148475 -0.195163 1.561304 122 127 120
0.10304606 -0.195163 1.561304 123 129 121
0.104607366 -0.195163 1.561304 125 132 124
0.10583481 -0.19454928 1.5563942 130 138 129
0.10739121 -0.19454928 1.5563942 137 146 137
0.10894759 -0.19454928 1.5563942 148 158 146
0.11050399 -0.19454928 1.5563942 159 169 158
0.11206038 -0.19454928 1.5563942 169 180 169
0.11361677 -0.19454928 1.5563942 170 181 170
0.11517317 -0.19454928 1.5563942 173 184 172
0.116729565 -0.19454928 1.5563942 169 180 169
0.11784127 -0.19381788 1.5505431 168 181 168
0.119391814 -0.19381788 1.5505431 169 180 167
0.12094236 -0.19381788 1.5505431 164 172 161
0.1224929 -0.19381788 1.5505431 161 167 156
0.12404344 -0.19381788 1.5505431 155 161 151
0.12606794 -0.19454928 1.5563942 142 146 137
0.12714453 -0.19381788 1.5505431 135 137 127
0.12918073 -0.19454928 1.5563942 121 121 113
0.13073713 -0.19454928 1.5563942 113 109 102
0.13229351 -0.19454928 1.5563942 106 101 96
0.1338499 -0.19454928 1.5563942 105 98 93
0.1354063 -0.19454928 1.5563942 107 100 94
0.1369627 -0.19454928 1.5563942 112 104 98
0.1385191 -0.19454928 1.5563942 115 107 100
0.14007549 -0.19454928 1.5563942 116 108 101
0.14163187 -0.19454928 1.5563942 113 105 98
0.14318827 -0.19454928 1.5563942 137 126 116
0.14630897 -0.19665185 1.5732148 145 135 123
0.16165301 -0.2149641 1.7197129 166 153 137
0.18111968 -0.23831536 1.9065229 206 184 164
0.18794937 -0.24472575 1.957806 214 192 168
0.18990718 -0.24472575 1.957806 219 194 172
0.19262695 -0.24569765 1.9655812 218 191 170
0.19459254 -0.24569765 1.9655812 215 189 168
0.19734184 -0.24667731 1.9734185 211 187 165
0.20011316 -0.24766481 1.9813185 216 192 169
0.20209448 -0.24766481 1.9813185 214 188 166
0.2040758 -0.24766481 1.9813185 218 191 169
0.20605713 -0.24766481 1.9813185 212 188 165
0.20803843 -0.24766481 1.9813185 211 186 165
0.21001977 -0.24766481 1.9813185 213 189 167
0.21200109 -0.24766481 1.9813185 218 193 170
0.21398239 -0.24766481 1.9813185 224 196 175
0.21596372 -0.24766481 1.9813185 212 186 165
0.21794504 -0.24766481 1.9813185 212 185 165
0.21992634 -0.24766481 1.9813185 206 182 162
0.22190768 -0.24766481 1.9813185 205 180 160
0.223889 -0.24766481 1.9813185 206 181 162
0.2258703 -0.24766481 1.9813185 216 188 167
0.22785163 -0.24766481 1.9813185 208 182 163
0.22983295 -0.24766481 1.9813185 209 184 164
0.23181425 -0.24766481 1.9813185 218 192 172
0.23379558 -0.24766481 1.9813185 206 183 163
0.23483679 -0.24667731 1.9734185 209 185 164
0.2368102 -0.24667731 1.9734185 216 189 168
0.23878363 -0.24667731 1.9734185 218 188 169
0.24075705 -0.24667731 1.9734185 215 186 165
0.24273047 -0.24667731 1.9734185 211 184 163
0.24470389 -0.24667731 1.9734185 210 181 161
0.24766481 -0.24766481 1.9813185 210 181 161
0.24865073 -0.24667731 1.9734185 207 178 158
0.25062415 -0.24667731 1.9734185 211 180 157
0.25259757 -0.24667731 1.9734185 210 176 157
0.254571 -0.24667731 1.9734185 186 151 124
0.25552556 -0.24569765 1.9655812 159 115 97
0.2574911 -0.24569765 1.9655812 138 91 67
0.25945672 -0.24569765 1.9655812 139 86 60
0.26246467 -0.24667731 1.9734185 145 79 54
0.2633879 -0.24569765 1.9655812 148 72 48
0.26535344 -0.24569765 1.9655812 145 68 41
0.26731902 -0.24569765 1.9655812 146 65 31
0.2692846 -0.24569765 1.9655812 148 59 31
0.27017722 -0.24472575 1.957806 150 56 30
0.27213505 -0.24472575 1.957806 150 55 29
0.27409282 -0.24472575 1.957806 148 58 15
0.27605066 -0.24472575 1.957806 189 79 0
0.27713144 -0.24395373 1.9516299 191 83 0
0.27908307 -0.24395373 1.9516299 189 81 0
-0.28417227 -0.24865073 1.9734185 200 181 157
-0.28219885 -0.24865073 1.9734185 200 181 157
-0.28022543 -0.24865073 1.9734185 201 179 156
-0.278252 -0.24865073 1.9734185 198 170 145
-0.2762786 -0.24865073 1.9734185 205 155 129
-0.27430516 -0.24865073 1.9734185 190 124 95
-0.27233174 -0.24865073 1.9734185 195 115 84
-0.27035832 -0.24865073 1.9734185 196 110 77
-0.2683849 -0.24865073 1.9734185 188 105 73
-0.2664115 -0.24865073 1.9734185 202 110 82
-0.26549667 -0.24964613 1.9813185 203 111 79
-0.26351535 -0.24964613 1.9813185 176 99 73
-0.26153404 -0.24964613 1.9813185 149 91 63
-0.25955275 -0.24964613 1.9813185 189 104 77
-0.2575714 -0.24964613 1.9813185 190 103 73
-0.25559008 -0.24964613 1.9813185 194 105 74
-0.25360876 -0.24964613 1.9813185 192 102 73
-0.25162745 -0.24964613 1.9813185 190 100 71
-0.24964613 -0.24964613 1.9813185 188 101 69
-0.24766481 -0.24964613 1.9813185 194 103 71
-0.24568349 -0.24964613 1.9813185 185 100 68
-0.24370217 -0.24964613 1.9813185 187 97 68
-0.24172086 -0.24964613 1.9813185 155 81 51
-0.23878363 -0.24865073 1.9734185 188 97 70
-0.2368102 -0.24865073 1.9734185 193 102 73
-0.23483679 -0.24865073 1.9734185 200 110 76
-0.23286337 -0.24865073 1.9734185 185 102 68
-0.23088998 -0.24865073 1.9734185 193 105 69
-0.22800742 -0.24766323 1.9655812 202 111 76
-0.22604184 -0.24766323 1.9655812 193 108 77
-0.22496971 -0.24865073 1.9734185 202 123 92
-0.2229963 -0.24865073 1.9734185 208 155 133
-0.22102287 -0.24865073 1.9734185 209 182 161
-0.21904945 -0.24865073 1.9734185 205 185 161
-0.21707603 -0.24865073 1.9734185 207 186 163
-0.21596372 -0.24964613 1.9813185 210 187 164
-0.2131292 -0.24865073 1.9734185 211 191 168
-0.21115577 -0.24865073 1.9734185 213 192 169
-0.20918235 -0.24865073 1.9734185 215 194 172
-0.20638601 -0.24766323 1.9655812 209 189 166
-0.20442045 -0.24766323 1.9655812 204 183 159
-0.2032621 -0.24865073 1.9734185 204 181 156
-0.20128869 -0.24865073 1.9734185 195 171 147
-0.19931526 -0.24865073 1.9734185 184 160 139
-0.19655812 -0.24766323 1.9655812 179 157 136
-0.19459254 -0.24766323 1.9655812 182 160 138
-0.19262695 -0.24766323 1.9655812 185 162 140
-0.19066137 -0.24766323 1.9655812 186 165 142
-0.18944818 -0.24865073 1.9734185 183 161 138
-0.1867302 -0.24766323 1.9655812 176 156 132
-0.18476464 -0.24766323 1.9655812 173 152 129
-0.18352792 -0.24865073 1.9734185 180 157 137
-0.18155451 -0.24865073 1.9734185 178 154 134
-0.17958109 -0.24865073 1.9734185 164 141 123
-0.17760767 -0.24865073 1.9734185 154 133 113
-0.17563425 -0.24865073 1.9734185 147 127 107
-0.17435601 -0.24964613 1.9813185 146 126 106
-0.17237471 -0.24964613 1.9813185 147 126 106
-0.17039339 -0.24964613 1.9813185 148 127 106
-0.16908896 -0.2506495 1.9892819 143 123 103
-0.16709968 -0.2506495 1.9892819 141 120 102
-0.1651104 -0.2506495 1.9892819 144 122 102
-0.1637794 -0.25166103 1.9973097 138 117 101
-0.16178209 -0.25166103 1.9973097 142 121 103
-0.15914255 -0.2506495 1.9892819 144 124 105
-0.15715328 -0.2506495 1.9892819 147 126 107
-0.15516399 -0.2506495 1.9892819 145 122 104
-0.15075107 -0.24668355 1.957806 143 122 103
-0.14433974 -0.23930007 1.899207 141 121 104
-0.13449275 -0.22594783 1.7932367 104 91 84
-0.12725875 -0.21668382 1.7197129 91 79 76
-0.12415854 -0.21430102 1.7008018 104 93 92
-0.122457735 -0.21430102 1.7008018 97 86 85
-0.12117334 -0.21504001 1.7066667 80 69 68
-0.11905613 -0.21430102 1.7008018 78 66 67
-0.11735533 -0.21430102 1.7008018 76 66 68
-0.11565453 -0.21430102 1.7008018 74 64 64
-0.11395372 -0.21430102 1.7008018 75 65 63
-0.11179192 -0.21342094 1.693817 76 65 63
-0.11009811 -0.21342094 1.693817 68 59 58
-0.10803456 -0.21269304 1.68804 71 62 60
-0.10671047 -0.21342094 1.693817 69 60 58
-0.105016656 -0.21342094 1.693817 66 58 56
-0.10332284 -0.21342094 1.693817 68 60 58
-0.10162902 -0.21342094 1.693817 65 57 55
-0.099935204 -0.21342094 1.693817 65 57 53
-0.09717716 -0.21110901 1.6754683 71 64 57
-0.09304486 -0.20567812 1.632366 114 110 102
-0.087765254 -0.19747181 1.5672367 143 144 132
-0.08560169 -0.19610567 1.5563942 146 145 133
-0.08404529 -0.19610567 1.5563942 142 143 131
-0.082488894 -0.19610567 1.5563942 141 145 131
-0.080932505 -0.19610567 1.5563942 139 141 128
-0.07878152 -0.1946367 1.5447358 132 136 123
-0.07723679 -0.1946367 1.5447358 132 136 123
-0.07540962 -0.19391046 1.5389719 135 139 125
-0.07387065 -0.19391046 1.5389719 138 140 126
-0.07233168 -0.19391046 1.5389719 137 141 129
-0.07052954 -0.1931896 1.5332508 134 139 126
-0.06899629 -0.1931896 1.5332508 135 139 127
-0.06746303 -0.1931896 1.5332508 137 144 131
-0.0656856 -0.19247408 1.527572 140 146 133
-0.06415803 -0.19247408 1.527572 143 149 136
-0.06263045 -0.19247408 1.527572 143 150 138
-0.061102882 -0.19247408 1.527572 147 153 141
-0.05935547 -0.19176383 1.5219352 149 156 145
-0.058047738 -0.19247408 1.527572 146 155 144
-0.056520164 -0.19247408 1.527572 149 156 145
-0.05499259 -0.19247408 1.527572 151 160 150
-0.053465024 -0.19247408 1.527572 152 162 151
-0.05193745 -0.19247408 1.527572 156 164 155
-0.05040988 -0.19247408 1.527572 155 165 156
-0.048882306 -0.19247408 1.527572 153 165 154
-0.04735473 -0.19247408 1.527572 154 164 153
-0.04565806 -0.19176383 1.5219352 156 166 154
-0.044299588 -0.19247408 1.527572 157 168 158
-0.042772017 -0.19247408 1.527572 158 168 158
-0.041244447 -0.19247408 1.527572 159 169 158
-0.039570317 -0.19176383 1.5219352 159 169 158
-0.038048383 -0.19176383 1.5219352 158 167 157
-0.036526445 -0.19176383 1.5219352 161 169 160
-0.035134155 -0.19247408 1.527572 164 173 163
-0.033606585 -0.19247408 1.527572 164 173 163
-0.032079015 -0.19247408 1.527572 163 171 162
-0.030551441 -0.19247408 1.527572 164 171 161
-0.029131765 -0.1931896 1.5332508 165 170 161
-0.027598515 -0.1931896 1.5332508 166 171 160
-0.026065264 -0.1931896 1.5332508 163 168 157
-0.02462355 -0.19391046 1.5389719 169 168 158
-0.022998761 -0.1931896 1.5332508 166 165 153
-0.021941314 -0.19747181 1.5672367 128 131 120
-0.022019621 -0.21342094 1.693817 60 55 49
-0.022013344 -0.23114012 1.8344454 41 28 29
-0.020811416 -0.23838533 1.891947 38 27 27
-0.01891947 -0.23838533 1.891947 38 27 27
-0.017027523 -0.23838533 1.891947 37 28 30
-0.015193656 -0.23930007 1.899207 37 27 29
-0.013193197 -0.23747754 1.8847424 37 28 28
-0.011351682 -0.23838533 1.891947 36 27 27
-0.009496035 -0.23930007 1.899207 36 27 27
-0.007567788 -0.23838533 1.891947 38 27 27
-0.005675841 -0.23838533 1.891947 37 28 28
-0.003798414 -0.23930007 1.899207 38 28 28
-0.001891947 -0.23838533 1.891947 36 28 26
0.0 -0.23838533 1.891947 36 27 27
0.001899207 -0.23930007 1.899207 40 29 29
0.003798414 -0.23930007 1.899207 39 31 29
0.005697621 -0.23930007 1.899207 38 29 27
0.007596828 -0.23930007 1.899207 37 29 27
0.009496035 -0.23930007 1.899207 38 29 27
0.011395242 -0.23930007 1.899207 38 29 27
0.013294449 -0.23930007 1.899207 38 27 26
0.015193656 -0.23930007 1.899207 35 25 25
0.017092863 -0.23930007 1.899207 34 25 24
0.01899207 -0.23930007 1.899207 36 25 24
0.020891277 -0.23930007 1.899207 43 28 26
0.022790484 -0.23930007 1.899207 49 31 30
0.024689691 -0.23930007 1.899207 51 34 32
0.026588898 -0.23930007 1.899207 50 33 31
0.028379206 -0.23838533 1.891947 60 36 35
0.030504366 -0.24022187 1.9065229 73 45 40
0.032286517 -0.23930007 1.899207 77 47 39
0.034185726 -0.23930007 1.899207 75 43 40
0.036223933 -0.24022187 1.9065229 67 38 33
0.03783894 -0.23838533 1.891947 82 48 41
0.03957959 -0.23747754 1.8847424 84 49 43
0.041464332 -0.23747754 1.8847424 83 51 43
0.042988922 -0.23550454 1.8690836 72 44 38
0.044355493 -0.23286633 1.8481455 49 33 31
0.046031747 -0.232 1.8412699 40 31 34
0.047519453 -0.23028655 1.8276712 38 32 35
0.049165566 -0.2294393 1.8209468 38 33 35
0.05098651 -0.2294393 1.8209468 37 33 35
0.053002466 -0.23028655 1.8276712 38 31 34
0.054830134 -0.23028655 1.8276712 36 30 32
0.056449354 -0.2294393 1.8209468 37 30 34
0.058014166 -0.22843078 1.8129426 37 31 34
0.059608765 -0.22759709 1.8063262 37 31 34
0.061415087 -0.22759709 1.8063262 37 31 34
0.06322142 -0.22759709 1.8063262 37 31 34
0.06502774 -0.22759709 1.8063262 36 30 34
0.06659103 -0.22676946 1.7997576 36 30 32
0.06839079 -0.22676946 1.7997576 36 29 33
0.07019054 -0.22676946 1.7997576 37 30 34
0.07172947 -0.22594783 1.7932367 38 31 34
0.0735227 -0.22594783 1.7932367 40 33 37
0.0749899 -0.2249697 1.7854738 45 37 39
0.07677537 -0.2249697 1.7854738 47 39 41
0.07856085 -0.2249697 1.7854738 48 41 44
0.08005752 -0.22416106 1.779056 48 41 43
0.081836574 -0.22416106 1.779056 45 39 39
0.08331614 -0.22335817 1.7726839 50 44 44
0.08508882 -0.22335817 1.7726839 67 59 60
0.087173745 -0.22416106 1.779056 70 63 65
0.088952795 -0.22416106 1.779056 53 46 49
0.09040687 -0.22335817 1.7726839 51 44 45
0.08942507 -0.21668382 1.7197129 57 50 48
0.0865154 -0.20567812 1.632366 95 95 88
0.085278876 -0.19898406 1.5792385 120 123 112
0.08719198 -0.19974889 1.5853087 118 123 111
0.08810003 -0.19822507 1.5732148 123 131 121
0.08967324 -0.19822507 1.5732148 114 121 114
0.09089973 -0.19747181 1.5672367 116 123 116
0.09281967 -0.19822507 1.5732148 124 129 124
0.09439288 -0.19822507 1.5732148 121 130 122
0.09560143 -0.19747181 1.5672367 120 128 120
0.09680085 -0.19672431 1.561304 118 125 117
0.098362155 -0.19672431 1.561304 124 132 124
0.09960923 -0.19610567 1.5563942 126 134 125
0.10148475 -0.19672431 1.561304 128 135 127
0.10304606 -0.19672431 1.561304 133 141 131
0.104278415 -0.19610567 1.5563942 145 152 142
0.10583481 -0.19610567 1.5563942 154 164 153
0.10739121 -0.19610567 1.5563942 160 170 159
0.10894759 -0.19610567 1.5563942 162 173 162
0.11050399 -0.19610567 1.5563942 165 177 165
0.11206038 -0.19610567 1.5563942 168 180 168
0.11361677 -0.19610567 1.5563942 166 180 168
0.11517317 -0.19610567 1.5563942 169 180 168
0.11629073 -0.19536842 1.5505431 170 181 170
0.11784127 -0.19536842 1.5505431 172 184 172
0.119391814 -0.19536842 1.5505431 173 184 172
0.12094236 -0.19536842 1.5505431 172 182 171
0.1224929 -0.19536842 1.5505431 173 182 172
0.12404344 -0.19536842 1.5505431 167 177 166
0.12559399 -0.19536842 1.5505431 161 172 161
0.12714453 -0.19536842 1.5505431 155 161 152
0.12869507 -0.19536842 1.5505431 141 144 135
0.13024563 -0.19536842 1.5505431 128 125 117
0.13179615 -0.19536842 1.5505431 123 118 111
0.1338499 -0.19610567 1.5563942 110 105 97
0.1354063 -0.19610567 1.5563942 108 100 93
0.1369627 -0.19610567 1.5563942 106 98 91
0.13895606 -0.19672431 1.561304 112 104 97
0.14007549 -0.19610567 1.5563942 114 105 97
0.14207865 -0.19672431 1.561304 121 110 102
0.14318827 -0.19610567 1.5563942 120 108 100
0.14686918 -0.19898406 1.5792385 142 129 118
0.16289823 -0.21835293 1.7329599 175 159 142
0.18111968 -0.24022187 1.9065229 214 190 170
0.18735647 -0.24590537 1.9516299 217 190 170
0.1893081 -0.24590537 1.9516299 213 189 168
0.191865 -0.24668355 1.957806 217 190 171
0.1938228 -0.24668355 1.957806 214 188 166
0.19734184 -0.24865073 1.9734185 212 188 167
0.19931526 -0.24865073 1.9734185 214 191 167
0.20048927 -0.24766323 1.9655812 217 190 169
0.20245486 -0.24766323 1.9655812 218 194 170
0.20442045 -0.24766323 1.9655812 215 191 169
0.20638601 -0.24766323 1.9655812 213 189 166
0.20835161 -0.24766323 1.9655812 217 190 169
0.21031718 -0.24766323 1.9655812 214 189 169
0.21228276 -0.24766323 1.9655812 215 190 169
0.21424836 -0.24766323 1.9655812 216 189 168
0.21707603 -0.24865073 1.9734185 215 188 167
0.21904945 -0.24865073 1.9734185 218 191 171
0.22102287 -0.24865073 1.9734185 211 185 165
0.2229963 -0.24865073 1.9734185 211 185 164
0.22496971 -0.24865073 1.9734185 208 180 162
0.22694314 -0.24865073 1.9734185 210 181 163
0.22891656 -0.24865073 1.9734185 211 185 165
0.23088998 -0.24865073 1.9734185 214 191 169
0.23286337 -0.24865073 1.9734185 216 190 170
0.23483679 -0.24865073 1.9734185 209 186 166
0.23586974 -0.24766323 1.9655812 213 188 168
0.23878363 -0.24865073 1.9734185 212 186 167
0.2398009 -0.24766323 1.9655812 212 186 167
0.24273047 -0.24865073 1.9734185 213 187 167
0.24373206 -0.24766323 1.9655812 214 185 166
0.24569765 -0.24766323 1.9655812 215 185 166
0.24766323 -0.24766323 1.9655812 209 183 162
0.24962881 -0.24766323 1.9655812 210 181 163
0.25259757 -0.24865073 1.9734185 212 182 166
0.25355998 -0.24766323 1.9655812 212 183 169
0.25552556 -0.24766323 1.9655812 211 181 166
0.2574911 -0.24766323 1.9655812 214 176 153
0.25945672 -0.24766323 1.9655812 199 157 137
0.2603882 -0.24668355 1.957806 167 125 107
0.262346 -0.24668355 1.957806 184 127 103
0.2643038 -0.24668355 1.957806 139 86 69
0.26626164 -0.24668355 1.957806 139 76 56
0.2682194 -0.24668355 1.957806 143 70 49
0.27017722 -0.24668355 1.957806 147 68 40
0.27213505 -0.24668355 1.957806 149 61 31
0.27409282 -0.24668355 1.957806 147 61 18
0.27605066 -0.24668355 1.957806 184 78 4
0.27713144 -0.24590537 1.9516299 188 79 0
0.27908307 -0.24590537 1.9516299 188 80 0
-0.28417227 -0.25062415 1.9734185 199 178 156
-0.28219885 -0.25062415 1.9734185 201 179 156
-0.28022543 -0.25062415 1.9734185 196 168 147
-0.278252 -0.25062415 1.9734185 195 153 127
-0.2762786 -0.25062415 1.9734185 191 128 98
-0.27430516 -0.25062415 1.9734185 189 112 82
-0.27233174 -0.25062415 1.9734185 193 110 76
-0.27035832 -0.25062415 1.9734185 186 102 75
-0.2683849 -0.25062415 1.9734185 185 102 74
-0.2664115 -0.25062415 1.9734185 189 105 74
-0.2644381 -0.25062415 1.9734185 190 110 77
-0.26246467 -0.25062415 1.9734185 172 102 75
-0.26049125 -0.25062415 1.9734185 154 98 70
-0.25955275 -0.25162745 1.9813185 175 101 76
-0.2575714 -0.25162745 1.9813185 186 102 73
-0.25559008 -0.25162745 1.9813185 180 98 71
-0.25259757 -0.25062415 1.9734185 204 111 79
-0.25062415 -0.25062415 1.9734185 193 106 74
-0.24865073 -0.25062415 1.9734185 194 104 72
-0.24766481 -0.25162745 1.9813185 188 102 69
-0.24373206 -0.24962881 1.9655812 189 103 69
-0.24273047 -0.25062415 1.9734185 190 103 70
-0.24075705 -0.25062415 1.9734185 201 107 75
-0.23783533 -0.24962881 1.9655812 194 102 74
-0.23586974 -0.24962881 1.9655812 194 105 75
-0.23390415 -0.24962881 1.9655812 202 113 78
-0.23193859 -0.24962881 1.9655812 200 108 73
-0.22997299 -0.24962881 1.9655812 186 100 66
-0.22800742 -0.24962881 1.9655812 199 105 75
-0.2251477 -0.24864136 1.957806 190 103 76
-0.22407624 -0.24962881 1.9655812 194 116 89
-0.22211067 -0.24962881 1.9655812 208 160 133
-0.22102287 -0.25062415 1.9734185 211 183 162
-0.21904945 -0.25062415 1.9734185 208 188 163
-0.21621393 -0.24962881 1.9655812 208 188 163
-0.21424836 -0.24962881 1.9655812 209 189 165
-0.21228276 -0.24962881 1.9655812 209 189 166
-0.21031718 -0.24962881 1.9655812 201 181 160
-0.20835161 -0.24962881 1.9655812 207 187 164
-0.20556962 -0.24864136 1.957806 207 187 164
-0.20361182 -0.24864136 1.957806 203 182 159
-0.20165402 -0.24864136 1.957806 200 175 151
-0.20048927 -0.24962881 1.9655812 188 164 142
-0.1985237 -0.24962881 1.9655812 185 162 140
-0.19578059 -0.24864136 1.957806 183 161 139
-0.1938228 -0.24864136 1.957806 191 167 144
-0.191865 -0.24864136 1.957806 197 174 149
-0.18990718 -0.24864136 1.957806 190 167 144
-0.1886958 -0.24962881 1.9655812 191 167 144
-0.18599156 -0.24864136 1.957806 179 157 134
-0.18476464 -0.24962881 1.9655812 171 150 127
-0.18279906 -0.24962881 1.9655812 178 156 134
-0.18083346 -0.24962881 1.9655812 176 153 132
-0.17886789 -0.24962881 1.9655812 167 143 125
-0.17690231 -0.24962881 1.9655812 162 140 120
-0.17493673 -0.24962881 1.9655812 157 136 116
-0.17366083 -0.25062415 1.9734185 146 129 108
-0.17168741 -0.25062415 1.9734185 145 125 104
-0.16971399 -0.25062415 1.9734185 143 124 103
-0.16841206 -0.25162745 1.9813185 143 122 102
-0.16576715 -0.25062415 1.9734185 135 114 96
-0.16444944 -0.25162745 1.9813185 137 116 97
-0.1624681 -0.25162745 1.9813185 137 115 98
-0.16113183 -0.2526388 1.9892819 136 115 98
-0.15914255 -0.2526388 1.9892819 146 124 105
-0.15652415 -0.25162745 1.9813185 143 122 104
-0.15331534 -0.24962881 1.9655812 144 122 104
-0.14968528 -0.24688348 1.9439645 144 122 103
-0.1409855 -0.23559421 1.8550725 132 113 100
-0.13144477 -0.2225798 1.7525969 94 81 76
-0.12629333 -0.21674667 1.7066667 91 78 76
-0.12458667 -0.21674667 1.7066667 109 97 95
-0.122880004 -0.21674667 1.7066667 84 72 71
-0.12117334 -0.21674667 1.7066667 79 68 67
-0.11905613 -0.21600184 1.7008018 78 68 68
-0.11735533 -0.21600184 1.7008018 77 68 68
-0.11565453 -0.21600184 1.7008018 75 66 65
-0.11395372 -0.21600184 1.7008018 72 63 61
-0.11179192 -0.21511476 1.693817 73 64 63
-0.11009811 -0.21511476 1.693817 72 63 62
-0.10803456 -0.21438108 1.68804 71 61 60
-0.10671047 -0.21511476 1.693817 68 59 57
-0.105016656 -0.21511476 1.693817 66 58 56
-0.10297044 -0.21438108 1.68804 67 58 57
-0.10162902 -0.21511476 1.693817 67 58 56
-0.09959436 -0.21438108 1.68804 64 56 52
-0.09717716 -0.21278448 1.6754683 63 56 49
-0.09304486 -0.20731047 1.632366 98 94 88
-0.08810003 -0.19979829 1.5732148 138 139 127
-0.08560169 -0.19766207 1.5563942 146 145 133
-0.08404529 -0.19766207 1.5563942 142 144 130
-0.082749106 -0.1982856 1.561304 141 143 130
-0.080628246 -0.19691898 1.5505431 133 136 123
-0.07937611 -0.19766207 1.5563942 134 138 125
-0.07723679 -0.19618145 1.5447358 136 140 127
-0.07569206 -0.19618145 1.5447358 135 139 127
-0.074147314 -0.19618145 1.5447358 136 139 127
-0.07233168 -0.19544943 1.5389719 140 142 129
-0.07079271 -0.19544943 1.5389719 141 143 130
-0.06899629 -0.19472286 1.5332508 139 142 130
-0.06721317 -0.19400164 1.527572 141 146 134
-0.0656856 -0.19400164 1.527572 142 147 135
-0.06415803 -0.19400164 1.527572 147 152 141
-0.06263045 -0.19400164 1.527572 148 153 141
-0.060877413 -0.19328576 1.5219352 145 152 141
-0.05935547 -0.19328576 1.5219352 147 154 144
-0.057833537 -0.19328576 1.5219352 148 156 144
-0.056311604 -0.19328576 1.5219352 148 155 144
-0.05478967 -0.19328576 1.5219352 149 158 147
-0.053267736 -0.19328576 1.5219352 155 163 153
-0.051745795 -0.19328576 1.5219352 153 162 152
-0.05022386 -0.19328576 1.5219352 153 163 153
-0.048882306 -0.19400164 1.527572 155 163 153
-0.04735473 -0.19400164 1.527572 152 162 152
-0.04565806 -0.19328576 1.5219352 155 164 153
-0.044299588 -0.19400164 1.527572 155 165 155
-0.042772017 -0.19400164 1.527572 157 166 156
-0.04109225 -0.19328576 1.5219352 156 166 155
-0.039570317 -0.19328576 1.5219352 158 168 157
-0.038048383 -0.19328576 1.5219352 160 170 160
-0.036526445 -0.19328576 1.5219352 162 170 161
-0.035134155 -0.19400164 1.527572 157 164 156
-0.033606585 -0.19400164 1.527572 160 168 159
-0.032079015 -0.19400164 1.527572 161 169 160
-0.030551441 -0.19400164 1.527572 162 168 159
-0.029131765 -0.19472286 1.5332508 161 169 158
-0.027598515 -0.19472286 1.5332508 164 169 158
-0.026065264 -0.19472286 1.5332508 161 166 156
-0.024532013 -0.19472286 1.5332508 167 166 157
-0.022998761 -0.19472286 1.5332508 166 165 155
-0.022025008 -0.19979829 1.5732148 145 146 135
-0.022110425 -0.21600184 1.7008018 81 76 71
-0.022013344 -0.23297456 1.8344454 45 32 33
-0.020811416 -0.24027726 1.891947 42 30 32
-0.01891947 -0.24027726 1.891947 40 29 30
-0.017027523 -0.24027726 1.891947 39 29 30
-0.015193656 -0.2411993 1.899207 38 28 29
-0.013193197 -0.23936228 1.8847424 37 29 28
-0.011351682 -0.24027726 1.891947 39 28 27
-0.009459735 -0.24027726 1.891947 39 28 27
-0.007567788 -0.24027726 1.891947 39 29 28
-0.005675841 -0.24027726 1.891947 38 29 28
-0.003783894 -0.24027726 1.891947 38 29 28
-0.001891947 -0.24027726 1.891947 38 29 27
0.0 -0.23936228 1.8847424 41 30 29
0.001891947 -0.24027726 1.891947 42 31 31
0.003783894 -0.24027726 1.891947 41 31 31
0.005675841 -0.24027726 1.891947 41 31 31
0.007567788 -0.24027726 1.891947 42 30 30
0.009459735 -0.24027726 1.891947 40 30 29
0.011351682 -0.24027726 1.891947 41 30 28
0.013294449 -0.2411993 1.899207 40 29 28
0.015193656 -0.2411993 1.899207 38 27 28
0.017092863 -0.2411993 1.899207 37 27 28
0.01899207 -0.2411993 1.899207 33 26 28
0.020891277 -0.2411993 1.899207 38 29 29
0.022790484 -0.2411993 1.899207 45 29 27
0.024689691 -0.2411993 1.899207 48 32 30
0.026588898 -0.2411993 1.899207 53 37 34
0.028488105 -0.2411993 1.899207 62 38 36
0.030504366 -0.2421284 1.9065229 71 44 38
0.032163102 -0.24027726 1.891947 75 45 38
0.034055047 -0.24027726 1.891947 71 43 39
0.036084935 -0.2411993 1.899207 52 29 20
0.03798414 -0.2411993 1.899207 77 47 39
0.03957959 -0.23936228 1.8847424 84 50 43
0.041464332 -0.23936228 1.8847424 81 49 42
0.042988922 -0.23737362 1.8690836 68 40 34
0.044355493 -0.23471448 1.8481455 42 31 28
0.046031747 -0.23384129 1.8412699 38 31 34
0.04769558 -0.23297456 1.8344454 37 32 35
0.04934712 -0.23211424 1.8276712 36 33 35
0.05098651 -0.23126024 1.8209468 37 33 35
0.053002466 -0.23211424 1.8276712 38 32 34
0.054830134 -0.23211424 1.8276712 37 30 33
0.056449354 -0.23126024 1.8209468 37 30 34
0.057802435 -0.22940342 1.8063262 37 31 35
0.059608765 -0.22940342 1.8063262 37 31 34
0.061415087 -0.22940342 1.8063262 37 30 33
0.06322142 -0.22940342 1.8063262 37 31 33
0.06502774 -0.22940342 1.8063262 35 31 34
0.06659103 -0.22856921 1.7997576 36 30 33
0.06839079 -0.22856921 1.7997576 36 30 33
0.07019054 -0.22856921 1.7997576 36 30 33
0.07172947 -0.22774106 1.7932367 37 30 34
0.07320443 -0.22675517 1.7854738 40 33 37
0.0749899 -0.22675517 1.7854738 44 37 39
0.07677537 -0.22675517 1.7854738 46 39 42
0.07856085 -0.22675517 1.7854738 48 41 43
0.08005752 -0.22594011 1.779056 48 41 43
0.08154346 -0.22513084 1.7726839 47 42 42
0.08331614 -0.22513084 1.7726839 60 53 53
0.08539468 -0.22594011 1.779056 70 63 63
0.08686151 -0.22513084 1.7726839 60 54 56
0.08863419 -0.22513084 1.7726839 50 44 46
0.090084225 -0.22432739 1.7663574 51 46 47
0.09081345 -0.2217944 1.7464126 52 47 45
0.08749656 -0.20966156 1.6508784 78 76 70
0.085606664 -0.2013342 1.5853087 118 121 110
0.08652681 -0.19979829 1.5732148 120 125 114
0.08810003 -0.19979829 1.5732148 118 124 114
0.08967324 -0.19979829 1.5732148 115 122 113
0.09124646 -0.19979829 1.5732148 122 129 120
0.092466965 -0.19903906 1.5672367 122 131 123
0.093678236 -0.1982856 1.561304 123 131 122
0.09523954 -0.1982856 1.561304 123 131 121
0.09680085 -0.1982856 1.561304 123 132 123
0.098362155 -0.1982856 1.561304 127 137 128
0.09960923 -0.19766207 1.5563942 130 139 130
0.10116563 -0.19766207 1.5563942 137 145 136
0.10272202 -0.19766207 1.5563942 145 154 143
0.104278415 -0.19766207 1.5563942 149 161 150
0.10583481 -0.19766207 1.5563942 156 166 156
0.10739121 -0.19766207 1.5563942 161 172 161
0.10894759 -0.19766207 1.5563942 162 173 162
0.11050399 -0.19766207 1.5563942 165 176 165
0.11206038 -0.19766207 1.5563942 165 176 165
0.113189645 -0.19691898 1.5505431 168 181 169
0.114740185 -0.19691898 1.5505431 169 182 170
0.116729565 -0.19766207 1.5563942 172 183 172
0.118285954 -0.19766207 1.5563942 172 182 170
0.11984235 -0.19766207 1.5563942 170 181 169
0.12139875 -0.19766207 1.5563942 173 183 172
0.1224929 -0.19691898 1.5505431 175 186 174
0.12404344 -0.19691898 1.5505431 176 185 174
0.12559399 -0.19691898 1.5505431 172 183 173
0.12714453 -0.19691898 1.5505431 172 178 168
0.12869507 -0.19691898 1.5505431 167 170 161
0.13073713 -0.19766207 1.5563942 156 155 146
0.13229351 -0.19766207 1.5563942 141 139 130
0.1338499 -0.19766207 1.5563942 133 127 117
0.1354063 -0.19766207 1.5563942 120 114 104
0.1369627 -0.19766207 1.5563942 111 105 97
0.1385191 -0.19766207 1.5563942 110 103 95
0.14007549 -0.19766207 1.5563942 113 104 95
0.14163187 -0.19766207 1.5563942 114 104 95
0.14363997 -0.1982856 1.561304 112 101 93
0.14954126 -0.20421226 1.6079706 121 110 101
0.16663228 -0.22513084 1.7726839 189 170 153
0.18182005 -0.24306472 1.9138954 218 194 172
0.18735647 -0.24785699 1.9516299 217 190 169
0.1893081 -0.24785699 1.9516299 217 190 169
0.19125974 -0.24785699 1.9516299 217 190 169
0.1938228 -0.24864136 1.957806 214 188 167
0.19655812 -0.24962881 1.9655812 212 189 168
0.1985237 -0.24962881 1.9655812 213 189 167
0.20048927 -0.24962881 1.9655812 213 189 166
0.20245486 -0.24962881 1.9655812 216 190 169
0.20442045 -0.24962881 1.9655812 213 189 166
0.20638601 -0.24962881 1.9655812 213 188 166
0.20835161 -0.24962881 1.9655812 215 189 169
0.21031718 -0.24962881 1.9655812 209 184 164
0.21228276 -0.24962881 1.9655812 211 186 166
0.21424836 -0.24962881 1.9655812 215 191 169
0.21621393 -0.24962881 1.9655812 216 189 168
0.21817951 -0.24962881 1.9655812 219 192 171
0.22014509 -0.24962881 1.9655812 215 188 168
0.22211067 -0.24962881 1.9655812 210 185 165
0.22407624 -0.24962881 1.9655812 209 180 162
0.22604184 -0.24962881 1.9655812 208 181 162
0.22800742 -0.24962881 1.9655812 211 185 166
0.22997299 -0.24962881 1.9655812 219 192 172
0.23193859 -0.24962881 1.9655812 217 191 171
0.23390415 -0.24962881 1.9655812 218 191 171
0.23493673 -0.24864136 1.957806 217 190 171
0.23689453 -0.24864136 1.957806 214 185 166
0.23885232 -0.24864136 1.957806 216 188 168
0.24081014 -0.24864136 1.957806 215 187 167
0.24276794 -0.24864136 1.957806 214 187 166
0.24472575 -0.24864136 1.957806 207 179 160
0.24668355 -0.24864136 1.957806 211 182 162
0.24864136 -0.24864136 1.957806 211 180 167
0.2515944 -0.24962881 1.9655812 211 180 165
0.25355998 -0.24962881 1.9655812 209 181 165
0.25552556 -0.24962881 1.9655812 209 185 164
0.2574911 -0.24962881 1.9655812 214 184 168
0.25945672 -0.24962881 1.9655812 220 186 172
0.2603882 -0.24864136 1.957806 222 188 177
0.262346 -0.24864136 1.957806 208 176 162
0.2643038 -0.24864136 1.957806 203 162 134
0.26626164 -0.24864136 1.957806 193 144 114
0.2682194 -0.24864136 1.957806 162 113 93
0.26932493 -0.24785699 1.9516299 137 84 62
0.27127656 -0.24785699 1.9516299 143 72 54
0.27322817 -0.24785699 1.9516299 145 67 32
0.2751798 -0.24785699 1.9516299 165 73 17
0.27713144 -0.24785699 1.9516299 177 74 0
0.27908307 -0.24785699 1.9516299 180 72 0
-0.2830437 -0.2515944 1.9655812 201 179 158
-0.2810781 -0.2515944 1.9655812 203 181 160
-0.27911252 -0.2515944 1.9655812 201 173 150
-0.27714694 -0.2515944 1.9655812 192 151 122
-0.27518135 -0.2515944 1.9655812 196 133 101
-0.2732158 -0.2515944 1.9655812 179 108 79
-0.27125022 -0.2515944 1.9655812 187 108 78
-0.2692846 -0.2515944 1.9655812 190 113 83
-0.26731902 -0.2515944 1.9655812 191 112 84
-0.2664115 -0.25259757 1.9734185 183 109 81
-0.2644381 -0.25259757 1.9734185 191 110 84
-0.26246467 -0.25259757 1.9734185 180 104 82
-0.26049125 -0.25259757 1.9734185 178 109 84
-0.25851783 -0.25259757 1.9734185 159 101 76
-0.2565444 -0.25259757 1.9734185 183 110 81
-0.254571 -0.25259757 1.9734185 189 106 77
-0.2515944 -0.2515944 1.9655812 184 103 74
-0.25062415 -0.25259757 1.9734185 188 104 75
-0.24766323 -0.2515944 1.9655812 197 107 77
-0.24667731 -0.25259757 1.9734185 190 105 76
-0.24373206 -0.2515944 1.9655812 190 106 77
-0.24273047 -0.25259757 1.9734185 197 110 80
-0.24075705 -0.25259757 1.9734185 197 109 76
-0.23783533 -0.2515944 1.9655812 194 105 71
-0.23586974 -0.2515944 1.9655812 199 109 73
-0.23297891 -0.25059918 1.957806 196 112 73
-0.23193859 -0.2515944 1.9655812 195 108 72
-0.22997299 -0.2515944 1.9655812 190 104 69
-0.22800742 -0.2515944 1.9655812 195 107 75
-0.22604184 -0.2515944 1.9655812 199 109 81
-0.22407624 -0.2515944 1.9655812 200 125 99
-0.22211067 -0.2515944 1.9655812 210 161 139
-0.22014509 -0.2515944 1.9655812 212 189 163
-0.21731646 -0.25059918 1.957806 211 188 161
-0.21535866 -0.25059918 1.957806 207 186 160
-0.21340086 -0.25059918 1.957806 206 185 159
-0.21144305 -0.25059918 1.957806 207 188 162
-0.2088244 -0.24980862 1.9516299 202 182 159
-0.20687278 -0.24980862 1.9516299 209 189 165
-0.20492114 -0.24980862 1.9516299 207 187 163
-0.20361182 -0.25059918 1.957806 201 181 157
-0.20101789 -0.24980862 1.9516299 198 176 152
-0.19906625 -0.24980862 1.9516299 180 160 138
-0.19711462 -0.24980862 1.9516299 191 168 146
-0.195163 -0.24980862 1.9516299 190 168 145
-0.19321136 -0.24980862 1.9516299 187 165 142
-0.191865 -0.25059918 1.957806 194 170 147
-0.18990718 -0.25059918 1.957806 188 165 142
-0.18794937 -0.25059918 1.957806 192 168 146
-0.18599156 -0.25059918 1.957806 183 161 139
-0.18403377 -0.25059918 1.957806 177 155 134
-0.18207596 -0.25059918 1.957806 178 157 134
-0.18011814 -0.25059918 1.957806 161 140 120
-0.17816034 -0.25059918 1.957806 157 136 117
-0.17620255 -0.25059918 1.957806 164 141 121
-0.17424473 -0.25059918 1.957806 166 143 123
-0.17228693 -0.25059918 1.957806 147 129 111
-0.17032912 -0.25059918 1.957806 145 126 107
-0.16837132 -0.25059918 1.957806 142 123 102
-0.1670744 -0.2515944 1.9655812 148 126 105
-0.1644557 -0.25059918 1.957806 136 116 97
-0.16198528 -0.24980862 1.9516299 141 119 99
-0.16117766 -0.2515944 1.9655812 141 119 97
-0.15921208 -0.2515944 1.9655812 145 123 101
-0.15662448 -0.25059918 1.957806 147 126 105
-0.15528092 -0.2515944 1.9655812 144 121 104
-0.15162922 -0.24882746 1.9439645 143 121 104
-0.14512517 -0.24124703 1.8847424 142 123 106
-0.13569601 -0.22854064 1.7854738 110 97 90
-0.1295185 -0.22104491 1.7269133 92 81 77
-0.12585934 -0.21770264 1.7008018 108 96 94
-0.12415854 -0.21770264 1.7008018 88 76 75
-0.122880004 -0.21845333 1.7066667 82 71 70
-0.120756924 -0.21770264 1.7008018 80 70 69
-0.11856719 -0.21680857 1.693817 80 70 69
-0.116873376 -0.21680857 1.693817 78 69 67
-0.11517956 -0.21680857 1.693817 74 65 64
-0.11348574 -0.21680857 1.693817 70 62 60
-0.11141065 -0.21606912 1.68804 74 66 64
-0.10927537 -0.21518841 1.6811595 73 64 63
-0.10803456 -0.21606912 1.68804 70 61 61
-0.10591305 -0.21518841 1.6811595 68 60 59
-0.103879035 -0.21445994 1.6754683 68 60 60
-0.10220357 -0.21445994 1.6754683 66 57 57
-0.1005281 -0.21445994 1.6754683 63 54 53
-0.09918841 -0.21518841 1.6811595 66 57 55
-0.09717716 -0.21445994 1.6754683 68 60 56
-0.094100066 -0.21131244 1.6508784 80 73 67
-0.089062564 -0.20357156 1.5904028 132 130 120
-0.08587172 -0.19984691 1.561304 144 145 133
-0.08372933 -0.19846952 1.5505431 144 143 131
-0.081870995 -0.19772618 1.5447358 140 141 129
-0.08032627 -0.19772618 1.5447358 138 141 127
-0.0790777 -0.19846952 1.5505431 142 145 131
-0.07752715 -0.19846952 1.5505431 141 146 132
-0.07569206 -0.19772618 1.5447358 138 142 129
-0.074147314 -0.19772618 1.5447358 137 141 129
