ply
format ascii 1.0
element vertex 1082
property float32 x
property float32 y
property float32 z
property uchar red
property uchar green
property uchar blue
element face 0
property list uint8 int32 vertex_indices
end_header
0.124251045 -0.26033553 1.4791791 103 87 84
0.12618276 -0.26127255 1.4845031 102 86 83
0.12766728 -0.26127255 1.4845031 102 86 83
0.12915178 -0.26127255 1.4845031 100 85 82
0.1315835 -0.263167 1.4952669 95 80 76
0.13356297 -0.2641245 1.5007075 89 73 69
0.13555692 -0.2650891 1.5061879 88 71 67
0.13756548 -0.2660607 1.5117085 83 68 63
0.1395888 -0.26703945 1.5172696 81 66 61
0.14110608 -0.26703945 1.5172696 82 69 63
0.1430619 -0.2678606 1.5219352 81 69 63
0.14511934 -0.26885268 1.527572 82 69 65
0.14610578 -0.2678606 1.5219352 83 69 65
0.14762771 -0.2678606 1.5219352 84 70 65
0.14970206 -0.26885268 1.527572 83 69 65
0.15122963 -0.26885268 1.527572 87 73 69
0.15389718 -0.27085906 1.5389719 92 78 74
0.15601832 -0.2718735 1.5447358 93 79 75
0.15875222 -0.2739254 1.5563942 97 81 77
0.16204113 -0.2768858 1.5732148 103 87 83
0.1648721 -0.27901432 1.5853087 108 93 88
0.16699229 -0.2799109 1.5904028 113 96 91
0.17044489 -0.28300282 1.6079706 125 109 97
0.17466316 -0.2872964 1.632366 200 177 156
0.17829488 -0.29055458 1.6508784 208 186 165
0.18054797 -0.291527 1.6564034 216 193 174
0.18220438 -0.291527 1.6564034 211 189 168
0.185977 -0.29488242 1.6754683 209 189 165
0.18689324 -0.29368937 1.6686896 210 189 165
0.18856192 -0.29368937 1.6686896 209 186 164
0.19100338 -0.29488242 1.6754683 198 173 153
0.19267887 -0.29488242 1.6754683 198 174 152
0.19435433 -0.29488242 1.6754683 195 173 150
0.1960298 -0.29488242 1.6754683 211 187 163
0.19770525 -0.29488242 1.6754683 219 194 172
0.19938074 -0.29488242 1.6754683 219 197 176
0.2010562 -0.29488242 1.6754683 223 200 178
0.20273167 -0.29488242 1.6754683 222 197 176
0.20440714 -0.29488242 1.6754683 212 189 169
0.20608261 -0.29488242 1.6754683 210 187 167
0.20846377 -0.29588407 1.6811595 212 188 168
0.21014494 -0.29588407 1.6811595 213 188 169
0.2118261 -0.29588407 1.6811595 214 190 170
0.21438108 -0.29709503 1.68804 207 182 160
0.21606912 -0.29709503 1.68804 208 183 161
0.21775715 -0.29709503 1.68804 208 184 163
0.2194452 -0.29709503 1.68804 207 184 162
0.22113325 -0.29709503 1.68804 211 189 167
0.2228213 -0.29709503 1.68804 219 195 172
0.22450933 -0.29709503 1.68804 215 192 170
0.22619736 -0.29709503 1.68804 206 184 162
0.22866529 -0.2981118 1.693817 210 187 166
0.23035912 -0.2981118 1.693817 213 191 170
0.23300986 -0.2993411 1.7008018 211 187 166
0.23471066 -0.2993411 1.7008018 198 174 154
0.23641145 -0.2993411 1.7008018 209 183 162
0.23893334 -0.30037335 1.7066667 220 196 175
0.24064 -0.30037335 1.7066667 215 192 171
0.24234667 -0.30037335 1.7066667 211 188 166
0.24405335 -0.30037335 1.7066667 212 188 166
-0.23948388 -0.2943656 1.6630825 75 79 95
-0.2378208 -0.2943656 1.6630825 75 81 96
-0.23615772 -0.2943656 1.6630825 81 85 101
-0.23449463 -0.2943656 1.6630825 88 91 106
-0.23283154 -0.2943656 1.6630825 81 84 100
-0.23116848 -0.2943656 1.6630825 79 82 97
-0.22950539 -0.2943656 1.6630825 80 82 98
-0.2278423 -0.2943656 1.6630825 82 84 100
-0.22617921 -0.2943656 1.6630825 78 81 95
-0.22451612 -0.2943656 1.6630825 75 79 91
-0.22285306 -0.2943656 1.6630825 82 85 98
-0.22118998 -0.2943656 1.6630825 90 93 101
-0.21952689 -0.2943656 1.6630825 109 109 115
-0.2178638 -0.2943656 1.6630825 147 138 140
-0.21620072 -0.2943656 1.6630825 172 154 151
-0.21453765 -0.2943656 1.6630825 189 170 154
-0.21287456 -0.2943656 1.6630825 193 173 152
-0.21121147 -0.2943656 1.6630825 195 173 152
-0.20954838 -0.2943656 1.6630825 196 172 152
-0.20788531 -0.2943656 1.6630825 193 170 151
-0.20622224 -0.2943656 1.6630825 198 178 156
-0.20455915 -0.2943656 1.6630825 200 178 158
-0.20289606 -0.2943656 1.6630825 200 181 158
-0.20123298 -0.2943656 1.6630825 205 184 162
-0.1995699 -0.2943656 1.6630825 206 188 163
-0.19790682 -0.2943656 1.6630825 198 179 157
-0.19624373 -0.2943656 1.6630825 193 172 151
-0.19458064 -0.2943656 1.6630825 200 178 156
-0.19291757 -0.2943656 1.6630825 203 182 159
-0.19125448 -0.2943656 1.6630825 199 178 156
-0.1895914 -0.2943656 1.6630825 195 177 153
-0.18792832 -0.2943656 1.6630825 200 180 158
-0.18551718 -0.29318342 1.6564034 206 182 159
-0.18386078 -0.29318342 1.6564034 193 169 149
-0.18220438 -0.29318342 1.6564034 196 175 153
-0.18054797 -0.29318342 1.6564034 198 176 155
-0.17889157 -0.29318342 1.6564034 198 176 155
-0.17723517 -0.29318342 1.6564034 198 176 154
-0.17499311 -0.29220548 1.6508784 201 179 157
-0.17334224 -0.29220548 1.6508784 202 182 160
-0.17169136 -0.29220548 1.6508784 200 181 159
-0.17004049 -0.29220548 1.6508784 202 182 161
-0.1683896 -0.29220548 1.6508784 205 185 162
-0.16729675 -0.29318342 1.6564034 205 185 162
-0.16508785 -0.29220548 1.6508784 204 183 161
-0.16278538 -0.29104057 1.6442969 205 185 162
-0.1611411 -0.29104057 1.6442969 199 179 157
-0.1594968 -0.29104057 1.6442969 205 185 162
-0.15785252 -0.29104057 1.6442969 200 181 158
-0.1562082 -0.29104057 1.6442969 200 181 159
-0.1545639 -0.29104057 1.6442969 202 182 160
-0.15291962 -0.29104057 1.6442969 206 186 163
-0.1512753 -0.29104057 1.6442969 208 188 165
-0.14963101 -0.29104057 1.6442969 202 180 160
-0.14798672 -0.29104057 1.6442969 196 177 155
-0.14634243 -0.29104057 1.6442969 183 166 146
-0.14469811 -0.29104057 1.6442969 186 168 147
-0.14258014 -0.29007682 1.6388521 179 162 139
-0.14094128 -0.29007682 1.6388521 172 155 129
-0.13976523 -0.29104057 1.6442969 159 140 119
-0.13766357 -0.29007682 1.6388521 142 126 106
-0.13548638 -0.28892878 1.632366 135 119 100
-0.13288978 -0.2868474 1.6206069 134 117 100
-0.12882262 -0.28150132 1.5904028 119 105 93
-0.12490432 -0.2763508 1.561304 104 91 85
-0.12157878 -0.27239805 1.5389719 95 82 78
-0.11871094 -0.26938254 1.5219352 94 80 76
-0.11718901 -0.26938254 1.5219352 88 75 70
-0.115312494 -0.26855674 1.5172696 86 73 68
-0.11337814 -0.26757243 1.5117085 92 79 75
-0.11145791 -0.26659527 1.5061879 89 75 71
-0.10995172 -0.26659527 1.5061879 88 74 69
-0.10884301 -0.26757243 1.5117085 91 78 71
-0.10693934 -0.26659527 1.5061879 104 91 83
-0.10504952 -0.2656252 1.5007075 93 80 71
-0.10354882 -0.2656252 1.5007075 97 85 77
-0.102048114 -0.2656252 1.5007075 86 72 66
-0.099820994 -0.2637062 1.4898655 84 70 65
-0.09868761 -0.26466224 1.4952669 93 79 75
-0.097192355 -0.26466224 1.4952669 93 80 75
-0.0953514 -0.2637062 1.4898655 85 69 65
-0.09386153 -0.2637062 1.4898655 94 80 75
-0.092371665 -0.2637062 1.4898655 93 79 74
-0.09055469 -0.26275706 1.4845031 91 77 73
-0.08907019 -0.26275706 1.4845031 87 73 68
-0.08758569 -0.26275706 1.4845031 86 71 66
-0.08610118 -0.26275706 1.4845031 85 70 65
-0.08431321 -0.26181468 1.4791791 83 69 64
-0.08283403 -0.26181468 1.4791791 82 67 61
-0.08164767 -0.26275706 1.4845031 80 67 60
-0.07954286 -0.26072383 1.4730159 81 66 60
-0.07839649 -0.26181468 1.4791791 81 66 59
-0.07632424 -0.259796 1.4677739 80 65 58
-0.07485647 -0.259796 1.4677739 81 65 58
-0.07312845 -0.2588747 1.462569 87 70 64
-0.071161196 -0.25705165 1.4522692 102 86 80
-0.06970892 -0.25705165 1.4522692 111 93 88
-0.06777933 -0.2552541 1.4421135 114 95 90
-0.06610608 -0.2543647 1.4370887 113 94 89
-0.06466899 -0.2543647 1.4370887 111 93 87
-0.0632319 -0.2543647 1.4370887 108 90 85
-0.061794814 -0.2543647 1.4370887 110 90 83
-0.060113363 -0.25333488 1.4312705 109 92 84
-0.05868209 -0.25333488 1.4312705 109 90 82
-0.057052836 -0.2524588 1.4263209 109 91 82
-0.055626515 -0.2524588 1.4263209 110 90 82
-0.054200195 -0.2524588 1.4263209 112 93 85
-0.05277387 -0.2524588 1.4263209 109 90 83
-0.051347554 -0.2524588 1.4263209 109 90 82
-0.049749188 -0.25158873 1.4214053 110 92 86
-0.04832778 -0.25158873 1.4214053 109 89 84
-0.04706859 -0.2524588 1.4263209 105 86 81
-0.04598684 -0.2543647 1.4370887 106 87 82
-0.044549752 -0.2543647 1.4370887 108 88 83
-0.04311266 -0.2543647 1.4370887 106 87 82
-0.04167557 -0.2543647 1.4370887 107 87 82
-0.040379178 -0.2552541 1.4421135 105 86 79
-0.038937066 -0.2552541 1.4421135 106 87 80
-0.037494954 -0.2552541 1.4421135 105 87 80
-0.036052838 -0.2552541 1.4421135 100 82 75
-0.034610726 -0.2552541 1.4421135 101 82 77
-0.03316861 -0.2552541 1.4421135 102 83 78
-0.0317265 -0.2552541 1.4421135 99 80 73
-0.030390646 -0.2561497 1.4471736 99 80 74
-0.028943472 -0.2561497 1.4471736 99 80 74
-0.027496297 -0.2561497 1.4471736 95 77 71
-0.026049126 -0.2561497 1.4471736 94 76 72
-0.024601951 -0.2561497 1.4471736 96 78 74
-0.023073817 -0.2552541 1.4421135 97 79 75
-0.021631703 -0.2552541 1.4421135 102 82 80
-0.020189589 -0.2552541 1.4421135 101 81 81
-0.018747477 -0.2552541 1.4421135 102 84 85
-0.017305363 -0.2552541 1.4421135 113 94 95
-0.015918909 -0.2561497 1.4471736 116 97 98
-0.014522692 -0.25705165 1.4522692 117 99 99
-0.013024563 -0.2561497 1.4471736 124 104 103
-0.011659208 -0.25795996 1.4574009 137 117 115
-0.010354253 -0.26181468 1.4791791 138 118 116
-0.009004245 -0.2656252 1.5007075 161 144 135
-0.007926543 -0.28059965 1.5853087 197 173 155
-0.0065771877 -0.29104057 1.6442969 206 183 157
-0.004932891 -0.29104057 1.6442969 208 188 162
-0.003301757 -0.29220548 1.6508784 209 191 169
-0.0016442969 -0.29104057 1.6442969 215 192 169
0.0 -0.2943656 1.6630825 206 184 163
0.0016564034 -0.29318342 1.6564034 211 188 166
0.003326165 -0.2943656 1.6630825 200 178 157
0.0049892473 -0.2943656 1.6630825 212 189 167
0.00665233 -0.2943656 1.6630825 211 188 165
0.008315412 -0.2943656 1.6630825 206 184 162
0.009978495 -0.2943656 1.6630825 208 185 163
0.0116808275 -0.29535806 1.6686896 218 194 171
0.013349517 -0.29535806 1.6686896 201 179 159
0.015018207 -0.29535806 1.6686896 204 182 161
0.016686896 -0.29535806 1.6686896 203 181 161
0.018355586 -0.29535806 1.6686896 207 185 164
0.020024275 -0.29535806 1.6686896 212 193 169
0.021692965 -0.29535806 1.6686896 220 198 172
0.023361655 -0.29535806 1.6686896 213 191 168
0.025030345 -0.29535806 1.6686896 212 188 165
0.02660932 -0.2943656 1.6630825 219 197 173
0.028272402 -0.2943656 1.6630825 222 200 173
0.029935485 -0.2943656 1.6630825 214 192 167
0.031598568 -0.2943656 1.6630825 206 183 161
0.03326165 -0.2943656 1.6630825 214 189 166
0.03492473 -0.2943656 1.6630825 215 193 169
0.036587816 -0.2943656 1.6630825 214 190 167
0.03837986 -0.29535806 1.6686896 212 190 166
0.03991398 -0.2943656 1.6630825 221 199 174
0.04157706 -0.2943656 1.6630825 212 191 166
0.04324014 -0.2943656 1.6630825 204 182 159
0.04505462 -0.29535806 1.6686896 206 186 163
0.04672331 -0.29535806 1.6686896 208 185 162
0.048391998 -0.29535806 1.6686896 216 196 173
0.05006069 -0.29535806 1.6686896 210 193 169
0.051729377 -0.29535806 1.6686896 216 198 173
0.05339807 -0.29535806 1.6686896 218 201 176
0.055066757 -0.29535806 1.6686896 223 201 179
0.05673545 -0.29535806 1.6686896 221 200 177
0.058404136 -0.29535806 1.6686896 218 197 175
0.05987097 -0.2943656 1.6630825 221 201 178
0.06153405 -0.2943656 1.6630825 215 194 172
0.063197136 -0.2943656 1.6630825 212 194 172
0.06486022 -0.2943656 1.6630825 219 198 175
0.0665233 -0.2943656 1.6630825 218 199 177
0.06818638 -0.2943656 1.6630825 203 185 164
0.06984946 -0.2943656 1.6630825 211 191 169
0.07151255 -0.2943656 1.6630825 215 194 173
0.07288175 -0.29318342 1.6564034 208 189 168
0.07483871 -0.2943656 1.6630825 215 194 172
0.076501794 -0.2943656 1.6630825 214 195 173
0.078164876 -0.2943656 1.6630825 214 195 172
0.07982796 -0.2943656 1.6630825 216 197 175
0.081491046 -0.2943656 1.6630825 206 188 167
0.08282017 -0.29318342 1.6564034 199 183 161
0.0841948 -0.29220548 1.6508784 195 176 155
0.08584568 -0.29220548 1.6508784 184 164 144
0.087147735 -0.29104057 1.6442969 166 150 132
0.08849802 -0.29007682 1.6388521 152 136 120
0.08978013 -0.28892878 1.632366 141 125 109
0.09141249 -0.28892878 1.632366 130 113 97
0.09304486 -0.28892878 1.632366 126 107 94
0.094303995 -0.28778976 1.6259309 121 106 92
0.09487026 -0.2846108 1.6079706 120 104 91
0.09542417 -0.28150132 1.5904028 120 105 93
0.0959661 -0.278459 1.5732148 124 110 99
0.096133664 -0.27444613 1.5505431 127 113 105
0.09695523 -0.27239805 1.5389719 128 114 103
0.09569708 -0.26466224 1.4952669 129 114 105
0.09614664 -0.26181468 1.4791791 127 113 104
0.09721905 -0.26072383 1.4730159 118 104 95
0.09799213 -0.2588747 1.462569 113 97 90
0.099808626 -0.259796 1.4677739 108 92 84
0.1016381 -0.26072383 1.4730159 107 91 84
0.10311112 -0.26072383 1.4730159 103 87 82
0.10421194 -0.259796 1.4677739 101 83 79
0.10567972 -0.259796 1.4677739 101 83 78
0.10753016 -0.26072383 1.4730159 99 82 77
0.10900317 -0.26072383 1.4730159 97 81 75
0.110476196 -0.26072383 1.4730159 96 79 71
0.11194921 -0.26072383 1.4730159 97 82 77
0.11342222 -0.26072383 1.4730159 100 85 79
0.11489524 -0.26072383 1.4730159 101 82 79
0.11636826 -0.26072383 1.4730159 100 81 79
0.11784127 -0.26072383 1.4730159 104 86 83
0.11931428 -0.26072383 1.4730159 104 85 82
0.12078731 -0.26072383 1.4730159 105 88 85
0.122260325 -0.26072383 1.4730159 107 91 87
0.124251045 -0.26181468 1.4791791 105 89 85
0.12618276 -0.26275706 1.4845031 98 83 78
0.12812844 -0.2637062 1.4898655 92 77 72
0.13008823 -0.26466224 1.4952669 86 71 67
0.13206226 -0.2656252 1.5007075 84 67 64
0.13405073 -0.26659527 1.5061879 83 66 61
0.13605377 -0.26757243 1.5117085 83 66 62
0.13807154 -0.26855674 1.5172696 83 68 63
0.14001803 -0.26938254 1.5219352 82 69 63
0.14153998 -0.26938254 1.5219352 81 69 63
0.1430619 -0.26938254 1.5219352 83 68 65
0.14511934 -0.27038026 1.527572 83 70 65
0.1477413 -0.27239805 1.5389719 84 71 67
0.14983937 -0.27341825 1.5447358 85 71 67
0.15138412 -0.27341825 1.5447358 88 74 70
0.15408303 -0.2754818 1.5563942 94 80 76
0.1561304 -0.2763508 1.561304 94 80 77
0.15829091 -0.27740088 1.5672367 93 79 75
0.16046791 -0.278459 1.5732148 97 82 77
0.16328679 -0.28059965 1.5853087 98 81 77
0.16604216 -0.282591 1.5965592 100 86 80
0.16883692 -0.2846108 1.6079706 109 95 89
0.17111199 -0.28572473 1.614264 154 137 119
0.1739746 -0.28778976 1.6259309 206 187 163
0.17629552 -0.28892878 1.632366 216 194 172
0.17922837 -0.29104057 1.6442969 213 190 172
0.18087265 -0.29104057 1.6442969 207 183 163
0.18386078 -0.29318342 1.6564034 210 190 166
0.18626525 -0.2943656 1.6630825 212 190 167
0.18792832 -0.2943656 1.6630825 214 190 168
0.19023062 -0.29535806 1.6686896 210 184 162
0.19189931 -0.29535806 1.6686896 195 171 149
0.19356799 -0.29535806 1.6686896 195 171 149
0.19523668 -0.29535806 1.6686896 197 175 152
0.19690537 -0.29535806 1.6686896 216 192 170
0.19857407 -0.29535806 1.6686896 219 195 174
0.20024276 -0.29535806 1.6686896 219 197 174
0.20191143 -0.29535806 1.6686896 216 192 172
0.20440714 -0.2965579 1.6754683 219 197 174
0.20608261 -0.2965579 1.6754683 219 195 174
0.20775807 -0.2965579 1.6754683 209 188 166
0.20943354 -0.2965579 1.6754683 211 188 168
0.21110901 -0.2965579 1.6754683 220 193 173
0.21350726 -0.29756522 1.6811595 210 185 163
0.21518841 -0.29756522 1.6811595 208 185 163
0.21686956 -0.29756522 1.6811595 200 177 156
0.21855074 -0.29756522 1.6811595 204 181 159
0.22023189 -0.29756522 1.6811595 209 186 164
0.22191305 -0.29756522 1.6811595 205 184 161
0.22450933 -0.2987831 1.68804 220 195 173
0.22619736 -0.2987831 1.68804 210 189 165
0.22788541 -0.2987831 1.68804 212 190 167
0.23035912 -0.2998056 1.693817 213 191 170
0.23300986 -0.30104193 1.7008018 214 190 169
0.23471066 -0.30104193 1.7008018 206 181 161
0.23641145 -0.30104193 1.7008018 208 182 162
0.23811226 -0.30104193 1.7008018 216 193 173
0.23981306 -0.30104193 1.7008018 219 197 175
0.24151385 -0.30104193 1.7008018 215 195 172
0.24321467 -0.30104193 1.7008018 206 184 163
-0.2385221 -0.2948398 1.6564034 82 87 99
-0.2368657 -0.2948398 1.6564034 83 86 99
-0.23520929 -0.2948398 1.6564034 77 81 95
-0.23355289 -0.2948398 1.6564034 73 75 89
-0.23189649 -0.2948398 1.6564034 77 81 95
-0.23024008 -0.2948398 1.6564034 80 84 97
-0.22858368 -0.2948398 1.6564034 78 80 94
-0.22692727 -0.2948398 1.6564034 81 84 96
-0.22527085 -0.2948398 1.6564034 88 90 102
-0.22361445 -0.2948398 1.6564034 86 89 99
-0.22195806 -0.2948398 1.6564034 88 89 98
-0.22030166 -0.2948398 1.6564034 111 111 117
-0.21864524 -0.2948398 1.6564034 124 120 123
-0.21698885 -0.2948398 1.6564034 147 140 136
-0.21533245 -0.2948398 1.6564034 177 163 153
-0.21367604 -0.2948398 1.6564034 190 169 152
-0.21201964 -0.2948398 1.6564034 195 172 152
-0.21036324 -0.2948398 1.6564034 195 173 152
-0.20870683 -0.2948398 1.6564034 195 173 152
-0.20705043 -0.2948398 1.6564034 195 173 153
-0.20539403 -0.2948398 1.6564034 195 174 152
-0.20373763 -0.2948398 1.6564034 196 175 154
-0.20208122 -0.2948398 1.6564034 201 179 157
-0.20042482 -0.2948398 1.6564034 204 183 159
-0.19876842 -0.2948398 1.6564034 203 185 161
-0.19711201 -0.2948398 1.6564034 201 182 159
-0.1954556 -0.2948398 1.6564034 197 178 154
-0.1937992 -0.2948398 1.6564034 196 176 154
-0.19214278 -0.2948398 1.6564034 198 176 153
-0.19048639 -0.2948398 1.6564034 200 181 157
-0.18882999 -0.2948398 1.6564034 197 178 155
-0.18717359 -0.2948398 1.6564034 200 179 156
-0.18551718 -0.2948398 1.6564034 204 181 158
-0.18386078 -0.2948398 1.6564034 200 178 156
-0.18220438 -0.2948398 1.6564034 198 176 155
-0.17994575 -0.29385635 1.6508784 199 177 154
-0.17829488 -0.29385635 1.6508784 200 177 156
-0.176644 -0.29385635 1.6508784 196 174 153
-0.17499311 -0.29385635 1.6508784 195 173 152
-0.17334224 -0.29385635 1.6508784 205 183 159
-0.17169136 -0.29385635 1.6508784 200 181 158
-0.17004049 -0.29385635 1.6508784 205 185 162
-0.1683896 -0.29385635 1.6508784 203 184 161
-0.16673872 -0.29385635 1.6508784 202 182 160
-0.16508785 -0.29385635 1.6508784 204 185 162
-0.16278538 -0.29268485 1.6442969 205 185 164
-0.1611411 -0.29268485 1.6442969 203 183 161
-0.1594968 -0.29268485 1.6442969 202 182 160
-0.15785252 -0.29268485 1.6442969 198 179 157
-0.1562082 -0.29268485 1.6442969 197 178 156
-0.1540521 -0.29171568 1.6388521 200 181 158
-0.15241325 -0.29171568 1.6388521 204 184 161
-0.1507744 -0.29171568 1.6388521 203 183 160
-0.14913554 -0.29171568 1.6388521 208 188 164
-0.14749669 -0.29171568 1.6388521 200 181 159
-0.14585784 -0.29171568 1.6388521 192 173 153
-0.144219 -0.29171568 1.6388521 188 170 148
-0.14258014 -0.29171568 1.6388521 184 164 142
-0.14094128 -0.29171568 1.6388521 174 155 132
-0.13930243 -0.29171568 1.6388521 160 142 121
-0.13711874 -0.29056114 1.632366 143 128 107
-0.13548638 -0.29056114 1.632366 135 119 100
-0.13288978 -0.288468 1.6206069 133 116 100
-0.12882262 -0.2830917 1.5904028 115 101 90
-0.12490432 -0.2779121 1.561304 104 92 84
-0.12157878 -0.27393702 1.5389719 94 82 77
-0.11871094 -0.27090448 1.5219352 105 93 88
-0.11718901 -0.27090448 1.5219352 90 78 72
-0.115312494 -0.270074 1.5172696 87 75 69
-0.11379522 -0.270074 1.5172696 101 89 84
-0.11186643 -0.2690841 1.5117085 97 84 79
-0.10995172 -0.26810145 1.5061879 93 79 72
-0.10884301 -0.2690841 1.5117085 82 68 61
-0.107331306 -0.2690841 1.5117085 104 91 83
-0.10543315 -0.26810145 1.5061879 95 82 74
-0.103926964 -0.26810145 1.5061879 94 81 73
-0.10242078 -0.26810145 1.5061879 93 79 73
-0.1005474 -0.26712593 1.5007075 84 69 65
-0.09868761 -0.2661575 1.4952669 100 87 83
-0.09684126 -0.26519608 1.4898655 93 78 74
-0.09569708 -0.2661575 1.4952669 87 73 69
-0.09386153 -0.26519608 1.4898655 85 69 65
-0.092371665 -0.26519608 1.4898655 92 78 74
-0.09055469 -0.26424155 1.4845031 93 80 75
-0.08875075 -0.2632939 1.4791791 88 74 69
-0.08758569 -0.26424155 1.4845031 82 69 64
-0.08610118 -0.26424155 1.4845031 84 71 66
-0.08431321 -0.2632939 1.4791791 86 73 67
-0.08313218 -0.26424155 1.4845031 83 69 63
-0.08135485 -0.2632939 1.4791791 81 67 61
-0.07987567 -0.2632939 1.4791791 81 67 60
-0.078069836 -0.26219684 1.4730159 80 65 59
-0.07632424 -0.26126376 1.4677739 79 64 57
-0.07485647 -0.26126376 1.4677739 80 65 58
-0.07312845 -0.2603373 1.462569 79 63 56
-0.071665876 -0.2603373 1.462569 83 67 60
-0.069955245 -0.25941736 1.4574009 90 73 66
-0.068017155 -0.25759688 1.4471736 98 81 75
-0.06633722 -0.2566962 1.4421135 103 86 80
-0.06466899 -0.2558018 1.4370887 106 89 83
-0.0632319 -0.2558018 1.4370887 107 90 84
-0.061794814 -0.2558018 1.4370887 110 91 84
-0.060113363 -0.25476614 1.4312705 110 92 84
-0.05868209 -0.25476614 1.4312705 109 91 83
-0.05725082 -0.25476614 1.4312705 108 91 82
-0.05581955 -0.25476614 1.4312705 108 90 82
-0.054200195 -0.25388512 1.4263209 111 92 84
-0.05277387 -0.25388512 1.4263209 110 91 83
-0.051347554 -0.25388512 1.4263209 108 90 82
-0.04992123 -0.25388512 1.4263209 110 92 86
-0.048494913 -0.25388512 1.4263209 110 92 86
-0.04706859 -0.25388512 1.4263209 109 89 84
-0.045800656 -0.25476614 1.4312705 107 87 83
-0.044369385 -0.25476614 1.4312705 108 88 84
-0.04311266 -0.2558018 1.4370887 110 88 84
-0.04167557 -0.2558018 1.4370887 110 88 84
-0.040379178 -0.2566962 1.4421135 109 88 84
-0.038937066 -0.2566962 1.4421135 108 87 83
-0.037494954 -0.2566962 1.4421135 108 88 84
-0.036052838 -0.2566962 1.4421135 106 86 82
-0.034610726 -0.2566962 1.4421135 104 85 81
-0.03316861 -0.2566962 1.4421135 106 87 82
-0.0317265 -0.2566962 1.4421135 104 85 79
-0.030284384 -0.2566962 1.4421135 98 78 73
-0.02884227 -0.2566962 1.4421135 100 80 75
-0.027496297 -0.25759688 1.4471736 100 80 76
-0.026049126 -0.25759688 1.4471736 100 82 78
-0.024601951 -0.25759688 1.4471736 101 83 79
-0.023073817 -0.2566962 1.4421135 100 82 78
-0.021631703 -0.2566962 1.4421135 100 81 75
-0.020189589 -0.2566962 1.4421135 102 81 79
-0.018747477 -0.2566962 1.4421135 100 81 80
-0.017305363 -0.2566962 1.4421135 101 82 81
-0.015974961 -0.2585039 1.4522692 106 87 86
-0.014574009 -0.25941736 1.4574009 109 91 89
-0.013024563 -0.25759688 1.4471736 113 94 91
-0.011700552 -0.2603373 1.462569 124 104 100
-0.010311112 -0.26219684 1.4730159 131 113 108
-0.008939194 -0.26519608 1.4898655 162 141 130
-0.00780652 -0.2779121 1.561304 200 178 159
-0.006529464 -0.29056114 1.632366 219 195 168
-0.004932891 -0.29268485 1.6442969 212 189 164
-0.0032885938 -0.29268485 1.6442969 210 188 170
-0.0016442969 -0.29268485 1.6442969 217 195 171
0.0 -0.29385635 1.6508784 221 196 172
0.0016564034 -0.2948398 1.6564034 214 190 168
0.0033128068 -0.2948398 1.6564034 199 177 157
0.0049692104 -0.2948398 1.6564034 206 182 161
0.0066256137 -0.2948398 1.6564034 205 181 160
0.008282017 -0.2948398 1.6564034 209 186 163
0.009938421 -0.2948398 1.6564034 205 185 162
0.011641578 -0.29602867 1.6630825 212 191 167
0.01330466 -0.29602867 1.6630825 214 190 169
0.014967742 -0.29602867 1.6630825 213 192 168
0.016630825 -0.29602867 1.6630825 216 193 171
0.018293908 -0.29602867 1.6630825 219 195 173
0.01995699 -0.29602867 1.6630825 218 197 173
0.021692965 -0.29702675 1.6686896 218 197 172
0.023361655 -0.29702675 1.6686896 197 175 154
0.025030345 -0.29702675 1.6686896 208 185 162
0.02660932 -0.29602867 1.6630825 211 191 167
0.028158857 -0.2948398 1.6564034 213 189 166
0.029815262 -0.2948398 1.6564034 211 188 164
0.031471666 -0.2948398 1.6564034 210 187 163
0.033128068 -0.2948398 1.6564034 216 192 168
0.03492473 -0.29602867 1.6630825 210 189 164
0.036440875 -0.2948398 1.6564034 220 198 172
0.038097277 -0.2948398 1.6564034 226 204 178
0.03991398 -0.29602867 1.6630825 220 199 174
0.04157706 -0.29602867 1.6630825 207 184 161
0.04306649 -0.2948398 1.6564034 205 182 159
0.04490323 -0.29602867 1.6630825 204 180 158
0.04656631 -0.29602867 1.6630825 207 184 162
0.048229393 -0.29602867 1.6630825 216 192 170
0.049892474 -0.29602867 1.6630825 213 192 168
0.05155556 -0.29602867 1.6630825 209 189 166
0.05321864 -0.29602867 1.6630825 214 193 170
0.05488172 -0.29602867 1.6630825 214 196 173
0.056544803 -0.29602867 1.6630825 215 195 173
0.057974122 -0.2948398 1.6564034 210 190 168
0.059630524 -0.2948398 1.6564034 212 193 171
0.061286926 -0.2948398 1.6564034 216 197 175
0.06294333 -0.2948398 1.6564034 213 193 172
0.06459973 -0.2948398 1.6564034 211 190 169
0.066256136 -0.2948398 1.6564034 220 199 176
0.067912534 -0.2948398 1.6564034 214 193 171
0.06956895 -0.2948398 1.6564034 213 191 171
0.07122535 -0.2948398 1.6564034 214 193 172
0.07317563 -0.29602867 1.6630825 220 199 177
0.07453816 -0.2948398 1.6564034 218 197 174
0.076194555 -0.2948398 1.6564034 217 195 173
0.07785096 -0.2948398 1.6564034 218 196 174
0.07924216 -0.29385635 1.6508784 228 204 182
0.081163764 -0.2948398 1.6564034 211 190 169
0.082543924 -0.29385635 1.6508784 201 184 161
0.0841948 -0.29385635 1.6508784 198 178 155
0.085503444 -0.29268485 1.6442969 189 171 148
0.08685916 -0.29171568 1.6388521 169 153 134
0.08814776 -0.29056114 1.632366 156 141 122
0.089426205 -0.28941572 1.6259309 154 138 118
0.09141249 -0.29056114 1.632366 132 115 100
0.09237459 -0.288468 1.6206069 130 110 96
0.0939952 -0.288468 1.6206069 122 105 92
0.09487026 -0.2862188 1.6079706 116 101 86
0.095793545 -0.28418753 1.5965592 112 99 84
0.09670383 -0.28218493 1.5853087 119 104 92
0.09753931 -0.28003222 1.5732148 122 107 97
0.098362155 -0.2779121 1.561304 123 106 94
0.09812805 -0.27291864 1.5332508 128 112 100
0.09862253 -0.270074 1.5172696 130 114 103
0.09904669 -0.26712593 1.5007075 123 108 97
0.099461704 -0.26424155 1.4845031 116 101 92
0.100165084 -0.26219684 1.4730159 108 93 84
0.1012764 -0.26126376 1.4677739 108 93 85
0.10237983 -0.2603373 1.462569 103 86 80
0.10421194 -0.26126376 1.4677739 101 83 79
0.106057145 -0.26219684 1.4730159 103 85 78
0.10753016 -0.26219684 1.4730159 99 82 77
0.10900317 -0.26219684 1.4730159 100 83 77
0.110476196 -0.26219684 1.4730159 99 82 73
0.11155082 -0.26126376 1.4677739 99 84 78
0.113018595 -0.26126376 1.4677739 101 85 77
0.11448637 -0.26126376 1.4677739 103 86 82
0.11595414 -0.26126376 1.4677739 103 87 82
0.11742191 -0.26126376 1.4677739 108 91 86
0.11888969 -0.26126376 1.4677739 112 94 90
0.12078731 -0.26219684 1.4730159 105 90 84
0.12277187 -0.2632939 1.4791791 107 91 86
0.12469827 -0.26424155 1.4845031 97 82 76
0.12663858 -0.26519608 1.4898655 85 70 63
0.12859295 -0.2661575 1.4952669 83 66 61
0.13056156 -0.26712593 1.5007075 82 66 62
0.13303035 -0.2690841 1.5117085 84 67 63
0.135037 -0.270074 1.5172696 83 67 64
0.13655426 -0.270074 1.5172696 82 67 62
0.13849612 -0.27090448 1.5219352 82 68 63
0.14001803 -0.27090448 1.5219352 82 69 63
0.1420642 -0.27190784 1.527572 81 69 63
0.14359176 -0.27190784 1.527572 84 71 66
0.14565884 -0.27291864 1.5332508 85 71 67
0.1477413 -0.27393702 1.5389719 87 74 69
0.15040268 -0.27599669 1.5505431 89 75 71
0.15195322 -0.27599669 1.5505431 88 74 71
0.15408303 -0.2770382 1.5563942 92 78 74
0.1561304 -0.2779121 1.561304 91 77 73
0.1588947 -0.28003222 1.5732148 91 77 72
0.16108234 -0.28110448 1.5792385 91 74 70
0.16381149 -0.2830917 1.5904028 89 73 68
0.1666874 -0.2852919 1.6027634 91 77 72
0.16883692 -0.2862188 1.6079706 109 97 90
0.17178433 -0.288468 1.6206069 194 175 149
0.1739746 -0.28941572 1.6259309 215 195 170
0.17699604 -0.29171568 1.6388521 218 197 175
0.17922837 -0.29268485 1.6442969 207 184 166
0.18159664 -0.29385635 1.6508784 205 185 164
0.18386078 -0.2948398 1.6564034 208 190 167
0.18626525 -0.29602867 1.6630825 208 186 163
0.18792832 -0.29602867 1.6630825 203 180 158
0.1895914 -0.29602867 1.6630825 200 175 154
0.19125448 -0.29602867 1.6630825 186 163 143
0.19291757 -0.29602867 1.6630825 164 142 126
0.19458064 -0.29602867 1.6630825 176 155 135
0.19624373 -0.29602867 1.6630825 198 173 154
0.19790682 -0.29602867 1.6630825 215 191 172
0.20024276 -0.29702675 1.6686896 217 194 172
0.20191143 -0.29702675 1.6686896 219 195 175
0.20358014 -0.29702675 1.6686896 215 194 172
0.20524882 -0.29702675 1.6686896 221 198 177
0.20691751 -0.29702675 1.6686896 213 190 170
0.2085862 -0.29702675 1.6686896 211 187 168
0.21110901 -0.29823336 1.6754683 215 192 170
0.21278448 -0.29823336 1.6754683 208 188 165
0.21445994 -0.29823336 1.6754683 205 183 161
0.21613541 -0.29823336 1.6754683 210 187 164
0.21855074 -0.2992464 1.6811595 209 186 165
0.22023189 -0.2992464 1.6811595 204 180 159
0.22191305 -0.2992464 1.6811595 207 186 164
0.2235942 -0.2992464 1.6811595 209 187 165
0.22527538 -0.2992464 1.6811595 216 195 171
0.22695653 -0.2992464 1.6811595 218 197 174
0.22957344 -0.30047113 1.68804 220 198 177
0.23205294 -0.30149943 1.693817 215 189 169
0.23374675 -0.30149943 1.693817 214 190 167
0.23544057 -0.30149943 1.693817 211 187 165
0.23713438 -0.30149943 1.693817 215 193 172
0.2388282 -0.30149943 1.693817 224 200 179
0.24052201 -0.30149943 1.693817 214 193 170
0.24221584 -0.30149943 1.693817 207 184 164
-0.2377265 -0.29550722 1.6508784 121 120 121
-0.23607562 -0.29550722 1.6508784 106 106 107
-0.23442474 -0.29550722 1.6508784 107 106 110
-0.23277387 -0.29550722 1.6508784 118 117 121
-0.23112299 -0.29550722 1.6508784 117 116 120
-0.2294721 -0.29550722 1.6508784 112 112 116
-0.22782123 -0.29550722 1.6508784 110 108 111
-0.22617035 -0.29550722 1.6508784 111 107 110
-0.22451948 -0.29550722 1.6508784 116 113 114
-0.22286859 -0.29550722 1.6508784 127 122 121
-0.2212177 -0.29550722 1.6508784 132 125 121
-0.21956684 -0.29550722 1.6508784 137 128 122
-0.21791595 -0.29550722 1.6508784 165 154 145
-0.21626508 -0.29550722 1.6508784 174 157 142
-0.2146142 -0.29550722 1.6508784 183 165 148
-0.21296331 -0.29550722 1.6508784 186 165 146
-0.21131244 -0.29550722 1.6508784 192 170 150
-0.20966156 -0.29550722 1.6508784 195 173 152
-0.20801069 -0.29550722 1.6508784 195 173 152
-0.2063598 -0.29550722 1.6508784 196 176 154
-0.20470892 -0.29550722 1.6508784 196 177 155
-0.20305805 -0.29550722 1.6508784 191 173 150
-0.20140716 -0.29550722 1.6508784 198 179 156
-0.19975628 -0.29550722 1.6508784 204 185 161
-0.19810541 -0.29550722 1.6508784 204 184 159
-0.19645452 -0.29550722 1.6508784 199 178 155
-0.19480366 -0.29550722 1.6508784 193 172 150
-0.19315277 -0.29550722 1.6508784 201 177 154
-0.19150189 -0.29550722 1.6508784 195 173 149
-0.18985102 -0.29550722 1.6508784 197 174 149
-0.18820013 -0.29550722 1.6508784 195 173 148
-0.18654926 -0.29550722 1.6508784 199 177 151
-0.18489838 -0.29550722 1.6508784 197 176 152
-0.1832475 -0.29550722 1.6508784 201 177 154
-0.18159664 -0.29550722 1.6508784 200 178 154
-0.17994575 -0.29550722 1.6508784 202 177 156
-0.17829488 -0.29550722 1.6508784 201 177 156
-0.176644 -0.29550722 1.6508784 203 180 158
-0.17429547 -0.29432914 1.6442969 202 180 160
-0.17265117 -0.29432914 1.6442969 199 179 157
-0.17100689 -0.29432914 1.6442969 200 179 158
-0.16936257 -0.29432914 1.6442969 197 178 156
-0.16771828 -0.29432914 1.6442969 205 185 164
-0.166074 -0.29432914 1.6442969 203 181 160
-0.1644297 -0.29432914 1.6442969 202 182 161
-0.16224635 -0.2933545 1.6388521 202 183 161
-0.16060752 -0.2933545 1.6388521 204 184 161
-0.15896866 -0.2933545 1.6388521 204 185 162
-0.15785252 -0.29432914 1.6442969 205 184 162
-0.15569095 -0.2933545 1.6388521 198 179 157
-0.1540521 -0.2933545 1.6388521 196 177 155
-0.15241325 -0.2933545 1.6388521 195 176 155
-0.1507744 -0.2933545 1.6388521 197 178 156
-0.14913554 -0.2933545 1.6388521 206 189 167
-0.14749669 -0.2933545 1.6388521 203 183 163
-0.14528057 -0.2921935 1.632366 193 175 155
-0.1436482 -0.2921935 1.632366 191 173 153
-0.14258014 -0.2933545 1.6388521 181 163 146
-0.14094128 -0.2933545 1.6388521 172 156 139
-0.1387511 -0.2921935 1.632366 161 143 125
-0.13711874 -0.2921935 1.632366 143 126 108
-0.13548638 -0.2921935 1.632366 134 118 99
-0.13288978 -0.29008862 1.6206069 128 112 94
-0.12882262 -0.2846821 1.5904028 113 99 88
-0.12490432 -0.27947342 1.561304 114 100 93
-0.12157878 -0.27547598 1.5389719 91 78 74
-0.11959357 -0.2744519 1.5332508 111 95 91
-0.11718901 -0.2724264 1.5219352 112 95 90
-0.115667075 -0.2724264 1.5219352 87 71 64
-0.11379522 -0.27159125 1.5172696 95 81 74
-0.112277955 -0.27159125 1.5172696 105 92 85
-0.10995172 -0.26960763 1.5061879 100 87 81
-0.10884301 -0.27059582 1.5117085 81 67 59
-0.107331306 -0.27059582 1.5117085 89 75 67
-0.10543315 -0.26960763 1.5061879 103 90 82
-0.103926964 -0.26960763 1.5061879 103 89 81
-0.102048114 -0.26862666 1.5007075 103 89 83
-0.1005474 -0.26862666 1.5007075 87 72 67
-0.09868761 -0.26765278 1.4952669 87 72 68
-0.09684126 -0.26668593 1.4898655 94 80 76
-0.0953514 -0.26668593 1.4898655 94 81 76
-0.093523696 -0.26572606 1.4845031 85 71 66
-0.092371665 -0.26668593 1.4898655 81 67 61
-0.09055469 -0.26572606 1.4845031 88 75 69
-0.08907019 -0.26572606 1.4845031 87 74 68
-0.08790207 -0.26668593 1.4898655 81 68 62
-0.08610118 -0.26572606 1.4845031 82 69 64
-0.084616676 -0.26572606 1.4845031 86 72 67
-0.08283403 -0.26477307 1.4791791 85 69 64
-0.08135485 -0.26477307 1.4791791 82 67 61
-0.07987567 -0.26477307 1.4791791 82 67 61
-0.07839649 -0.26477307 1.4791791 82 68 62
-0.07659683 -0.26366985 1.4730159 80 65 59
-0.07512381 -0.26366985 1.4730159 79 64 57
-0.073388696 -0.26273152 1.4677739 79 65 57
-0.071665876 -0.26179987 1.462569 79 64 56
-0.069955245 -0.26087475 1.4574009 79 63 56
-0.068256654 -0.25995618 1.4522692 82 66 60
-0.066569984 -0.25904408 1.4471736 86 70 64
-0.06489511 -0.2581383 1.4421135 90 75 68
-0.0632319 -0.2572389 1.4370887 95 80 74
-0.061794814 -0.2572389 1.4370887 98 85 76
-0.060357727 -0.2572389 1.4370887 102 89 80
-0.05892064 -0.2572389 1.4370887 102 89 80
-0.05725082 -0.25619742 1.4312705 105 92 83
-0.05581955 -0.25619742 1.4312705 109 91 83
-0.054388277 -0.25619742 1.4312705 110 92 84
-0.05295701 -0.25619742 1.4312705 110 92 84
-0.051347554 -0.25531146 1.4263209 109 91 83
-0.04992123 -0.25531146 1.4263209 110 91 83
-0.048494913 -0.25531146 1.4263209 111 91 84
-0.04706859 -0.25531146 1.4263209 110 90 83
-0.045642268 -0.25531146 1.4263209 111 90 83
-0.044369385 -0.25619742 1.4312705 110 91 85
-0.042938113 -0.25619742 1.4312705 109 89 85
-0.04150684 -0.25619742 1.4312705 107 87 83
-0.040238485 -0.2572389 1.4370887 108 89 84
-0.038801394 -0.2572389 1.4370887 108 89 83
-0.037364308 -0.2572389 1.4370887 108 89 83
-0.03592722 -0.2572389 1.4370887 107 88 82
-0.034490127 -0.2572389 1.4370887 105 86 80
-0.03305304 -0.2572389 1.4370887 104 84 78
-0.03161595 -0.2572389 1.4370887 103 82 76
-0.030178864 -0.2572389 1.4370887 100 80 75
-0.028741775 -0.2572389 1.4370887 98 79 73
-0.027400156 -0.2581383 1.4421135 100 81 76
-0.025958044 -0.2581383 1.4421135 102 83 79
-0.02451593 -0.2581383 1.4421135 102 83 80
-0.023073817 -0.2581383 1.4421135 105 88 84
-0.021631703 -0.2581383 1.4421135 107 89 82
-0.020189589 -0.2581383 1.4421135 103 84 80
-0.018747477 -0.2581383 1.4421135 100 82 80
-0.017305363 -0.2581383 1.4421135 98 79 77
-0.015918909 -0.25904408 1.4471736 100 81 79
-0.014522692 -0.25995618 1.4522692 105 86 85
-0.013070423 -0.25995618 1.4522692 110 90 87
-0.011618153 -0.25995618 1.4522692 114 94 90
-0.010274418 -0.26273152 1.4677739 133 112 106
-0.008907018 -0.26572606 1.4845031 178 153 138
-0.007752715 -0.2775472 1.5505431 208 185 164
-0.0064824275 -0.29008862 1.6206069 216 193 171
-0.004932891 -0.29432914 1.6442969 212 188 167
-0.0032777044 -0.2933545 1.6388521 209 184 164
-0.0016388522 -0.2933545 1.6388521 209 190 167
0.0 -0.29432914 1.6442969 217 194 171
0.0016508785 -0.29550722 1.6508784 212 188 165
0.003301757 -0.29550722 1.6508784 190 164 145
0.004952635 -0.29550722 1.6508784 199 172 152
0.006603514 -0.29550722 1.6508784 208 185 161
0.008254393 -0.29550722 1.6508784 207 185 159
0.00990527 -0.29550722 1.6508784 213 190 163
0.011594824 -0.2964962 1.6564034 219 199 171
0.013251227 -0.2964962 1.6564034 218 195 172
0.014907631 -0.2964962 1.6564034 215 191 170
0.016564034 -0.2964962 1.6564034 221 198 175
0.018220438 -0.2964962 1.6564034 225 202 178
0.019876841 -0.2964962 1.6564034 219 198 175
0.02162007 -0.29769176 1.6630825 220 195 173
0.023283156 -0.29769176 1.6630825 226 201 176
0.024946237 -0.29769176 1.6630825 206 185 162
0.026502455 -0.2964962 1.6564034 211 189 166
0.028158857 -0.2964962 1.6564034 214 190 167
0.029815262 -0.2964962 1.6564034 220 195 171
0.03136669 -0.29550722 1.6508784 205 185 160
0.033017572 -0.29550722 1.6508784 211 187 164
0.034668446 -0.29550722 1.6508784 211 189 165
0.036440875 -0.2964962 1.6564034 213 192 167
0.037970204 -0.29550722 1.6508784 218 197 172
0.039753683 -0.2964962 1.6564034 222 201 175
0.041410085 -0.2964962 1.6564034 207 185 163
0.04306649 -0.2964962 1.6564034 205 183 161
0.044722892 -0.2964962 1.6564034 210 189 166
0.046379294 -0.2964962 1.6564034 213 194 170
0.048035696 -0.2964962 1.6564034 214 195 172
0.049892474 -0.29769176 1.6630825 216 196 173
0.051348507 -0.2964962 1.6564034 216 197 173
0.05300491 -0.2964962 1.6564034 212 193 170
0.05466131 -0.2964962 1.6564034 216 194 173
0.056317713 -0.2964962 1.6564034 207 187 166
0.057974122 -0.2964962 1.6564034 209 188 167
0.059431624 -0.29550722 1.6508784 216 195 173
0.0610825 -0.29550722 1.6508784 216 197 175
0.06273338 -0.29550722 1.6508784 217 196 174
0.06459973 -0.2964962 1.6564034 219 198 175
0.066256136 -0.2964962 1.6564034 218 199 176
0.067686014 -0.29550722 1.6508784 214 194 172
0.06933689 -0.29550722 1.6508784 201 182 161
0.07122535 -0.2964962 1.6564034 201 184 163
0.07288175 -0.2964962 1.6564034 214 195 173
0.07428953 -0.29550722 1.6508784 219 199 177
0.07594041 -0.29550722 1.6508784 214 196 173
0.077591285 -0.29550722 1.6508784 211 193 171
0.07892626 -0.29432914 1.6442969 219 198 177
0.08089305 -0.29550722 1.6508784 220 198 176
0.08221485 -0.29432914 1.6442969 210 189 168
0.08358146 -0.2933545 1.6388521 201 179 160
0.08522031 -0.2933545 1.6388521 195 174 154
0.0865154 -0.2921935 1.632366 174 157 141
0.08780027 -0.2910416 1.6259309 160 146 129
0.089133374 -0.29008862 1.6206069 162 146 125
0.09075398 -0.29008862 1.6206069 138 121 105
0.09237459 -0.29008862 1.6206069 127 109 95
0.0939952 -0.29008862 1.6206069 123 107 94
0.09524158 -0.28895324 1.614264 116 99 86
0.0961658 -0.28689465 1.6027634 115 98 88
0.09701457 -0.2846821 1.5904028 115 99 88
0.09828914 -0.28377026 1.5853087 118 104 92
0.09911253 -0.28160545 1.5732148 117 102 91
0.10030314 -0.28053537 1.5672367 120 104 92
0.10116563 -0.27859458 1.5563942 123 106 94
0.10157214 -0.27547598 1.5389719 123 106 93
0.10196966 -0.2724264 1.5219352 122 105 95
0.10242078 -0.26960763 1.5061879 116 99 90
0.10317342 -0.26765278 1.4952669 114 97 87
0.103542544 -0.26477307 1.4791791 107 91 83
0.10458413 -0.26366985 1.4730159 105 89 83
0.10530497 -0.26179987 1.462569 102 87 82
0.10676754 -0.26179987 1.462569 102 87 82
0.1082301 -0.26179987 1.462569 102 85 80
0.10969267 -0.26179987 1.462569 105 88 81
0.11115524 -0.26179987 1.462569 107 88 82
0.11261781 -0.26179987 1.462569 107 88 83
0.114080384 -0.26179987 1.462569 108 91 84
0.115542956 -0.26179987 1.462569 111 94 88
0.11833434 -0.26477307 1.4791791 111 94 88
0.11981351 -0.26477307 1.4791791 103 87 81
0.121729255 -0.26572606 1.4845031 98 82 75
0.123658836 -0.26668593 1.4898655 95 80 73
0.12560242 -0.26765278 1.4952669 87 72 65
0.12756014 -0.26862666 1.5007075 84 68 63
0.12953216 -0.26960763 1.5061879 83 66 63
0.13151865 -0.27059582 1.5117085 82 66 63
0.1339303 -0.2724264 1.5219352 84 67 64
0.13595392 -0.27343538 1.527572 83 68 65
0.13748148 -0.27343538 1.527572 82 68 64
0.13952582 -0.2744519 1.5332508 81 68 64
0.14158542 -0.27547598 1.5389719 81 69 65
0.14312439 -0.27547598 1.5389719 82 70 64
0.14520517 -0.27650774 1.5447358 84 71 66
0.1467499 -0.27650774 1.5447358 83 71 66
0.14885214 -0.2775472 1.5505431 83 71 67
0.15097025 -0.27859458 1.5563942 82 69 67
0.15300778 -0.27947342 1.561304 82 70 67
0.15456909 -0.27947342 1.561304 83 70 68
0.15672366 -0.28053537 1.5672367 82 69 67
0.1588947 -0.28160545 1.5732148 83 69 67
0.16170147 -0.28377026 1.5853087 85 69 67
0.1644456 -0.2857841 1.5965592 88 71 67
0.1666874 -0.28689465 1.6027634 95 78 72
0.16949773 -0.28895324 1.614264 127 108 99
0.17178433 -0.29008862 1.6206069 201 180 162
0.17466316 -0.2921935 1.632366 207 190 166
0.17699604 -0.2933545 1.6388521 216 194 172
0.17922837 -0.29432914 1.6442969 208 186 165
0.18159664 -0.29550722 1.6508784 205 183 162
0.18386078 -0.2964962 1.6564034 208 185 164
0.18551718 -0.2964962 1.6564034 212 188 167
0.18717359 -0.2964962 1.6564034 218 197 174
0.18882999 -0.2964962 1.6564034 206 184 163
0.19048639 -0.2964962 1.6564034 212 187 164
0.19214278 -0.2964962 1.6564034 203 177 156
0.1937992 -0.2964962 1.6564034 210 181 161
0.19624373 -0.29769176 1.6630825 210 184 163
0.19790682 -0.29769176 1.6630825 191 169 151
0.1995699 -0.29769176 1.6630825 220 194 174
0.20123298 -0.29769176 1.6630825 215 191 171
0.20289606 -0.29769176 1.6630825 213 190 169
0.20455915 -0.29769176 1.6630825 217 193 172
0.20622224 -0.29769176 1.6630825 223 199 177
0.2085862 -0.29869545 1.6686896 219 195 174
0.2102549 -0.29869545 1.6686896 211 188 167
0.21192358 -0.29869545 1.6686896 212 189 169
0.21445994 -0.29990885 1.6754683 203 182 162
0.21613541 -0.29990885 1.6754683 217 193 172
0.21781088 -0.29990885 1.6754683 217 190 170
0.21948634 -0.29990885 1.6754683 216 191 171
0.22116181 -0.29990885 1.6754683 216 195 173
0.22283728 -0.29990885 1.6754683 208 188 168
0.22451276 -0.29990885 1.6754683 217 196 175
0.22618821 -0.29990885 1.6754683 224 203 180
0.2278637 -0.29990885 1.6754683 217 196 173
0.23031884 -0.30092755 1.6811595 215 191 170
0.23294953 -0.30215916 1.68804 209 186 165
0.23463756 -0.30215916 1.68804 210 187 165
0.23713438 -0.30319324 1.693817 208 185 166
0.2388282 -0.30319324 1.693817 218 197 174
0.24052201 -0.30319324 1.693817 223 198 176
0.24221584 -0.30319324 1.693817 216 194 170
-0.23677875 -0.29597345 1.6442969 162 154 135
-0.23513447 -0.29597345 1.6442969 154 147 130
-0.23349015 -0.29597345 1.6442969 145 139 124
-0.23184586 -0.29597345 1.6442969 142 134 120
-0.23020157 -0.29597345 1.6442969 138 132 118
-0.22855726 -0.29597345 1.6442969 140 132 119
-0.22691296 -0.29597345 1.6442969 151 142 127
-0.22526868 -0.29597345 1.6442969 151 140 125
-0.22362438 -0.29597345 1.6442969 157 145 129
-0.22198007 -0.29597345 1.6442969 170 158 140
-0.22033578 -0.29597345 1.6442969 174 159 143
-0.21869148 -0.29597345 1.6442969 177 161 145
-0.2170472 -0.29597345 1.6442969 174 160 143
-0.21540289 -0.29597345 1.6442969 182 162 140
-0.21375859 -0.29597345 1.6442969 187 167 144
-0.2121143 -0.29597345 1.6442969 187 164 143
-0.21047 -0.29597345 1.6442969 184 162 142
-0.20882569 -0.29597345 1.6442969 191 170 148
-0.20718141 -0.29597345 1.6442969 193 172 149
-0.20553711 -0.29597345 1.6442969 200 179 155
-0.20389281 -0.29597345 1.6442969 204 182 158
-0.20224851 -0.29597345 1.6442969 203 181 158
-0.20060422 -0.29597345 1.6442969 202 182 158
-0.19895993 -0.29597345 1.6442969 203 183 160
-0.19731563 -0.29597345 1.6442969 203 182 158
-0.19567132 -0.29597345 1.6442969 202 180 158
-0.19402704 -0.29597345 1.6442969 198 176 155
-0.19238274 -0.29597345 1.6442969 203 179 155
-0.19073844 -0.29597345 1.6442969 196 175 150
-0.18909414 -0.29597345 1.6442969 198 173 147
-0.18744984 -0.29597345 1.6442969 192 171 145
-0.18580554 -0.29597345 1.6442969 191 169 144
-0.18416126 -0.29597345 1.6442969 189 169 145
-0.18251695 -0.29597345 1.6442969 192 170 147
-0.18087265 -0.29597345 1.6442969 198 176 153
-0.17922837 -0.29597345 1.6442969 199 178 155
-0.17758407 -0.29597345 1.6442969 198 177 154
-0.17593977 -0.29597345 1.6442969 202 179 157
-0.17429547 -0.29597345 1.6442969 201 180 159
-0.17265117 -0.29597345 1.6442969 200 180 158
-0.17100689 -0.29597345 1.6442969 203 183 162
-0.16936257 -0.29597345 1.6442969 200 179 157
-0.16771828 -0.29597345 1.6442969 205 182 161
-0.166074 -0.29597345 1.6442969 202 183 161
-0.1638852 -0.29499337 1.6388521 202 182 160
-0.16224635 -0.29499337 1.6388521 204 184 161
-0.16060752 -0.29499337 1.6388521 202 182 160
-0.15896866 -0.29499337 1.6388521 202 182 160
-0.1573298 -0.29499337 1.6388521 205 184 162
-0.15569095 -0.29499337 1.6388521 202 182 160
-0.1534424 -0.29382586 1.632366 198 179 157
-0.15181004 -0.29382586 1.632366 199 180 158
-0.15017767 -0.29382586 1.632366 199 179 157
-0.14854531 -0.29382586 1.632366 204 185 164
-0.14691293 -0.29382586 1.632366 203 184 163
-0.14528057 -0.29382586 1.632366 193 174 155
-0.1436482 -0.29382586 1.632366 192 173 153
-0.14201584 -0.29382586 1.632366 182 163 146
-0.14038347 -0.29382586 1.632366 171 153 139
-0.1387511 -0.29382586 1.632366 160 142 125
-0.13711874 -0.29382586 1.632366 144 130 110
-0.13495228 -0.29266757 1.6259309 134 117 99
-0.13288978 -0.2917092 1.6206069 125 107 91
-0.12841 -0.28535557 1.5853087 104 91 78
-0.12490432 -0.28103474 1.561304 113 99 90
-0.122034125 -0.27805242 1.5447358 88 73 69
-0.11959357 -0.27598515 1.5332508 109 93 88
-0.11718901 -0.27394834 1.5219352 103 88 81
-0.115667075 -0.27394834 1.5219352 99 85 78
-0.11379522 -0.2731085 1.5172696 82 69 61
-0.112277955 -0.2731085 1.5172696 99 87 79
-0.10995172 -0.27111384 1.5061879 104 91 84
-0.10924341 -0.2731085 1.5172696 83 69 62
-0.107331306 -0.27210754 1.5117085 79 66 59
-0.1058196 -0.27210754 1.5117085 83 70 62
-0.103926964 -0.27111384 1.5061879 92 78 70
-0.10242078 -0.27111384 1.5061879 91 77 71
-0.10091459 -0.27111384 1.5061879 84 70 65
-0.09904669 -0.27012736 1.5007075 80 65 60
-0.097192355 -0.26914805 1.4952669 82 69 64
-0.0953514 -0.2681758 1.4898655 82 68 63
-0.09386153 -0.2681758 1.4898655 81 67 62
-0.092371665 -0.2681758 1.4898655 80 66 60
-0.09055469 -0.26721057 1.4845031 81 67 62
-0.08939193 -0.2681758 1.4898655 82 69 65
-0.08758569 -0.26721057 1.4845031 82 68 63
-0.08579239 -0.26625225 1.4791791 81 67 62
-0.084616676 -0.26721057 1.4845031 81 67 62
-0.08313218 -0.26721057 1.4845031 83 66 62
-0.08164767 -0.26721057 1.4845031 81 65 60
-0.07987567 -0.26625225 1.4791791 82 67 63
-0.07839649 -0.26625225 1.4791791 81 67 61
-0.07691731 -0.26625225 1.4791791 81 67 62
-0.07512381 -0.26514286 1.4730159 81 66 63
-0.073388696 -0.26419932 1.4677739 80 66 62
-0.071920924 -0.26419932 1.4677739 79 63 59
-0.07020331 -0.26326242 1.462569 78 63 59
-0.068497844 -0.26233214 1.4574009 78 63 58
-0.06680438 -0.26140845 1.4522692 80 65 59
-0.06512281 -0.26049125 1.4471736 81 66 63
-0.063675635 -0.26049125 1.4471736 83 68 66
-0.06201088 -0.25958043 1.4421135 84 70 64
-0.06056877 -0.25958043 1.4421135 88 74 66
-0.059126657 -0.25958043 1.4421135 93 78 70
-0.05748355 -0.25867596 1.4370887 92 77 69
-0.05581955 -0.25762868 1.4312705 93 74 67
-0.054388277 -0.25762868 1.4312705 101 83 76
-0.05277387 -0.25673777 1.4263209 105 88 81
-0.051347554 -0.25673777 1.4263209 107 90 82
-0.04992123 -0.25673777 1.4263209 110 91 85
-0.048494913 -0.25673777 1.4263209 111 91 85
-0.04706859 -0.25673777 1.4263209 111 91 85
-0.045800656 -0.25762868 1.4312705 111 91 85
-0.04421595 -0.25673777 1.4263209 111 92 86
-0.042938113 -0.25762868 1.4312705 110 91 85
-0.04150684 -0.25762868 1.4312705 108 89 84
-0.040238485 -0.25867596 1.4370887 107 88 83
-0.038801394 -0.25867596 1.4370887 107 88 83
-0.037364308 -0.25867596 1.4370887 108 88 82
-0.03592722 -0.25867596 1.4370887 107 88 82
-0.034490127 -0.25867596 1.4370887 106 88 81
-0.03305304 -0.25867596 1.4370887 106 86 80
-0.03161595 -0.25867596 1.4370887 104 83 76
-0.030178864 -0.25867596 1.4370887 102 81 75
-0.028741775 -0.25867596 1.4370887 101 80 75
-0.027304685 -0.25867596 1.4370887 100 80 75
-0.025958044 -0.25958043 1.4421135 103 83 78
-0.02451593 -0.25958043 1.4421135 105 86 80
-0.023073817 -0.25958043 1.4421135 107 88 82
-0.02155633 -0.25867596 1.4370887 109 88 81
-0.020119242 -0.25867596 1.4370887 104 85 78
-0.018682154 -0.25867596 1.4370887 102 81 75
-0.01742723 -0.26140845 1.4522692 101 81 76
-0.015918909 -0.26049125 1.4471736 101 81 77
-0.014312705 -0.25762868 1.4312705 104 84 79
-0.012836888 -0.25673777 1.4263209 110 92 87
-0.011536908 -0.25958043 1.4421135 120 102 94
-0.010311112 -0.26514286 1.4730159 144 123 113
-0.009233831 -0.27701494 1.5389719 195 171 153
-0.008013817 -0.28849742 1.6027634 209 186 165
-0.0064824275 -0.2917092 1.6206069 208 185 164
-0.0048970976 -0.29382586 1.632366 201 181 159
-0.003264732 -0.29382586 1.632366 206 182 162
-0.001632366 -0.29382586 1.632366 202 182 162
0.0 -0.29499337 1.6388521 215 192 171
0.0016442969 -0.29597345 1.6442969 214 191 170
0.0032885938 -0.29597345 1.6442969 214 188 167
0.004932891 -0.29597345 1.6442969 215 189 167
0.0065771877 -0.29597345 1.6442969 213 190 166
0.008221484 -0.29597345 1.6442969 213 192 166
0.009865782 -0.29597345 1.6442969 216 194 167
0.0115561485 -0.29715812 1.6508784 219 195 172
0.013207028 -0.29715812 1.6508784 218 194 174
0.014857906 -0.29715812 1.6508784 219 195 173
0.016508786 -0.29715812 1.6508784 221 197 175
0.018159661 -0.29715812 1.6508784 225 200 179
0.01981054 -0.29715812 1.6508784 215 191 171
0.021533245 -0.29815263 1.6564034 219 195 174
