ply
format ascii 1.0
element vertex 1086
property float32 x
property float32 y
property float32 z
property uchar red
property uchar green
property uchar blue
element face 0
property list uint8 int32 vertex_indices
end_header
0.10233585 -0.2232782 1.5505431 99 91 85
0.10500486 -0.22568208 1.5672367 66 53 47
0.10616867 -0.22482778 1.561304 61 42 35
0.10658677 -0.22244196 1.5447358 135 96 82
0.108131506 -0.22244196 1.5447358 147 96 77
0.10967624 -0.22244196 1.5447358 154 99 82
0.11039406 -0.22078812 1.5332508 160 106 87
0.11151276 -0.21997036 1.527572 176 118 95
0.11262321 -0.21915868 1.5219352 189 129 103
0.11379522 -0.21848682 1.5172696 202 133 110
0.115312494 -0.21848682 1.5172696 207 138 113
0.11682976 -0.21848682 1.5172696 209 141 115
0.118347034 -0.21848682 1.5172696 210 142 116
0.11942497 -0.21768603 1.5117085 212 145 118
0.121381566 -0.21848682 1.5172696 217 146 120
0.123276755 -0.21915868 1.5219352 219 148 122
0.124416105 -0.21848682 1.5172696 221 149 122
0.12632063 -0.21915868 1.5219352 222 149 122
0.12745064 -0.21848682 1.5172696 222 150 123
0.12896791 -0.21848682 1.5172696 222 150 123
0.13088644 -0.21915868 1.5219352 220 150 122
0.13240837 -0.21915868 1.5219352 221 149 123
0.13442634 -0.21997036 1.527572 219 149 122
0.13595392 -0.21997036 1.527572 219 148 122
0.13748148 -0.21997036 1.527572 217 148 121
0.13900904 -0.21997036 1.527572 216 147 120
0.14053662 -0.21997036 1.527572 214 146 120
0.1420642 -0.21997036 1.527572 211 144 120
0.14412558 -0.22078812 1.5332508 214 146 121
0.14565884 -0.22078812 1.5332508 207 144 118
0.14829463 -0.22244196 1.5447358 199 139 114
0.14983937 -0.22244196 1.5447358 165 114 98
0.15417504 -0.22654292 1.5732148 96 69 59
0.15805936 -0.22990453 1.5965592 95 78 69
0.16564034 -0.2385221 1.6564034 134 117 104
0.17638768 -0.2514834 1.7464126 187 165 148
0.18492015 -0.26106375 1.8129426 211 187 170
0.18965079 -0.26514286 1.8412699 213 189 168
0.19365337 -0.26813543 1.8620517 207 184 163
0.19405529 -0.26613292 1.8481455 204 183 162
0.19663768 -0.26713043 1.8550725 201 179 159
0.19849275 -0.26713043 1.8550725 210 185 164
0.20034783 -0.26713043 1.8550725 214 189 167
0.2022029 -0.26713043 1.8550725 214 191 169
0.20405796 -0.26713043 1.8550725 214 188 168
0.20591304 -0.26713043 1.8550725 215 191 170
0.20854978 -0.26813543 1.8620517 217 192 172
0.21041185 -0.26813543 1.8620517 215 192 171
0.2122739 -0.26813543 1.8620517 217 193 173
0.21413596 -0.26813543 1.8620517 215 191 171
0.215998 -0.26813543 1.8620517 217 193 173
0.21704349 -0.26713043 1.8550725 208 186 167
0.21889856 -0.26713043 1.8550725 211 189 170
0.22075363 -0.26713043 1.8550725 209 185 166
0.2226087 -0.26713043 1.8550725 213 189 170
0.22530825 -0.26813543 1.8620517 212 185 166
0.2271703 -0.26813543 1.8620517 214 188 167
0.22903237 -0.26813543 1.8620517 214 188 166
0.23089442 -0.26813543 1.8620517 210 185 162
0.23275647 -0.26813543 1.8620517 210 184 162
0.23461851 -0.26813543 1.8620517 211 186 164
0.23648058 -0.26813543 1.8620517 210 184 164
0.23834263 -0.26813543 1.8620517 210 187 168
0.24020466 -0.26813543 1.8620517 210 186 168
0.24206673 -0.26813543 1.8620517 214 189 172
0.24392878 -0.26813543 1.8620517 215 192 174
0.24579084 -0.26813543 1.8620517 220 195 178
0.24765287 -0.26813543 1.8620517 213 190 174
0.24951494 -0.26813543 1.8620517 211 189 174
0.251377 -0.26813543 1.8620517 214 189 174
0.25323904 -0.26813543 1.8620517 212 191 173
0.25510108 -0.26813543 1.8620517 216 193 174
0.25696313 -0.26813543 1.8620517 222 198 180
0.25882518 -0.26813543 1.8620517 211 188 171
0.26068726 -0.26813543 1.8620517 210 189 172
0.26254928 -0.26813543 1.8620517 213 190 173
0.26441136 -0.26813543 1.8620517 211 189 172
0.2662734 -0.26813543 1.8620517 215 190 174
-0.26713043 -0.2689855 1.8550725 131 106 78
-0.26527536 -0.2689855 1.8550725 119 97 69
-0.26342028 -0.2689855 1.8550725 129 103 76
-0.2615652 -0.2689855 1.8550725 125 101 73
-0.25971013 -0.2689855 1.8550725 126 102 73
-0.25785506 -0.2689855 1.8550725 126 102 73
-0.256 -0.2689855 1.8550725 126 101 73
-0.25414494 -0.2689855 1.8550725 120 96 69
-0.25228986 -0.2689855 1.8550725 118 95 68
-0.24949963 -0.2679811 1.8481455 123 98 72
-0.24765149 -0.2679811 1.8481455 118 95 70
-0.24580334 -0.2679811 1.8481455 120 95 71
-0.2439552 -0.2679811 1.8481455 117 94 69
-0.2430145 -0.2689855 1.8550725 117 94 69
-0.24115942 -0.2689855 1.8550725 118 94 69
-0.23930435 -0.2689855 1.8550725 120 95 70
-0.23744927 -0.2689855 1.8550725 121 96 71
-0.23559421 -0.2689855 1.8550725 119 95 69
-0.23373914 -0.2689855 1.8550725 122 96 70
-0.23188406 -0.2689855 1.8550725 121 97 70
-0.23002899 -0.2689855 1.8550725 119 95 68
-0.2273219 -0.2679811 1.8481455 116 92 65
-0.22547376 -0.2679811 1.8481455 117 94 68
-0.22362562 -0.2679811 1.8481455 117 97 72
-0.22177747 -0.2679811 1.8481455 123 107 83
-0.21992931 -0.2679811 1.8481455 156 137 112
-0.21808116 -0.2679811 1.8481455 158 143 117
-0.21542858 -0.26698413 1.8412699 158 143 119
-0.21279566 -0.26599458 1.8344454 164 142 123
-0.21096121 -0.26599458 1.8344454 160 142 121
-0.20912677 -0.26599458 1.8344454 163 143 122
-0.20729233 -0.26599458 1.8344454 162 142 121
-0.20545788 -0.26599458 1.8344454 158 137 115
-0.20362343 -0.26599458 1.8344454 154 134 112
-0.20178899 -0.26599458 1.8344454 152 132 110
-0.19995454 -0.26599458 1.8344454 153 133 112
-0.1981201 -0.26599458 1.8344454 151 131 110
-0.19628567 -0.26599458 1.8344454 150 130 109
-0.1944512 -0.26599458 1.8344454 146 126 107
-0.19333333 -0.26698413 1.8412699 151 129 110
-0.19078232 -0.26599458 1.8344454 148 129 110
-0.18965079 -0.26698413 1.8412699 151 132 115
-0.18780953 -0.26698413 1.8412699 151 131 115
-0.18596826 -0.26698413 1.8412699 149 131 114
-0.18412699 -0.26698413 1.8412699 149 131 114
-0.18228573 -0.26698413 1.8412699 142 125 106
-0.18044445 -0.26698413 1.8412699 143 125 106
-0.17860319 -0.26698413 1.8412699 142 124 105
-0.1767619 -0.26698413 1.8412699 143 125 107
-0.17427231 -0.26599458 1.8344454 144 125 107
-0.17243786 -0.26599458 1.8344454 146 126 108
-0.1712381 -0.26698413 1.8412699 140 122 104
-0.16939682 -0.26698413 1.8412699 143 124 106
-0.16693452 -0.26599458 1.8344454 147 128 108
-0.16510008 -0.26599458 1.8344454 144 127 107
-0.16326565 -0.26599458 1.8344454 144 126 106
-0.1614312 -0.26599458 1.8344454 135 117 100
-0.15959674 -0.26599458 1.8344454 133 116 99
-0.1577623 -0.26599458 1.8344454 139 121 102
-0.15592785 -0.26599458 1.8344454 142 122 104
-0.15409341 -0.26599458 1.8344454 132 115 99
-0.15225898 -0.26599458 1.8344454 134 115 98
-0.1486613 -0.2628767 1.8129426 135 116 97
-0.14410353 -0.2579631 1.779056 132 115 100
-0.13971302 -0.25322983 1.7464126 97 86 81
-0.13436334 -0.24661627 1.7008018 89 77 73
-0.13211772 -0.24560347 1.693817 82 72 70
-0.1304239 -0.24560347 1.693817 82 70 70
-0.12873009 -0.24560347 1.693817 80 69 68
-0.12608697 -0.24376813 1.6811595 79 67 65
-0.1244058 -0.24376813 1.6811595 74 64 62
-0.12181434 -0.24195999 1.6686896 71 63 60
-0.120145656 -0.24195999 1.6686896 72 64 61
-0.11847696 -0.24195999 1.6686896 71 62 58
-0.11680827 -0.24195999 1.6686896 72 63 59
-0.11429184 -0.2401785 1.6564034 70 63 61
-0.112635426 -0.2401785 1.6564034 69 61 59
-0.11060885 -0.23937736 1.6508784 68 61 58
-0.1085236 -0.23842305 1.6442969 70 62 60
-0.106879294 -0.23842305 1.6442969 66 59 56
-0.105235 -0.23842305 1.6442969 68 59 57
-0.103590705 -0.23842305 1.6442969 68 60 61
-0.101946406 -0.23842305 1.6442969 68 61 60
-0.10030211 -0.23842305 1.6442969 64 56 56
-0.09833113 -0.23763356 1.6388521 63 55 55
-0.09669228 -0.23763356 1.6388521 64 57 55
-0.09326229 -0.23315573 1.6079706 84 80 76
-0.088994324 -0.22638907 1.561304 142 142 129
-0.08715808 -0.22567715 1.5563942 151 154 139
-0.08527987 -0.22482875 1.5505431 151 151 137
-0.08372933 -0.22482875 1.5505431 147 147 132
-0.081870995 -0.2239867 1.5447358 145 144 129
-0.08002654 -0.22315092 1.5389719 140 142 127
-0.07848757 -0.22315092 1.5389719 135 131 116
-0.07694859 -0.22315092 1.5389719 132 118 102
-0.075129285 -0.22232136 1.5332508 124 100 84
-0.07359604 -0.22232136 1.5332508 124 91 73
-0.07206279 -0.22232136 1.5332508 132 91 70
-0.07026831 -0.22149794 1.527572 142 96 71
-0.06874074 -0.22149794 1.527572 150 102 73
-0.06696515 -0.22068061 1.5219352 157 105 76
-0.06524259 -0.2200041 1.5172696 163 107 79
-0.06372532 -0.2200041 1.5172696 166 108 81
-0.06198005 -0.21919774 1.5117085 167 110 81
-0.06046834 -0.21919774 1.5117085 171 113 83
-0.05895663 -0.21919774 1.5117085 176 117 87
-0.057444923 -0.21919774 1.5117085 182 121 92
-0.055728953 -0.21839724 1.5061879 186 123 95
-0.054421507 -0.21919774 1.5117085 189 127 98
-0.052716576 -0.21839724 1.5061879 189 128 95
-0.05139809 -0.21919774 1.5117085 192 130 97
-0.0497042 -0.21839724 1.5061879 192 130 96
-0.048198014 -0.21839724 1.5061879 194 131 97
-0.046691827 -0.21839724 1.5061879 197 132 100
-0.045021225 -0.21760258 1.5007075 198 133 101
-0.04367945 -0.21839724 1.5061879 199 135 103
-0.042173263 -0.21839724 1.5061879 203 137 105
-0.040667072 -0.21839724 1.5061879 206 139 107
-0.039160885 -0.21839724 1.5061879 207 140 109
-0.037654698 -0.21839724 1.5061879 210 142 110
-0.03614851 -0.21839724 1.5061879 212 143 112
-0.034642324 -0.21839724 1.5061879 211 142 112
-0.03325759 -0.21919774 1.5117085 211 141 110
-0.031745877 -0.21919774 1.5117085 210 140 110
-0.030123759 -0.21839724 1.5061879 208 139 109
-0.02861757 -0.21839724 1.5061879 206 139 110
-0.027210753 -0.21919774 1.5117085 205 135 110
-0.025699046 -0.21919774 1.5117085 201 134 111
-0.024350964 -0.22068061 1.5219352 186 128 108
-0.023948386 -0.23150109 1.5965592 94 71 59
-0.023992613 -0.24849492 1.7137581 82 65 55
-0.02304489 -0.25703916 1.7726839 82 65 54
-0.021518841 -0.26001933 1.7932367 85 67 55
-0.019797333 -0.26096484 1.7997576 89 70 57
-0.017997576 -0.26096484 1.7997576 104 87 75
-0.016316485 -0.2628767 1.8129426 109 93 81
-0.014503541 -0.2628767 1.8129426 109 93 81
-0.012690598 -0.2628767 1.8129426 106 90 80
-0.010877656 -0.2628767 1.8129426 103 87 76
-0.0090647135 -0.2628767 1.8129426 101 85 75
-0.0072837872 -0.26403728 1.8209468 88 72 63
-0.0054628407 -0.26403728 1.8209468 85 69 57
-0.0036258854 -0.2628767 1.8129426 82 66 54
-0.0018209468 -0.26403728 1.8209468 78 63 51
0.0 -0.2628767 1.8129426 79 64 52
0.0018129427 -0.2628767 1.8129426 81 65 55
0.0036258854 -0.2628767 1.8129426 77 61 51
0.005438828 -0.2628767 1.8129426 77 61 53
0.0072517707 -0.2628767 1.8129426 76 60 54
0.0090647135 -0.2628767 1.8129426 76 60 53
0.010877656 -0.2628767 1.8129426 74 58 50
0.012690598 -0.2628767 1.8129426 74 59 51
0.014450609 -0.2619173 1.8063262 76 61 52
0.016316485 -0.2628767 1.8129426 77 64 53
0.018129427 -0.2628767 1.8129426 79 65 55
0.019869586 -0.2619173 1.8063262 80 66 55
0.021755312 -0.2628767 1.8129426 81 66 56
0.023568254 -0.2628767 1.8129426 81 67 56
0.025381196 -0.2628767 1.8129426 80 67 56
0.027094893 -0.2619173 1.8063262 79 66 54
0.028901218 -0.2619173 1.8063262 80 67 58
0.030707544 -0.2619173 1.8063262 80 67 58
0.03251387 -0.2619173 1.8063262 77 64 56
0.034320198 -0.2619173 1.8063262 76 63 56
0.03612652 -0.2619173 1.8063262 75 62 55
0.03793285 -0.2619173 1.8063262 73 61 52
0.03988474 -0.2628767 1.8129426 73 61 52
0.041545503 -0.2619173 1.8063262 73 62 54
0.04335183 -0.2619173 1.8063262 71 60 52
0.045158155 -0.2619173 1.8063262 71 60 53
0.04696448 -0.2619173 1.8063262 69 58 53
0.048770804 -0.2619173 1.8063262 67 56 51
0.050577134 -0.2619173 1.8063262 65 54 50
0.052383456 -0.2619173 1.8063262 63 52 49
0.054189786 -0.2619173 1.8063262 59 49 47
0.05599611 -0.2619173 1.8063262 59 49 49
0.057802435 -0.2619173 1.8063262 50 40 40
0.059392 -0.26096484 1.7997576 44 33 36
0.061415087 -0.2619173 1.8063262 45 34 38
0.06322142 -0.2619173 1.8063262 42 32 35
0.06479128 -0.26096484 1.7997576 39 32 35
0.06659103 -0.26096484 1.7997576 42 35 38
0.06839079 -0.26096484 1.7997576 46 39 42
0.06993623 -0.26001933 1.7932367 47 40 43
0.0719903 -0.26096484 1.7997576 44 36 40
0.07379006 -0.26096484 1.7997576 43 36 39
0.07531594 -0.26001933 1.7932367 44 37 40
0.07710917 -0.26001933 1.7932367 44 38 41
0.07890242 -0.26001933 1.7932367 44 39 42
0.08069566 -0.26001933 1.7932367 47 41 42
0.082131796 -0.2588937 1.7854738 46 40 42
0.08428213 -0.26001933 1.7932367 47 40 41
0.08570275 -0.2588937 1.7854738 47 40 41
0.08748822 -0.2588937 1.7854738 48 40 42
0.08927369 -0.2588937 1.7854738 46 41 42
0.09105916 -0.2588937 1.7854738 46 40 42
0.092844635 -0.2588937 1.7854738 47 41 43
0.094630115 -0.2588937 1.7854738 47 41 42
0.09641559 -0.2588937 1.7854738 46 41 42
0.09820106 -0.2588937 1.7854738 48 41 43
0.09998653 -0.2588937 1.7854738 49 43 44
0.10177201 -0.2588937 1.7854738 49 42 44
0.10355748 -0.2588937 1.7854738 49 41 43
0.105342954 -0.2588937 1.7854738 49 42 44
0.107128434 -0.2588937 1.7854738 49 42 43
0.108913906 -0.2588937 1.7854738 49 43 44
0.11069938 -0.2588937 1.7854738 50 43 44
0.111280516 -0.2561218 1.7663574 51 44 45
0.112166196 -0.25412655 1.7525969 55 47 45
0.106879294 -0.23842305 1.6442969 77 71 64
0.103437625 -0.22724931 1.5672367 110 106 98
0.104607366 -0.22638907 1.561304 71 62 54
0.10543693 -0.22482875 1.5505431 63 47 43
0.106189065 -0.22315092 1.5389719 111 86 73
0.10693005 -0.22149794 1.527572 146 98 77
0.108860806 -0.22232136 1.5332508 157 101 84
0.10998518 -0.22149794 1.527572 170 114 93
0.11110127 -0.22068061 1.5219352 188 126 102
0.112277955 -0.2200041 1.5172696 201 133 110
0.11379522 -0.2200041 1.5172696 206 137 112
0.115312494 -0.2200041 1.5172696 211 141 118
0.11640156 -0.21919774 1.5117085 211 142 118
0.11791326 -0.21919774 1.5117085 211 142 119
0.11942497 -0.21919774 1.5117085 215 145 120
0.12093668 -0.21919774 1.5117085 217 147 120
0.12289884 -0.2200041 1.5172696 219 148 121
0.124416105 -0.2200041 1.5172696 221 149 121
0.12593338 -0.2200041 1.5172696 222 150 121
0.12698351 -0.21919774 1.5117085 223 150 122
0.12849523 -0.21919774 1.5117085 222 152 123
0.13000692 -0.21919774 1.5117085 222 150 124
0.13200246 -0.2200041 1.5172696 222 150 123
0.13351972 -0.2200041 1.5172696 221 149 123
0.13545224 -0.22068061 1.5219352 221 149 122
0.13697417 -0.22068061 1.5219352 219 148 123
0.13849612 -0.22068061 1.5219352 217 147 122
0.14001803 -0.22068061 1.5219352 217 147 121
0.14153998 -0.22068061 1.5219352 217 147 120
0.14359176 -0.22149794 1.527572 216 146 121
0.14511934 -0.22149794 1.527572 213 146 120
0.14719208 -0.22232136 1.5332508 211 145 119
0.14762771 -0.22068061 1.5219352 204 141 119
0.15138412 -0.2239867 1.5447358 166 119 94
0.16044007 -0.234988 1.6206069 167 137 119
0.17197128 -0.24935837 1.7197129 189 169 150
0.18111691 -0.26001933 1.7932367 213 189 170
0.18642245 -0.26501232 1.8276712 214 190 167
0.19035898 -0.2679811 1.8481455 218 193 169
0.19292754 -0.2689855 1.8550725 216 192 170
0.19405529 -0.2679811 1.8481455 211 191 167
0.19590342 -0.2679811 1.8481455 204 179 157
0.19849275 -0.2689855 1.8550725 209 186 163
0.20034783 -0.2689855 1.8550725 209 187 163
0.20144786 -0.2679811 1.8481455 209 186 161
0.203296 -0.2679811 1.8481455 216 189 170
0.20514415 -0.2679811 1.8481455 215 191 171
0.20776813 -0.2689855 1.8550725 216 190 170
0.2096232 -0.2689855 1.8550725 208 188 167
0.21147828 -0.2689855 1.8550725 212 189 169
0.21333334 -0.2689855 1.8550725 216 192 172
0.21518841 -0.2689855 1.8550725 217 193 173
0.21623302 -0.2679811 1.8481455 211 188 169
0.21808116 -0.2679811 1.8481455 218 194 174
0.21992931 -0.2679811 1.8481455 212 186 168
0.22177747 -0.2679811 1.8481455 213 188 168
0.22446378 -0.2689855 1.8550725 214 188 168
0.22631885 -0.2689855 1.8550725 213 187 168
0.22817393 -0.2689855 1.8550725 213 189 168
0.23002899 -0.2689855 1.8550725 205 183 161
0.23188406 -0.2689855 1.8550725 204 179 157
0.23373914 -0.2689855 1.8550725 208 180 160
0.23559421 -0.2689855 1.8550725 209 183 163
0.23744927 -0.2689855 1.8550725 210 184 165
0.23930435 -0.2689855 1.8550725 212 185 165
0.24115942 -0.2689855 1.8550725 210 184 165
0.2430145 -0.2689855 1.8550725 211 185 167
0.24486957 -0.2689855 1.8550725 211 186 168
0.24672464 -0.2689855 1.8550725 213 187 170
0.24857971 -0.2689855 1.8550725 215 192 174
0.2504348 -0.2689855 1.8550725 216 192 174
0.25228986 -0.2689855 1.8550725 217 193 175
0.25414494 -0.2689855 1.8550725 213 189 171
0.256 -0.2689855 1.8550725 204 182 165
0.25785506 -0.2689855 1.8550725 199 177 161
0.25971013 -0.2689855 1.8550725 213 190 174
0.2615652 -0.2689855 1.8550725 215 192 174
0.26342028 -0.2689855 1.8550725 214 190 174
0.26527536 -0.2689855 1.8550725 208 187 170
-0.26713043 -0.2708406 1.8550725 123 100 72
-0.26527536 -0.2708406 1.8550725 124 102 72
-0.26342028 -0.2708406 1.8550725 130 104 77
-0.2615652 -0.2708406 1.8550725 125 101 73
-0.25971013 -0.2708406 1.8550725 126 101 73
-0.2568922 -0.26982924 1.8481455 125 101 74
-0.25504407 -0.26982924 1.8481455 124 99 72
-0.25319594 -0.26982924 1.8481455 118 94 67
-0.25134778 -0.26982924 1.8481455 120 96 70
-0.24949963 -0.26982924 1.8481455 119 95 69
-0.24765149 -0.26982924 1.8481455 119 95 70
-0.24580334 -0.26982924 1.8481455 117 94 69
-0.2439552 -0.26982924 1.8481455 115 92 68
-0.24210705 -0.26982924 1.8481455 115 93 68
-0.24025892 -0.26982924 1.8481455 116 93 68
-0.23841077 -0.26982924 1.8481455 116 93 66
-0.23656262 -0.26982924 1.8481455 116 93 67
-0.23471448 -0.26982924 1.8481455 117 93 67
-0.23286633 -0.26982924 1.8481455 118 94 68
-0.23101819 -0.26982924 1.8481455 119 96 69
-0.22917004 -0.26982924 1.8481455 116 93 66
-0.2273219 -0.26982924 1.8481455 119 94 67
-0.22547376 -0.26982924 1.8481455 114 91 64
-0.22279365 -0.2688254 1.8412699 124 101 77
-0.22095238 -0.2688254 1.8412699 139 118 92
-0.21911111 -0.2688254 1.8412699 152 134 110
-0.21726984 -0.2688254 1.8412699 162 146 123
-0.21463011 -0.267829 1.8344454 159 146 122
-0.21279566 -0.267829 1.8344454 160 140 121
-0.21096121 -0.267829 1.8344454 158 139 119
-0.20912677 -0.267829 1.8344454 160 141 120
-0.20729233 -0.267829 1.8344454 158 139 118
-0.20469917 -0.26684 1.8276712 152 132 111
-0.2028715 -0.26684 1.8276712 149 130 108
-0.20104383 -0.26684 1.8276712 147 127 108
-0.19921616 -0.26684 1.8276712 151 131 109
-0.19738849 -0.26684 1.8276712 151 131 110
-0.19556083 -0.26684 1.8276712 146 125 106
-0.19373314 -0.26684 1.8276712 145 124 105
-0.19190547 -0.26684 1.8276712 150 129 110
-0.19078232 -0.267829 1.8344454 149 129 111
-0.18894787 -0.267829 1.8344454 152 133 114
-0.18711343 -0.267829 1.8344454 147 129 114
-0.18527898 -0.267829 1.8344454 150 130 113
-0.18344453 -0.267829 1.8344454 145 128 109
-0.18161009 -0.267829 1.8344454 144 127 106
-0.17977566 -0.267829 1.8344454 142 125 105
-0.17794119 -0.267829 1.8344454 138 120 102
-0.17610675 -0.267829 1.8344454 142 123 106
-0.17492063 -0.2688254 1.8412699 142 124 106
-0.17243786 -0.267829 1.8344454 142 124 105
-0.17060342 -0.267829 1.8344454 139 121 103
-0.16939682 -0.2688254 1.8412699 143 125 106
-0.16693452 -0.267829 1.8344454 146 128 108
-0.16510008 -0.267829 1.8344454 145 126 107
-0.16326565 -0.267829 1.8344454 139 122 103
-0.1614312 -0.267829 1.8344454 140 122 103
-0.15959674 -0.267829 1.8344454 137 119 101
-0.15717971 -0.26684 1.8276712 141 121 102
-0.15535206 -0.26684 1.8276712 138 119 103
-0.15352438 -0.26684 1.8276712 132 115 98
-0.1516967 -0.26684 1.8276712 132 114 97
-0.1486613 -0.26468962 1.8129426 140 122 100
-0.14410353 -0.25974217 1.779056 133 116 102
-0.14020775 -0.25587913 1.7525969 97 86 80
-0.13538688 -0.25020868 1.7137581 88 77 71
-0.13211772 -0.24729729 1.693817 84 74 72
-0.1304239 -0.24729729 1.693817 81 70 69
-0.12873009 -0.24729729 1.693817 80 69 68
-0.12608697 -0.24544927 1.6811595 79 69 67
-0.1244058 -0.24544927 1.6811595 75 65 62
-0.12181434 -0.24362868 1.6686896 73 64 60
-0.120145656 -0.24362868 1.6686896 72 63 60
-0.11847696 -0.24362868 1.6686896 72 62 59
-0.11641577 -0.24281004 1.6630825 72 63 61
-0.11429184 -0.2418349 1.6564034 70 61 60
-0.112635426 -0.2418349 1.6564034 71 62 61
-0.11060885 -0.24102825 1.6508784 70 62 61
-0.1085236 -0.24006735 1.6442969 71 63 61
-0.106879294 -0.24006735 1.6442969 72 66 64
-0.105235 -0.24006735 1.6442969 66 58 57
-0.103590705 -0.24006735 1.6442969 66 58 59
-0.101946406 -0.24006735 1.6442969 67 60 59
-0.10030211 -0.24006735 1.6442969 64 56 56
-0.09833113 -0.23927242 1.6388521 64 57 56
-0.09669228 -0.23927242 1.6388521 67 59 58
-0.09362731 -0.23568255 1.614264 83 77 73
-0.088994324 -0.22795038 1.561304 141 141 127
-0.08715808 -0.22723354 1.5563942 150 151 136
-0.08527987 -0.22637929 1.5505431 151 151 136
-0.08372933 -0.22637929 1.5505431 148 145 131
-0.081870995 -0.22553141 1.5447358 141 138 125
-0.08002654 -0.2246899 1.5389719 134 127 112
-0.07848757 -0.2246899 1.5389719 125 108 91
-0.07694859 -0.2246899 1.5389719 119 93 73
-0.075129285 -0.22385462 1.5332508 121 86 63
-0.07387065 -0.2246899 1.5389719 136 91 68
-0.07206279 -0.22385462 1.5332508 147 97 71
-0.07026831 -0.22302552 1.527572 157 105 75
-0.068487085 -0.22220254 1.5219352 163 108 79
-0.06675986 -0.22152136 1.5172696 165 110 82
-0.06524259 -0.22152136 1.5172696 167 110 81
-0.063491754 -0.22070944 1.5117085 169 111 81
-0.06198005 -0.22070944 1.5117085 170 113 81
-0.06046834 -0.22070944 1.5117085 174 115 84
-0.05895663 -0.22070944 1.5117085 180 118 89
-0.05723514 -0.21990344 1.5061879 183 122 92
-0.055728953 -0.21990344 1.5061879 185 123 94
-0.054222763 -0.21990344 1.5061879 188 126 97
-0.052716576 -0.21990344 1.5061879 190 127 95
-0.05121039 -0.21990344 1.5061879 193 128 96
-0.049523346 -0.2191033 1.5007075 193 128 98
-0.04802264 -0.2191033 1.5007075 193 129 97
-0.046521936 -0.2191033 1.5007075 195 131 101
-0.045021225 -0.2191033 1.5007075 195 132 100
-0.043520518 -0.2191033 1.5007075 199 134 102
-0.042173263 -0.21990344 1.5061879 202 135 104
-0.040519103 -0.2191033 1.5007075 204 137 106
-0.039160885 -0.21990344 1.5061879 204 138 107
-0.037654698 -0.21990344 1.5061879 207 140 108
-0.03614851 -0.21990344 1.5061879 208 141 109
-0.034642324 -0.21990344 1.5061879 209 142 111
-0.033136137 -0.21990344 1.5061879 211 139 110
-0.031629946 -0.21990344 1.5061879 212 139 110
-0.030123759 -0.21990344 1.5061879 209 140 110
-0.02861757 -0.21990344 1.5061879 208 138 110
-0.027111381 -0.21990344 1.5061879 206 137 111
-0.025699046 -0.22070944 1.5117085 202 135 112
-0.024187336 -0.22070944 1.5117085 189 131 110
-0.023688577 -0.23056883 1.5792385 103 81 70
-0.023893334 -0.24917334 1.7066667 82 64 54
-0.022962647 -0.2578882 1.7663574 87 69 58
-0.021425687 -0.26067916 1.7854738 89 69 56
-0.019725606 -0.26181257 1.7932367 107 90 77
-0.017997576 -0.26276463 1.7997576 106 92 78
-0.016256936 -0.26372364 1.8063262 106 92 79
-0.014450609 -0.26372364 1.8063262 107 91 79
-0.012690598 -0.26468962 1.8129426 108 91 81
-0.010837957 -0.26372364 1.8063262 95 80 69
-0.0090647135 -0.26468962 1.8129426 93 77 67
-0.0072517707 -0.26468962 1.8129426 86 69 60
-0.005438828 -0.26468962 1.8129426 84 67 56
-0.0036258854 -0.26468962 1.8129426 83 67 56
-0.0018129427 -0.26468962 1.8129426 82 66 55
0.0 -0.26372364 1.8063262 81 65 54
0.0018063261 -0.26372364 1.8063262 81 65 55
0.0036126522 -0.26372364 1.8063262 80 63 53
0.0054189786 -0.26372364 1.8063262 77 60 53
0.0072253044 -0.26372364 1.8063262 77 61 54
0.00903163 -0.26372364 1.8063262 77 61 53
0.010837957 -0.26372364 1.8063262 75 59 50
0.0126442835 -0.26372364 1.8063262 75 60 51
0.014450609 -0.26372364 1.8063262 76 62 52
0.016256936 -0.26372364 1.8063262 83 68 58
0.01806326 -0.26372364 1.8063262 82 68 57
0.019869586 -0.26372364 1.8063262 83 68 58
0.021675915 -0.26372364 1.8063262 85 71 60
0.02348224 -0.26372364 1.8063262 82 69 58
0.025288567 -0.26372364 1.8063262 83 69 58
0.027094893 -0.26372364 1.8063262 83 69 58
0.028796121 -0.26276463 1.7997576 83 69 61
0.030707544 -0.26372364 1.8063262 81 67 58
0.03239564 -0.26276463 1.7997576 79 65 57
0.034195393 -0.26276463 1.7997576 80 67 59
0.03599515 -0.26276463 1.7997576 77 64 56
0.03793285 -0.26372364 1.8063262 74 60 51
0.039594665 -0.26276463 1.7997576 75 61 52
0.041394424 -0.26276463 1.7997576 75 62 53
0.043194182 -0.26276463 1.7997576 72 60 51
0.044993937 -0.26276463 1.7997576 71 59 53
0.046793696 -0.26276463 1.7997576 72 60 54
0.048593458 -0.26276463 1.7997576 66 55 49
0.050577134 -0.26372364 1.8063262 64 52 47
0.05219297 -0.26276463 1.7997576 67 56 53
0.05399273 -0.26276463 1.7997576 66 55 53
0.055792484 -0.26276463 1.7997576 59 50 47
0.057592243 -0.26276463 1.7997576 58 51 49
0.059392 -0.26276463 1.7997576 47 39 38
0.061191756 -0.26276463 1.7997576 44 34 35
0.062991515 -0.26276463 1.7997576 41 32 34
0.06479128 -0.26276463 1.7997576 40 31 32
0.06659103 -0.26276463 1.7997576 40 33 35
0.06839079 -0.26276463 1.7997576 46 39 41
0.07019054 -0.26276463 1.7997576 44 37 40
0.07172947 -0.26181257 1.7932367 40 33 35
0.0735227 -0.26181257 1.7932367 41 33 37
0.07531594 -0.26181257 1.7932367 44 37 40
0.07710917 -0.26181257 1.7932367 44 39 40
0.07890242 -0.26181257 1.7932367 45 40 42
0.08069566 -0.26181257 1.7932367 47 42 43
0.082488894 -0.26181257 1.7932367 45 40 41
0.08428213 -0.26181257 1.7932367 48 40 41
0.08570275 -0.26067916 1.7854738 46 39 41
0.08748822 -0.26067916 1.7854738 46 41 41
0.08927369 -0.26067916 1.7854738 46 40 42
0.09105916 -0.26067916 1.7854738 46 40 42
0.092844635 -0.26067916 1.7854738 47 41 43
0.094630115 -0.26067916 1.7854738 46 41 42
0.09641559 -0.26067916 1.7854738 46 40 41
0.09820106 -0.26067916 1.7854738 48 40 43
0.09998653 -0.26067916 1.7854738 48 42 44
0.10177201 -0.26067916 1.7854738 49 42 45
0.10355748 -0.26067916 1.7854738 50 42 44
0.105342954 -0.26067916 1.7854738 50 42 44
0.107128434 -0.26067916 1.7854738 50 43 44
0.108913906 -0.26067916 1.7854738 50 43 45
0.11069938 -0.26067916 1.7854738 49 44 45
0.111679085 -0.25881183 1.7726839 49 44 45
0.113451764 -0.25881183 1.7726839 53 46 45
0.11093333 -0.24917334 1.7066667 58 50 46
0.106541425 -0.23568255 1.614264 101 97 93
0.104278415 -0.22723354 1.5563942 93 83 76
0.10465009 -0.2246899 1.5389719 73 58 53
0.1057943 -0.22385462 1.5332508 91 66 52
0.10653547 -0.22220254 1.5219352 147 100 79
0.108860806 -0.22385462 1.5332508 164 108 89
0.10998518 -0.22302552 1.527572 179 124 100
0.11110127 -0.22220254 1.5219352 194 130 106
0.112277955 -0.22152136 1.5172696 203 135 111
0.11337814 -0.22070944 1.5117085 208 140 115
0.114889845 -0.22070944 1.5117085 210 142 117
0.11640156 -0.22070944 1.5117085 210 142 118
0.11791326 -0.22070944 1.5117085 211 143 118
0.11942497 -0.22070944 1.5117085 214 146 120
0.120495036 -0.21990344 1.5061879 216 148 121
0.12289884 -0.22152136 1.5172696 219 148 121
0.124416105 -0.22152136 1.5172696 221 149 122
0.12593338 -0.22152136 1.5172696 222 150 122
0.12745064 -0.22152136 1.5172696 222 151 123
0.12896791 -0.22152136 1.5172696 224 151 125
0.13048518 -0.22152136 1.5172696 224 151 125
0.13200246 -0.22152136 1.5172696 222 151 125
0.13351972 -0.22152136 1.5172696 222 150 124
0.135037 -0.22152136 1.5172696 220 149 123
0.13697417 -0.22220254 1.5219352 219 148 123
0.13849612 -0.22220254 1.5219352 219 148 123
0.14001803 -0.22220254 1.5219352 219 148 122
0.14153998 -0.22220254 1.5219352 218 147 121
0.1430619 -0.22220254 1.5219352 215 146 121
0.14458385 -0.22220254 1.5219352 215 146 121
0.14664692 -0.22302552 1.527572 215 146 119
0.14817448 -0.22302552 1.527572 211 145 122
0.15081924 -0.2246899 1.5389719 205 143 111
0.16160423 -0.23832542 1.632366 205 164 137
0.17588249 -0.25678846 1.758825 219 195 174
0.18243894 -0.26372364 1.8063262 222 198 176
0.18642245 -0.26684 1.8276712 215 190 167
0.18965079 -0.2688254 1.8412699 216 191 169
0.19292754 -0.2708406 1.8550725 221 196 174
0.19405529 -0.26982924 1.8481455 208 187 166
0.1951746 -0.2688254 1.8412699 207 186 162
0.19775157 -0.26982924 1.8481455 209 186 163
0.19959971 -0.26982924 1.8481455 209 188 163
0.20144786 -0.26982924 1.8481455 209 188 163
0.20253968 -0.2688254 1.8412699 210 186 166
0.20438094 -0.2688254 1.8412699 202 179 161
0.20776813 -0.2708406 1.8550725 212 188 168
0.2096232 -0.2708406 1.8550725 215 191 171
0.21147828 -0.2708406 1.8550725 209 186 167
0.21333334 -0.2708406 1.8550725 208 185 166
0.21518841 -0.2708406 1.8550725 211 188 168
0.21623302 -0.26982924 1.8481455 209 188 169
0.21808116 -0.26982924 1.8481455 218 194 175
0.21992931 -0.26982924 1.8481455 216 191 172
0.22177747 -0.26982924 1.8481455 211 185 167
0.22446378 -0.2708406 1.8550725 214 188 169
0.22631885 -0.2708406 1.8550725 218 192 172
0.22817393 -0.2708406 1.8550725 211 187 166
0.23002899 -0.2708406 1.8550725 204 181 160
0.23188406 -0.2708406 1.8550725 206 180 159
0.23373914 -0.2708406 1.8550725 208 182 161
0.23559421 -0.2708406 1.8550725 206 181 160
0.23744927 -0.2708406 1.8550725 209 183 163
0.23930435 -0.2708406 1.8550725 210 184 165
0.24115942 -0.2708406 1.8550725 212 189 169
0.2430145 -0.2708406 1.8550725 209 184 165
0.24486957 -0.2708406 1.8550725 208 184 165
0.24672464 -0.2708406 1.8550725 213 189 172
0.24857971 -0.2708406 1.8550725 212 191 171
0.2504348 -0.2708406 1.8550725 212 191 171
0.25228986 -0.2708406 1.8550725 216 192 173
0.25414494 -0.2708406 1.8550725 217 194 175
0.256 -0.2708406 1.8550725 200 178 160
0.25785506 -0.2708406 1.8550725 209 186 170
0.25971013 -0.2708406 1.8550725 216 192 176
0.2615652 -0.2708406 1.8550725 214 191 176
0.26342028 -0.2708406 1.8550725 215 192 176
0.26527536 -0.2708406 1.8550725 210 187 172
-0.26713043 -0.27269566 1.8550725 119 97 70
-0.26527536 -0.27269566 1.8550725 125 100 74
-0.26342028 -0.27269566 1.8550725 123 99 73
-0.2615652 -0.27269566 1.8550725 122 98 71
-0.25874037 -0.2716774 1.8481455 119 96 69
-0.2568922 -0.2716774 1.8481455 120 97 70
-0.25504407 -0.2716774 1.8481455 124 99 74
-0.25319594 -0.2716774 1.8481455 117 94 70
-0.25134778 -0.2716774 1.8481455 116 93 69
-0.24949963 -0.2716774 1.8481455 115 92 67
-0.24765149 -0.2716774 1.8481455 118 94 69
-0.24580334 -0.2716774 1.8481455 121 97 73
-0.24304762 -0.27066666 1.8412699 119 96 72
-0.24120635 -0.27066666 1.8412699 119 95 71
-0.23936509 -0.27066666 1.8412699 120 96 71
-0.23752381 -0.27066666 1.8412699 121 96 70
-0.23656262 -0.2716774 1.8481455 117 94 67
-0.23471448 -0.2716774 1.8481455 116 93 66
-0.23286633 -0.2716774 1.8481455 117 94 67
-0.23101819 -0.2716774 1.8481455 117 95 68
-0.22917004 -0.2716774 1.8481455 113 92 65
-0.2273219 -0.2716774 1.8481455 117 94 68
-0.22547376 -0.2716774 1.8481455 116 94 69
-0.22279365 -0.27066666 1.8412699 114 95 73
-0.22095238 -0.27066666 1.8412699 120 102 80
-0.218299 -0.26966348 1.8344454 152 133 111
-0.21646455 -0.26966348 1.8344454 157 141 120
-0.21463011 -0.26966348 1.8344454 158 144 121
-0.21279566 -0.26966348 1.8344454 157 138 117
-0.21096121 -0.26966348 1.8344454 155 136 115
-0.20912677 -0.26966348 1.8344454 156 137 116
-0.20729233 -0.26966348 1.8344454 153 135 113
-0.20469917 -0.26866767 1.8276712 149 129 108
-0.2028715 -0.26866767 1.8276712 148 130 107
-0.20104383 -0.26866767 1.8276712 146 127 105
-0.1984832 -0.26767915 1.8209468 147 128 106
-0.19666226 -0.26767915 1.8209468 146 125 105
-0.19484131 -0.26767915 1.8209468 144 125 105
-0.19302036 -0.26767915 1.8209468 141 122 103
-0.19119942 -0.26767915 1.8209468 128 111 95
-0.18937847 -0.26767915 1.8209468 143 123 105
-0.18825014 -0.26866767 1.8276712 148 130 110
-0.18642245 -0.26866767 1.8276712 151 132 113
-0.18459478 -0.26866767 1.8276712 148 131 112
-0.18276712 -0.26866767 1.8276712 141 125 105
-0.18093945 -0.26866767 1.8276712 145 127 106
-0.17911176 -0.26866767 1.8276712 141 123 103
-0.1772841 -0.26866767 1.8276712 137 120 101
-0.17545643 -0.26866767 1.8276712 143 125 107
-0.17362875 -0.26866767 1.8276712 147 128 109
-0.17180109 -0.26866767 1.8276712 147 126 108
-0.16997342 -0.26866767 1.8276712 138 121 102
-0.1675271 -0.26767915 1.8209468 149 129 109
-0.16631807 -0.26866767 1.8276712 147 130 109
-0.1644904 -0.26866767 1.8276712 146 127 108
-0.16266273 -0.26866767 1.8276712 138 120 102
-0.16083507 -0.26866767 1.8276712 140 122 103
-0.15900739 -0.26866767 1.8276712 135 118 100
-0.15717971 -0.26866767 1.8276712 132 115 98
-0.15478048 -0.26767915 1.8209468 132 114 98
-0.15295954 -0.26767915 1.8209468 132 114 96
-0.1516967 -0.26866767 1.8276712 131 112 94
-0.1486613 -0.26650256 1.8129426 130 113 93
-0.14462338 -0.26246467 1.7854738 122 107 95
-0.14020775 -0.25763175 1.7525969 96 84 80
-0.13538688 -0.25192243 1.7137581 88 77 72
-0.13211772 -0.2489911 1.693817 86 75 73
-0.1304239 -0.2489911 1.693817 82 70 69
-0.12873009 -0.2489911 1.693817 79 69 67
-0.12608697 -0.24713045 1.6811595 77 67 64
-0.1244058 -0.24713045 1.6811595 75 65 62
-0.12181434 -0.24529737 1.6686896 73 64 61
-0.120145656 -0.24529737 1.6686896 73 64 61
-0.11847696 -0.24529737 1.6686896 73 63 60
-0.115948245 -0.2434913 1.6564034 72 62 58
-0.11429184 -0.2434913 1.6564034 70 62 59
-0.112635426 -0.2434913 1.6564034 70 62 60
-0.11016789 -0.24171165 1.6442969 69 62 59
-0.1085236 -0.24171165 1.6442969 70 62 60
-0.106879294 -0.24171165 1.6442969 67 60 58
-0.10488654 -0.24091126 1.6388521 65 57 57
-0.10324768 -0.24091126 1.6388521 68 59 60
-0.101608835 -0.24091126 1.6388521 69 62 61
-0.099969976 -0.24091126 1.6388521 70 62 61
-0.09833113 -0.24091126 1.6388521 62 54 54
-0.09669228 -0.24091126 1.6388521 64 57 56
-0.09362731 -0.23729682 1.614264 83 77 73
-0.088994324 -0.2295117 1.561304 139 137 124
-0.08715808 -0.22878994 1.5563942 150 151 136
-0.08527987 -0.22792983 1.5505431 151 149 135
-0.08372933 -0.22792983 1.5505431 143 139 126
-0.081870995 -0.22707616 1.5447358 133 124 113
-0.08002654 -0.22622886 1.5389719 119 102 91
-0.07848757 -0.22622886 1.5389719 112 83 68
-0.07694859 -0.22622886 1.5389719 121 82 57
-0.075129285 -0.22538786 1.5332508 134 89 63
-0.07359604 -0.22538786 1.5332508 151 99 71
-0.07179588 -0.22455308 1.527572 162 105 77
-0.07026831 -0.22455308 1.527572 168 109 81
-0.068487085 -0.22372447 1.5219352 168 110 82
-0.06675986 -0.22303863 1.5172696 168 112 81
-0.06500346 -0.22222115 1.5117085 170 112 80
-0.063491754 -0.22222115 1.5117085 172 113 79
-0.06198005 -0.22222115 1.5117085 173 114 80
-0.06046834 -0.22222115 1.5117085 176 117 84
-0.05895663 -0.22222115 1.5117085 182 119 89
-0.05723514 -0.22140962 1.5061879 184 122 92
-0.055728953 -0.22140962 1.5061879 185 122 93
-0.05402547 -0.220604 1.5007075 186 123 96
-0.05252476 -0.220604 1.5007075 188 123 94
-0.051024057 -0.220604 1.5007075 190 124 94
-0.049523346 -0.220604 1.5007075 191 126 98
-0.04802264 -0.220604 1.5007075 192 128 96
-0.046521936 -0.220604 1.5007075 194 130 98
-0.045021225 -0.220604 1.5007075 194 131 98
-0.04336274 -0.21980423 1.4952669 197 132 101
-0.04201981 -0.220604 1.5007075 199 133 102
-0.040519103 -0.220604 1.5007075 200 134 103
-0.039018396 -0.220604 1.5007075 201 136 104
-0.037654698 -0.22140962 1.5061879 204 136 106
-0.03614851 -0.22140962 1.5061879 206 139 109
-0.034642324 -0.22140962 1.5061879 211 141 109
-0.033136137 -0.22140962 1.5061879 212 140 111
-0.031629946 -0.22140962 1.5061879 213 141 112
-0.030123759 -0.22140962 1.5061879 212 141 111
-0.02861757 -0.22140962 1.5061879 211 140 111
-0.027012736 -0.220604 1.5007075 211 139 114
-0.025605194 -0.22140962 1.5061879 206 138 115
-0.02392427 -0.21980423 1.4952669 194 134 112
-0.023345914 -0.22878994 1.5563942 128 98 88
-0.023536231 -0.24713045 1.6811595 81 64 53
-0.02278376 -0.25763175 1.7525969 88 70 57
-0.02134867 -0.26152125 1.779056 105 87 74
-0.019725606 -0.2636058 1.7932367 108 94 80
-0.017932367 -0.2636058 1.7932367 109 94 81
-0.01619782 -0.26456437 1.7997576 106 91 79
-0.014398061 -0.26456437 1.7997576 104 87 76
-0.012598303 -0.26456437 1.7997576 103 87 77
-0.010798546 -0.26456437 1.7997576 96 80 70
-0.0090647135 -0.26650256 1.8129426 89 72 62
-0.0072517707 -0.26650256 1.8129426 86 69 60
-0.005438828 -0.26650256 1.8129426 82 65 53
-0.0036258854 -0.26650256 1.8129426 82 66 53
-0.0018129427 -0.26650256 1.8129426 82 66 55
0.0 -0.26456437 1.7997576 83 66 55
0.0017997576 -0.26456437 1.7997576 84 67 56
0.0035995152 -0.26456437 1.7997576 83 66 57
0.005399273 -0.26456437 1.7997576 81 65 56
0.0071990304 -0.26456437 1.7997576 78 61 54
0.00903163 -0.26552993 1.8063262 77 61 53
0.010837957 -0.26552993 1.8063262 77 62 53
0.0126442835 -0.26552993 1.8063262 80 65 56
0.014398061 -0.26456437 1.7997576 83 67 56
0.01619782 -0.26456437 1.7997576 83 69 58
0.017997576 -0.26456437 1.7997576 83 68 57
0.019797333 -0.26456437 1.7997576 84 69 58
0.021597091 -0.26456437 1.7997576 84 70 58
0.023396848 -0.26456437 1.7997576 84 70 59
0.025196606 -0.26456437 1.7997576 84 70 59
0.026996365 -0.26456437 1.7997576 82 68 56
0.028691787 -0.2636058 1.7932367 83 68 59
0.030485023 -0.2636058 1.7932367 82 69 60
0.03227826 -0.2636058 1.7932367 78 65 56
0.034071498 -0.2636058 1.7932367 79 65 56
0.035864733 -0.2636058 1.7932367 80 66 58
0.03779491 -0.26456437 1.7997576 79 66 56
0.039594665 -0.26456437 1.7997576 78 66 56
0.041244447 -0.2636058 1.7932367 76 65 55
0.043194182 -0.26456437 1.7997576 73 62 52
0.044993937 -0.26456437 1.7997576 78 65 59
0.046624154 -0.2636058 1.7932367 76 65 58
0.048593458 -0.26456437 1.7997576 75 62 56
0.05021063 -0.2636058 1.7932367 68 56 52
0.05219297 -0.26456437 1.7997576 67 56 52
0.05399273 -0.26456437 1.7997576 65 55 52
0.05559034 -0.2636058 1.7932367 60 51 48
0.057383575 -0.2636058 1.7932367 59 50 48
0.059392 -0.26456437 1.7997576 54 46 44
0.061191756 -0.26456437 1.7997576 48 37 37
0.062991515 -0.26456437 1.7997576 44 35 35
0.06479128 -0.26456437 1.7997576 40 31 32
0.06659103 -0.26456437 1.7997576 39 32 32
0.068142995 -0.2636058 1.7932367 48 42 42
0.07019054 -0.26456437 1.7997576 40 34 36
0.07172947 -0.2636058 1.7932367 39 31 34
0.0735227 -0.2636058 1.7932367 42 35 37
0.07531594 -0.2636058 1.7932367 42 36 38
0.07710917 -0.2636058 1.7932367 46 39 41
0.07890242 -0.2636058 1.7932367 47 41 43
0.08069566 -0.2636058 1.7932367 46 40 41
0.082131796 -0.26246467 1.7854738 47 41 42
0.08391727 -0.26246467 1.7854738 47 40 42
0.08570275 -0.26246467 1.7854738 47 41 42
0.08748822 -0.26246467 1.7854738 47 40 42
0.08927369 -0.26246467 1.7854738 46 40 41
0.09105916 -0.26246467 1.7854738 48 41 42
0.092844635 -0.26246467 1.7854738 47 40 42
0.094630115 -0.26246467 1.7854738 48 40 42
0.09641559 -0.26246467 1.7854738 48 41 43
0.09820106 -0.26246467 1.7854738 49 41 44
0.09998653 -0.26246467 1.7854738 49 41 44
0.10177201 -0.26246467 1.7854738 49 41 44
0.10355748 -0.26246467 1.7854738 49 42 44
0.105342954 -0.26246467 1.7854738 50 43 45
0.107128434 -0.26246467 1.7854738 50 43 45
0.108913906 -0.26246467 1.7854738 51 43 45
0.11069938 -0.26246467 1.7854738 50 44 45
0.111679085 -0.26058453 1.7726839 50 44 45
0.11385958 -0.26152125 1.779056 51 45 46
0.11432362 -0.25854728 1.758825 54 45 48
0.11225292 -0.25001788 1.7008018 60 51 54
0.10893737 -0.23901184 1.6259309 95 84 79
0.10657209 -0.23038378 1.5672367 92 79 72
0.1057943 -0.22538786 1.5332508 90 67 52
0.10653547 -0.22372447 1.5219352 147 105 85
0.10845761 -0.22455308 1.527572 170 116 94
0.10957934 -0.22372447 1.5219352 187 129 103
0.11076068 -0.22303863 1.5172696 196 132 105
0.11186643 -0.22222115 1.5117085 202 136 108
0.11337814 -0.22222115 1.5117085 206 138 110
0.114889845 -0.22222115 1.5117085 209 140 115
0.11640156 -0.22222115 1.5117085 209 142 116
0.117482655 -0.22140962 1.5061879 210 144 117
0.118555896 -0.220604 1.5007075 214 145 118
0.120495036 -0.22140962 1.5061879 215 148 119
0.12200122 -0.22140962 1.5061879 217 148 121
0.12305801 -0.220604 1.5007075 220 150 122
0.12501359 -0.22140962 1.5061879 222 152 122
0.12651978 -0.22140962 1.5061879 222 151 123
0.12802596 -0.22140962 1.5061879 224 151 127
0.12953216 -0.22140962 1.5061879 223 153 127
0.13103834 -0.22140962 1.5061879 224 152 127
0.13254455 -0.22140962 1.5061879 222 151 126
0.13405073 -0.22140962 1.5061879 222 151 126
0.13605377 -0.22222115 1.5117085 220 150 125
0.13807154 -0.22303863 1.5172696 218 149 125
0.1395888 -0.22303863 1.5172696 219 148 124
0.14110608 -0.22303863 1.5172696 217 148 123
0.14262334 -0.22303863 1.5172696 217 147 122
0.14414062 -0.22303863 1.5172696 219 146 121
0.14565788 -0.22303863 1.5172696 217 146 121
0.14762771 -0.22372447 1.5219352 217 146 120
0.15025857 -0.22538786 1.5332508 215 147 122
0.15744987 -0.23378922 1.5904028 209 153 127
0.1693817 -0.2489911 1.693817 224 187 165
0.18111691 -0.2636058 1.7932367 220 196 173
0.18642245 -0.26866767 1.8276712 222 195 173
0.18965079 -0.27066666 1.8412699 213 189 167
0.19292754 -0.27269566 1.8550725 213 189 168
0.19405529 -0.2716774 1.8481455 206 183 163
0.1951746 -0.27066666 1.8412699 210 184 162
0.19775157 -0.2716774 1.8481455 210 185 162
0.19959971 -0.2716774 1.8481455 212 190 165
0.2006984 -0.27066666 1.8412699 213 192 166
0.20253968 -0.27066666 1.8412699 209 186 165
0.20362343 -0.26966348 1.8344454 214 190 169
0.2069923 -0.2716774 1.8481455 217 192 171
0.20884044 -0.2716774 1.8481455 218 194 174
0.21068858 -0.2716774 1.8481455 212 188 169
0.21253672 -0.2716774 1.8481455 217 192 172
0.21438487 -0.2716774 1.8481455 220 198 177
0.21542858 -0.27066666 1.8412699 220 196 175
0.21726984 -0.27066666 1.8412699 219 195 175
0.21911111 -0.27066666 1.8412699 206 182 164
0.22095238 -0.27066666 1.8412699 209 186 167
0.22362562 -0.2716774 1.8481455 218 191 172
0.22547376 -0.2716774 1.8481455 214 190 170
0.2273219 -0.2716774 1.8481455 207 184 165
0.22917004 -0.2716774 1.8481455 215 190 169
0.23101819 -0.2716774 1.8481455 222 197 174
0.23286633 -0.2716774 1.8481455 209 182 162
0.23471448 -0.2716774 1.8481455 199 174 154
0.23656262 -0.2716774 1.8481455 207 182 163
0.23841077 -0.2716774 1.8481455 208 183 164
0.24025892 -0.2716774 1.8481455 214 190 170
0.24210705 -0.2716774 1.8481455 219 194 174
0.2439552 -0.2716774 1.8481455 212 187 168
0.24580334 -0.2716774 1.8481455 203 181 163
0.24765149 -0.2716774 1.8481455 214 191 172
0.24949963 -0.2716774 1.8481455 217 194 175
0.25134778 -0.2716774 1.8481455 211 189 170
0.25319594 -0.2716774 1.8481455 218 194 174
0.25504407 -0.2716774 1.8481455 211 188 170
0.2568922 -0.2716774 1.8481455 215 191 174
0.25874037 -0.2716774 1.8481455 214 191 175
0.2605885 -0.2716774 1.8481455 216 192 176
0.26243666 -0.2716774 1.8481455 219 195 180
0.2642848 -0.2716774 1.8481455 212 189 174
-0.26613292 -0.27352554 1.8481455 119 95 70
-0.2642848 -0.27352554 1.8481455 118 95 70
-0.26243666 -0.27352554 1.8481455 117 95 69
-0.2605885 -0.27352554 1.8481455 120 96 70
-0.25777778 -0.27250794 1.8412699 115 92 66
-0.2559365 -0.27250794 1.8412699 114 92 66
-0.25409526 -0.27250794 1.8412699 113 91 65
-0.25225398 -0.27250794 1.8412699 112 89 65
-0.2504127 -0.27250794 1.8412699 112 89 65
-0.24857143 -0.27250794 1.8412699 110 88 63
-0.24673016 -0.27250794 1.8412699 114 91 66
-0.24488889 -0.27250794 1.8412699 118 95 70
-0.24214679 -0.27149794 1.8344454 120 95 71
-0.24031235 -0.27149794 1.8344454 119 95 70
-0.23847789 -0.27149794 1.8344454 116 93 68
-0.23664345 -0.27149794 1.8344454 118 95 68
-0.23480901 -0.27149794 1.8344454 118 94 68
-0.23384129 -0.27250794 1.8412699 118 94 68
-0.232 -0.27250794 1.8412699 119 95 68
-0.23015873 -0.27250794 1.8412699 122 98 71
-0.22831745 -0.27250794 1.8412699 120 97 70
-0.22647619 -0.27250794 1.8412699 118 95 70
-0.22463492 -0.27250794 1.8412699 117 96 76
-0.22196789 -0.27149794 1.8344454 130 109 87
-0.22013344 -0.27149794 1.8344454 121 105 84
-0.218299 -0.27149794 1.8344454 153 133 113
-0.21566519 -0.27049533 1.8276712 156 138 118
-0.21383752 -0.27049533 1.8276712 154 137 116
-0.21200986 -0.27049533 1.8276712 155 135 116
-0.21018219 -0.27049533 1.8276712 153 134 114
-0.2083545 -0.27049533 1.8276712 154 135 114
-0.20652685 -0.27049533 1.8276712 152 133 111
-0.20394604 -0.26950014 1.8209468 151 132 109
-0.20212509 -0.26950014 1.8209468 147 128 107
-0.20030415 -0.26950014 1.8209468 149 130 108
-0.1984832 -0.26950014 1.8209468 142 124 103
-0.1957978 -0.26831552 1.8129426 143 124 104
-0.19398487 -0.26831552 1.8129426 136 118 100
-0.19217192 -0.26831552 1.8129426 138 119 101
-0.19035898 -0.26831552 1.8129426 140 122 103
-0.18937847 -0.26950014 1.8209468 142 123 105
-0.18755752 -0.26950014 1.8209468 145 126 107
-0.18573657 -0.26950014 1.8209468 147 130 111
-0.18391563 -0.26950014 1.8209468 150 132 112
-0.18209468 -0.26950014 1.8209468 143 126 105
-0.18027373 -0.26950014 1.8209468 141 124 102
-0.17845279 -0.26950014 1.8209468 142 124 102
-0.17663184 -0.26950014 1.8209468 138 121 101
-0.1748109 -0.26950014 1.8209468 144 125 106
-0.17298995 -0.26950014 1.8209468 146 127 108
-0.17116901 -0.26950014 1.8209468 145 127 107
-0.16997342 -0.27049533 1.8276712 144 126 106
-0.1675271 -0.26950014 1.8209468 144 126 107
-0.16570616 -0.26950014 1.8209468 145 127 107
-0.1638852 -0.26950014 1.8209468 146 127 107
-0.16266273 -0.27049533 1.8276712 140 122 104
-0.16024332 -0.26950014 1.8209468 132 116 98
-0.15842238 -0.26950014 1.8209468 135 118 100
-0.15660143 -0.26950014 1.8209468 135 118 100
-0.15478048 -0.26950014 1.8209468 129 113 96
-0.15228719 -0.26831552 1.8129426 135 117 98
-0.15113857 -0.26950014 1.8209468 123 106 88
-0.1486613 -0.26831552 1.8129426 122 107 86
-0.14462338 -0.26425013 1.7854738 117 103 91
-0.14020775 -0.25938433 1.7525969 93 80 77
-0.13538688 -0.2536362 1.7137581 89 77 73
-0.13211772 -0.25068492 1.693817 85 72 71
-0.1304239 -0.25068492 1.693817 82 71 70
-0.12873009 -0.25068492 1.693817 79 69 67
-0.12608697 -0.2488116 1.6811595 78 67 64
-0.1244058 -0.2488116 1.6811595 76 65 63
-0.12181434 -0.24696606 1.6686896 76 67 64
-0.120145656 -0.24696606 1.6686896 74 65 62
-0.11847696 -0.24696606 1.6686896 73 63 60
-0.115948245 -0.2451477 1.6564034 73 62 59
-0.11429184 -0.2451477 1.6564034 69 61 58
-0.11225974 -0.24433 1.6508784 68 60 58
-0.109803095 -0.2425501 1.6388521 71 63 61
-0.108164236 -0.2425501 1.6388521 68 61 58
-0.10652539 -0.2425501 1.6388521 70 63 61
-0.10488654 -0.2425501 1.6388521 68 60 59
-0.10324768 -0.2425501 1.6388521 68 59 60
-0.101608835 -0.2425501 1.6388521 68 61 60
-0.099969976 -0.2425501 1.6388521 63 54 54
-0.09833113 -0.2425501 1.6388521 62 54 53
-0.09669228 -0.2425501 1.6388521 65 57 56
-0.0939952 -0.23984982 1.6206069 80 74 70
-0.088994324 -0.23107298 1.561304 139 137 124
-0.08715808 -0.23034634 1.5563942 149 150 135
-0.08527987 -0.22948037 1.5505431 144 141 128
-0.08372933 -0.22948037 1.5505431 130 123 111
-0.081870995 -0.2286209 1.5447358 112 98 88
-0.08002654 -0.22776784 1.5389719 78 58 49
-0.07848757 -0.22776784 1.5389719 100 66 54
-0.07694859 -0.22776784 1.5389719 131 86 65
-0.075129285 -0.22692111 1.5332508 149 96 70
-0.07359604 -0.22692111 1.5332508 164 104 78
-0.07206279 -0.22692111 1.5332508 168 108 82
-0.07026831 -0.22608066 1.527572 170 110 82
-0.068487085 -0.22524641 1.5219352 169 111 80
-0.06675986 -0.22455591 1.5172696 170 113 79
-0.06500346 -0.22373286 1.5117085 172 114 80
-0.063491754 -0.22373286 1.5117085 173 115 80
-0.06198005 -0.22373286 1.5117085 174 116 82
-0.06046834 -0.22373286 1.5117085 177 118 85
-0.05895663 -0.22373286 1.5117085 181 119 88
-0.05723514 -0.22291581 1.5061879 182 119 90
-0.055526175 -0.2221047 1.5007075 185 120 91
-0.05402547 -0.2221047 1.5007075 183 118 91
-0.05252476 -0.2221047 1.5007075 181 119 90
-0.051024057 -0.2221047 1.5007075 185 120 91
-0.049343806 -0.2212995 1.4952669 186 123 92
-0.04802264 -0.2221047 1.5007075 189 126 93
-0.046353277 -0.2212995 1.4952669 192 128 97
-0.04485801 -0.2212995 1.4952669 196 129 100
-0.04336274 -0.2212995 1.4952669 197 131 102
-0.041867472 -0.2212995 1.4952669 200 134 103
-0.040372208 -0.2212995 1.4952669 199 134 101
-0.03887694 -0.2212995 1.4952669 201 136 104
-0.03738167 -0.2212995 1.4952669 204 137 106
-0.03601698 -0.2221047 1.5007075 208 139 109
-0.034516275 -0.2221047 1.5007075 211 142 112
-0.033015564 -0.2221047 1.5007075 213 142 113
-0.031514857 -0.2221047 1.5007075 213 142 113
-0.03001415 -0.2221047 1.5007075 213 142 112
-0.028513443 -0.2221047 1.5007075 213 142 112
-0.026914805 -0.2212995 1.4952669 213 142 115
-0.025605194 -0.22291581 1.5061879 212 141 117
-0.02383785 -0.22050011 1.4898655 204 139 117
-0.02291358 -0.22608066 1.527572 173 124 109
-0.022943929 -0.2425501 1.6388521 83 65 53
-0.022449873 -0.25558317 1.7269133 95 76 64
-0.021196289 -0.2614209 1.7663574 107 91 78
-0.019640213 -0.26425013 1.7854738 109 94 81
-0.017932367 -0.26539904 1.7932367 108 93 81
-0.01613913 -0.26539904 1.7932367 106 90 78
-0.014345894 -0.26539904 1.7932367 106 90 79
-0.012552657 -0.26539904 1.7932367 104 89 78
-0.010759421 -0.26539904 1.7932367 94 78 69
-0.00903163 -0.26733628 1.8063262 88 69 58
-0.0072253044 -0.26733628 1.8063262 83 65 55
-0.0054189786 -0.26733628 1.8063262 83 65 52
-0.0036126522 -0.26733628 1.8063262 84 67 54
-0.0018063261 -0.26733628 1.8063262 85 68 56
