ply
format ascii 1.0
element vertex 1086
property float32 x
property float32 y
property float32 z
property uchar red
property uchar green
property uchar blue
element face 0
property list uint8 int32 vertex_indices
end_header
0.21902832 -0.28968263 1.7663574 216 191 170
0.22079468 -0.28968263 1.7663574 210 186 166
0.22256103 -0.28968263 1.7663574 206 183 163
0.22432739 -0.28968263 1.7663574 207 183 164
0.22609375 -0.28968263 1.7663574 208 182 164
0.22786011 -0.28968263 1.7663574 207 181 163
0.22962646 -0.28968263 1.7663574 207 181 163
0.23139282 -0.28968263 1.7663574 204 180 162
0.23315918 -0.28968263 1.7663574 211 188 170
0.23492554 -0.28968263 1.7663574 210 190 170
0.23669189 -0.28968263 1.7663574 206 186 168
0.23845825 -0.28968263 1.7663574 201 182 163
0.24022461 -0.28968263 1.7663574 204 184 165
0.24199097 -0.28968263 1.7663574 203 182 164
0.24375732 -0.28968263 1.7663574 212 189 171
0.24552368 -0.28968263 1.7663574 215 192 174
0.24729005 -0.28968263 1.7663574 206 185 169
0.2490564 -0.28968263 1.7663574 185 167 152
0.25082275 -0.28968263 1.7663574 209 186 170
0.2525891 -0.28968263 1.7663574 215 191 175
-0.25042304 -0.28694308 1.739049 148 136 136
-0.248684 -0.28694308 1.739049 145 132 132
-0.24694495 -0.28694308 1.739049 146 134 126
-0.24520591 -0.28694308 1.739049 159 146 135
-0.24346685 -0.28694308 1.739049 158 144 130
-0.2417278 -0.28694308 1.739049 157 141 130
-0.23998876 -0.28694308 1.739049 153 139 138
-0.2382497 -0.28694308 1.739049 131 121 120
-0.23651065 -0.28694308 1.739049 124 116 113
-0.23477161 -0.28694308 1.739049 146 133 129
-0.23303257 -0.28694308 1.739049 146 132 125
-0.23129351 -0.28694308 1.739049 161 145 139
-0.22955446 -0.28694308 1.739049 152 139 137
-0.22781542 -0.28694308 1.739049 138 128 129
-0.22607636 -0.28694308 1.739049 128 118 119
-0.22433731 -0.28694308 1.739049 120 112 113
-0.22259827 -0.28694308 1.739049 119 109 110
-0.22085923 -0.28694308 1.739049 124 112 105
-0.21912016 -0.28694308 1.739049 147 132 122
-0.21738112 -0.28694308 1.739049 159 140 124
-0.21564208 -0.28694308 1.739049 160 142 122
-0.21390301 -0.28694308 1.739049 154 137 116
-0.21306235 -0.2881581 1.7464126 159 140 120
-0.21131593 -0.2881581 1.7464126 159 141 120
-0.20956951 -0.2881581 1.7464126 161 144 123
-0.2078231 -0.2881581 1.7464126 163 146 124
-0.2060767 -0.2881581 1.7464126 164 146 125
-0.20433028 -0.2881581 1.7464126 166 148 128
-0.20258386 -0.2881581 1.7464126 160 141 121
-0.20083745 -0.2881581 1.7464126 166 146 125
-0.19909103 -0.2881581 1.7464126 158 139 118
-0.19734463 -0.2881581 1.7464126 149 133 112
-0.19559821 -0.2881581 1.7464126 151 132 114
-0.19385181 -0.2881581 1.7464126 148 129 111
-0.19278567 -0.28917846 1.7525969 150 131 112
-0.19103305 -0.28917846 1.7525969 149 131 111
-0.18928045 -0.28917846 1.7525969 141 124 102
-0.18752787 -0.28917846 1.7525969 142 122 100
-0.18577527 -0.28917846 1.7525969 142 124 102
-0.18402268 -0.28917846 1.7525969 136 119 99
-0.18227008 -0.28917846 1.7525969 130 114 95
-0.18051746 -0.28917846 1.7525969 146 128 107
-0.17876488 -0.28917846 1.7525969 139 121 103
-0.17701228 -0.28917846 1.7525969 144 128 107
-0.1752597 -0.28917846 1.7525969 147 131 110
-0.1735071 -0.28917846 1.7525969 143 124 105
-0.17175448 -0.28917846 1.7525969 140 123 103
-0.1700019 -0.28917846 1.7525969 139 122 103
-0.1682493 -0.28917846 1.7525969 138 121 102
-0.16708836 -0.2902061 1.758825 143 123 105
-0.16532955 -0.2902061 1.758825 137 121 101
-0.1629915 -0.28917846 1.7525969 137 120 101
-0.16123891 -0.28917846 1.7525969 139 123 104
-0.15948631 -0.28917846 1.7525969 144 127 106
-0.15829425 -0.2902061 1.758825 136 122 102
-0.15653542 -0.2902061 1.758825 133 117 99
-0.15422851 -0.28917846 1.7525969 137 121 102
-0.15301777 -0.2902061 1.758825 141 123 104
-0.15125895 -0.2902061 1.758825 139 122 104
-0.14897074 -0.28917846 1.7525969 142 123 105
-0.14721814 -0.28917846 1.7525969 141 124 105
-0.14546555 -0.28917846 1.7525969 143 126 105
-0.14371294 -0.28917846 1.7525969 127 113 95
-0.14246482 -0.2902061 1.758825 127 111 94
-0.14070599 -0.2902061 1.758825 124 109 92
-0.13845515 -0.28917846 1.7525969 124 108 91
-0.13718835 -0.2902061 1.758825 127 112 94
-0.13542952 -0.2902061 1.758825 129 114 96
-0.1336707 -0.2902061 1.758825 123 110 93
-0.13191186 -0.2902061 1.758825 126 112 94
-0.12868962 -0.28694308 1.739049 130 115 96
-0.12606467 -0.2849407 1.7269133 122 109 94
-0.12063372 -0.27645227 1.6754683 112 99 92
-0.116358496 -0.27041063 1.6388521 89 78 73
-0.113815166 -0.2682786 1.6259309 81 68 65
-0.11138421 -0.26635358 1.614264 70 59 59
-0.10976995 -0.26635358 1.614264 70 61 61
-0.10815568 -0.26635358 1.614264 65 55 56
-0.106541425 -0.26635358 1.614264 65 56 57
-0.104518086 -0.26531515 1.6079706 71 62 61
-0.10291012 -0.26531515 1.6079706 70 60 60
-0.10130215 -0.26531515 1.6079706 68 58 59
-0.09937133 -0.26445597 1.6027634 69 60 60
-0.09776857 -0.26445597 1.6027634 66 57 57
-0.0961658 -0.26445597 1.6027634 65 57 57
-0.094563045 -0.26445597 1.6027634 65 57 56
-0.092600435 -0.26343226 1.5965592 63 55 54
-0.09100387 -0.26343226 1.5965592 62 54 53
-0.08940731 -0.26343226 1.5965592 64 55 56
-0.087810755 -0.26343226 1.5965592 60 53 53
-0.08621419 -0.26343226 1.5965592 61 53 54
-0.08461764 -0.26343226 1.5965592 60 52 54
-0.08270095 -0.26241648 1.5904028 64 56 56
-0.081110545 -0.26241648 1.5904028 61 55 54
-0.07952014 -0.26241648 1.5904028 61 54 54
-0.07792974 -0.26241648 1.5904028 62 56 55
-0.07633934 -0.26241648 1.5904028 62 55 56
-0.07450951 -0.26157594 1.5853087 60 54 54
-0.072924204 -0.26157594 1.5853087 62 54 54
-0.07106573 -0.26057437 1.5792385 61 55 54
-0.06922145 -0.25958043 1.5732148 59 53 48
-0.06739117 -0.25859407 1.5672367 59 54 45
-0.06536856 -0.25680506 1.5563942 59 54 44
-0.06309785 -0.25393036 1.5389719 67 56 42
-0.05959462 -0.24582782 1.4898655 136 102 79
-0.057895623 -0.24494302 1.4845031 173 123 90
-0.05641112 -0.24494302 1.4845031 187 131 95
-0.054926615 -0.24494302 1.4845031 197 137 101
-0.053442113 -0.24494302 1.4845031 204 140 109
-0.05195761 -0.24494302 1.4845031 206 143 108
-0.050473105 -0.24494302 1.4845031 206 143 106
-0.048988607 -0.24494302 1.4845031 206 144 107
-0.047333732 -0.24406455 1.4791791 206 144 106
-0.045854554 -0.24406455 1.4791791 204 139 105
-0.044375375 -0.24406455 1.4791791 201 136 103
-0.04271746 -0.24304762 1.4730159 202 139 104
-0.041244447 -0.24304762 1.4730159 203 140 106
-0.03977143 -0.24304762 1.4730159 205 141 107
-0.038298413 -0.24304762 1.4730159 207 142 108
-0.036825396 -0.24304762 1.4730159 207 142 108
-0.035352383 -0.24304762 1.4730159 207 142 107
-0.033879366 -0.24304762 1.4730159 207 142 108
-0.03240635 -0.24304762 1.4730159 208 143 109
-0.030933334 -0.24304762 1.4730159 208 143 110
-0.029460318 -0.24304762 1.4730159 207 142 109
-0.027987303 -0.24304762 1.4730159 207 140 109
-0.026514286 -0.24304762 1.4730159 206 139 109
-0.025041271 -0.24304762 1.4730159 206 139 108
-0.023666866 -0.24406455 1.4791791 209 139 109
-0.022187687 -0.24406455 1.4791791 206 138 108
-0.020708507 -0.24406455 1.4791791 206 137 108
-0.019229328 -0.24406455 1.4791791 205 135 107
-0.01775015 -0.24406455 1.4791791 205 134 107
-0.01627097 -0.24406455 1.4791791 205 133 107
-0.014791792 -0.24406455 1.4791791 202 133 107
-0.013312613 -0.24406455 1.4791791 200 132 106
-0.011833433 -0.24406455 1.4791791 198 131 105
-0.010354253 -0.24406455 1.4791791 197 130 102
-0.008907018 -0.24494302 1.4845031 192 129 101
-0.0074493275 -0.24582782 1.4898655 190 128 101
-0.0063169543 -0.26057437 1.5792385 141 108 91
-0.0050264047 -0.27645227 1.6754683 101 85 65
-0.0034538268 -0.2849407 1.7269133 96 79 62
-0.0017269134 -0.2849407 1.7269133 94 79 65
0.0 -0.28694308 1.739049 90 75 63
0.001739049 -0.28694308 1.739049 88 72 61
0.003478098 -0.28694308 1.739049 90 74 63
0.005217147 -0.28694308 1.739049 89 72 60
0.006956196 -0.28694308 1.739049 90 73 61
0.0086648 -0.28593838 1.7329599 89 72 61
0.010397759 -0.28593838 1.7329599 87 70 58
0.012088393 -0.2849407 1.7269133 88 71 59
0.013815307 -0.2849407 1.7269133 91 75 64
0.01554222 -0.2849407 1.7269133 91 77 65
0.017269133 -0.2849407 1.7269133 93 79 67
0.018996047 -0.2849407 1.7269133 91 77 65
0.02072296 -0.2849407 1.7269133 94 80 67
0.022449873 -0.2849407 1.7269133 96 82 69
0.024176786 -0.2849407 1.7269133 94 80 67
0.0259037 -0.2849407 1.7269133 92 77 65
0.027515406 -0.28375262 1.7197129 94 79 67
0.029235119 -0.28375262 1.7197129 93 78 66
0.030954832 -0.28375262 1.7197129 93 79 67
0.032674544 -0.28375262 1.7197129 90 76 64
0.034394257 -0.28375262 1.7197129 91 77 66
0.03611397 -0.28375262 1.7197129 90 76 64
0.037833683 -0.28375262 1.7197129 88 74 62
0.039553393 -0.28375262 1.7197129 85 70 58
0.04127311 -0.28375262 1.7197129 86 73 60
0.04299282 -0.28375262 1.7197129 88 74 63
0.044712536 -0.28375262 1.7197129 87 72 61
0.04662666 -0.2849407 1.7269133 87 73 62
0.04835357 -0.2849407 1.7269133 88 74 64
0.050080486 -0.2849407 1.7269133 86 71 61
0.0518074 -0.2849407 1.7269133 89 75 64
0.053534314 -0.2849407 1.7269133 89 75 65
0.05526123 -0.2849407 1.7269133 84 70 59
0.05675052 -0.28375262 1.7197129 81 70 60
0.058470238 -0.28375262 1.7197129 79 66 56
0.060441967 -0.2849407 1.7269133 79 66 56
0.06216888 -0.2849407 1.7269133 76 64 53
0.06389579 -0.2849407 1.7269133 81 69 60
0.0656227 -0.2849407 1.7269133 81 69 59
0.06734962 -0.2849407 1.7269133 77 64 56
0.06907653 -0.2849407 1.7269133 79 67 58
0.07080344 -0.2849407 1.7269133 75 63 54
0.07253036 -0.2849407 1.7269133 74 63 53
0.07425727 -0.2849407 1.7269133 73 63 51
0.07598419 -0.2849407 1.7269133 71 60 49
0.0777111 -0.2849407 1.7269133 72 60 48
0.07943801 -0.2849407 1.7269133 70 58 49
0.08116493 -0.2849407 1.7269133 66 53 45
0.08254622 -0.28375262 1.7197129 66 52 44
0.08426593 -0.28375262 1.7197129 67 56 47
0.08598564 -0.28375262 1.7197129 64 55 49
0.08770535 -0.28375262 1.7197129 63 53 47
0.08942507 -0.28375262 1.7197129 60 51 45
0.09045334 -0.2816 1.7066667 58 49 43
0.0918433 -0.2806323 1.7008018 60 49 45
0.09177793 -0.27533376 1.6686896 61 50 49
0.08877728 -0.26157594 1.5853087 59 47 43
0.086750306 -0.25111932 1.5219352 156 110 97
0.0864122 -0.24582782 1.4898655 179 121 104
0.08758569 -0.24494302 1.4845031 183 125 107
0.08907019 -0.24494302 1.4845031 190 128 109
0.09055469 -0.24494302 1.4845031 195 129 110
0.09203919 -0.24494302 1.4845031 196 131 111
0.093523696 -0.24494302 1.4845031 196 131 111
0.0953514 -0.24582782 1.4898655 197 132 110
0.09684126 -0.24582782 1.4898655 203 136 112
0.09797721 -0.24494302 1.4845031 209 140 114
0.099461704 -0.24494302 1.4845031 209 141 114
0.10094621 -0.24494302 1.4845031 210 143 116
0.102430716 -0.24494302 1.4845031 216 145 117
0.103542544 -0.24406455 1.4791791 215 146 117
0.10502172 -0.24406455 1.4791791 216 145 117
0.1065009 -0.24406455 1.4791791 217 146 119
0.10798008 -0.24406455 1.4791791 219 148 121
0.10945926 -0.24406455 1.4791791 219 148 122
0.11093844 -0.24406455 1.4791791 221 150 124
0.11194921 -0.24304762 1.4730159 222 151 127
0.11342222 -0.24304762 1.4730159 224 151 127
0.11537597 -0.24406455 1.4791791 222 150 126
0.11685516 -0.24406455 1.4791791 220 150 125
0.11833434 -0.24406455 1.4791791 222 152 126
0.11981351 -0.24406455 1.4791791 223 154 127
0.12129269 -0.24406455 1.4791791 223 154 127
0.12277187 -0.24406455 1.4791791 221 151 126
0.124251045 -0.24406455 1.4791791 221 152 127
0.12573023 -0.24406455 1.4791791 221 153 129
0.12720941 -0.24406455 1.4791791 223 153 131
0.12868859 -0.24406455 1.4791791 223 154 130
0.13016777 -0.24406455 1.4791791 223 154 132
0.13164695 -0.24406455 1.4791791 225 156 133
0.13312612 -0.24406455 1.4791791 228 157 135
0.1346053 -0.24406455 1.4791791 228 158 136
0.1365743 -0.24494302 1.4845031 228 158 137
0.1385575 -0.24582782 1.4898655 225 159 137
0.14055508 -0.24671903 1.4952669 224 157 137
0.14308785 -0.24852102 1.5061879 194 143 135
0.14565788 -0.2503495 1.5172696 121 100 91
0.14817448 -0.2520494 1.527572 100 86 82
0.15138412 -0.2548814 1.5447358 105 90 91
0.15350378 -0.2558396 1.5505431 107 91 91
0.15447357 -0.2548814 1.5447358 111 93 94
0.15660484 -0.2558396 1.5505431 108 93 91
0.16108234 -0.26057437 1.5792385 109 95 93
0.16813369 -0.2693404 1.632366 117 102 98
0.1768834 -0.2806323 1.7008018 203 179 159
0.18337332 -0.2881581 1.7464126 203 178 158
0.18790449 -0.29249284 1.7726839 199 175 155
0.18967716 -0.29249284 1.7726839 197 172 153
0.1907666 -0.29144898 1.7663574 209 183 163
0.19322254 -0.29249284 1.7726839 208 184 164
0.19499522 -0.29249284 1.7726839 207 181 163
0.19676791 -0.29249284 1.7726839 210 189 167
0.19783203 -0.29144898 1.7663574 210 189 168
0.19959839 -0.29144898 1.7663574 212 189 169
0.20136474 -0.29144898 1.7663574 211 187 164
0.20313111 -0.29144898 1.7663574 218 193 170
0.20489746 -0.29144898 1.7663574 205 183 160
0.20666382 -0.29144898 1.7663574 203 182 158
0.20843017 -0.29144898 1.7663574 201 179 157
0.21019654 -0.29144898 1.7663574 204 182 159
0.2119629 -0.29144898 1.7663574 212 188 165
0.21372925 -0.29144898 1.7663574 203 180 158
0.2154956 -0.29144898 1.7663574 209 186 165
0.21726197 -0.29144898 1.7663574 209 185 166
0.21902832 -0.29144898 1.7663574 218 191 172
0.22079468 -0.29144898 1.7663574 209 186 167
0.22256103 -0.29144898 1.7663574 205 182 163
0.22432739 -0.29144898 1.7663574 206 183 164
0.22609375 -0.29144898 1.7663574 211 186 166
0.22786011 -0.29144898 1.7663574 209 186 165
0.22962646 -0.29144898 1.7663574 208 183 165
0.23139282 -0.29144898 1.7663574 200 177 159
0.23315918 -0.29144898 1.7663574 205 182 164
0.23492554 -0.29144898 1.7663574 209 189 171
0.23669189 -0.29144898 1.7663574 210 189 169
0.23845825 -0.29144898 1.7663574 211 190 170
0.24022461 -0.29144898 1.7663574 189 169 153
0.24199097 -0.29144898 1.7663574 199 180 161
0.24375732 -0.29144898 1.7663574 182 162 147
0.24552368 -0.29144898 1.7663574 212 190 171
0.24729005 -0.29144898 1.7663574 213 192 174
0.2490564 -0.29144898 1.7663574 212 189 173
0.25082275 -0.29144898 1.7663574 207 186 169
0.2525891 -0.29144898 1.7663574 208 186 168
-0.24954621 -0.28767133 1.7329599 77 77 85
-0.24781327 -0.28767133 1.7329599 83 82 91
-0.24608031 -0.28767133 1.7329599 87 83 91
-0.24434733 -0.28767133 1.7329599 87 84 90
-0.24261437 -0.28767133 1.7329599 94 91 96
-0.24088143 -0.28767133 1.7329599 97 94 100
-0.23914847 -0.28767133 1.7329599 97 95 102
-0.23741549 -0.28767133 1.7329599 86 86 94
-0.23568255 -0.28767133 1.7329599 60 60 70
-0.23394959 -0.28767133 1.7329599 72 70 79
-0.23221663 -0.28767133 1.7329599 104 98 102
-0.23048365 -0.28767133 1.7329599 101 102 107
-0.2287507 -0.28767133 1.7329599 86 85 91
-0.22701775 -0.28767133 1.7329599 86 83 91
-0.22528479 -0.28767133 1.7329599 92 91 99
-0.22355182 -0.28767133 1.7329599 89 86 94
-0.22181886 -0.28767133 1.7329599 89 85 90
-0.22085923 -0.28868213 1.739049 100 94 89
-0.21912016 -0.28868213 1.739049 133 121 112
-0.21738112 -0.28868213 1.739049 155 137 121
-0.21564208 -0.28868213 1.739049 147 131 114
-0.21390301 -0.28868213 1.739049 159 138 120
-0.21216397 -0.28868213 1.739049 158 141 121
-0.21042493 -0.28868213 1.739049 157 140 120
-0.20795518 -0.28767133 1.7329599 161 144 124
-0.20622224 -0.28767133 1.7329599 164 147 125
-0.20448926 -0.28767133 1.7329599 161 143 124
-0.20346874 -0.28868213 1.739049 159 142 121
-0.20172967 -0.28868213 1.739049 156 139 119
-0.19999063 -0.28868213 1.739049 156 140 120
-0.19825159 -0.28868213 1.739049 154 136 116
-0.19651252 -0.28868213 1.739049 153 135 115
-0.19477348 -0.28868213 1.739049 149 129 109
-0.19385181 -0.2899045 1.7464126 143 124 106
-0.1921054 -0.2899045 1.7464126 145 128 107
-0.19035898 -0.2899045 1.7464126 141 124 105
-0.18861257 -0.2899045 1.7464126 141 123 102
-0.18686615 -0.2899045 1.7464126 141 121 99
-0.18511973 -0.2899045 1.7464126 133 115 95
-0.18337332 -0.2899045 1.7464126 134 116 96
-0.1816269 -0.2899045 1.7464126 139 119 99
-0.17988051 -0.2899045 1.7464126 138 120 102
-0.1781341 -0.2899045 1.7464126 138 120 102
-0.17638768 -0.2899045 1.7464126 141 123 104
-0.17464127 -0.2899045 1.7464126 146 128 108
-0.17289485 -0.2899045 1.7464126 138 120 102
-0.17114843 -0.2899045 1.7464126 142 123 104
-0.16940202 -0.2899045 1.7464126 146 126 106
-0.1676556 -0.2899045 1.7464126 137 120 101
-0.16649671 -0.2909311 1.7525969 142 123 104
-0.16474411 -0.2909311 1.7525969 142 125 105
-0.1629915 -0.2909311 1.7525969 144 127 106
-0.16181189 -0.29196495 1.758825 146 129 108
-0.15948631 -0.2909311 1.7525969 147 130 108
-0.15773372 -0.2909311 1.7525969 137 121 102
-0.15598112 -0.2909311 1.7525969 139 122 103
-0.15368432 -0.2899045 1.7464126 134 119 100
-0.1519379 -0.2899045 1.7464126 138 120 102
-0.15072332 -0.2909311 1.7525969 135 118 102
-0.14897074 -0.2909311 1.7525969 140 123 105
-0.14669865 -0.2899045 1.7464126 139 123 104
-0.14546555 -0.2909311 1.7525969 141 126 106
-0.14320584 -0.2899045 1.7464126 129 114 97
-0.14196034 -0.2909311 1.7525969 126 111 94
-0.13971302 -0.2899045 1.7464126 125 109 93
-0.13845515 -0.2909311 1.7525969 124 109 92
-0.13670257 -0.2909311 1.7525969 131 115 96
-0.13494995 -0.2909311 1.7525969 129 114 96
-0.1336707 -0.29196495 1.758825 123 108 92
-0.13144477 -0.2909311 1.7525969 125 110 93
-0.12923452 -0.2899045 1.7464126 133 116 97
-0.12650608 -0.28767133 1.7329599 128 111 96
-0.120145656 -0.27700248 1.6686896 108 95 87
-0.11589798 -0.27097276 1.632366 91 79 75
-0.11299848 -0.26796782 1.614264 77 66 61
-0.11138421 -0.26796782 1.614264 74 62 59
-0.109342 -0.26692313 1.6079706 70 60 58
-0.10815568 -0.26796782 1.614264 69 60 58
-0.10612606 -0.26692313 1.6079706 68 58 57
-0.104518086 -0.26692313 1.6079706 69 60 58
-0.10291012 -0.26692313 1.6079706 66 56 54
-0.1009741 -0.2660587 1.6027634 67 59 58
-0.09937133 -0.2660587 1.6027634 68 59 58
-0.09776857 -0.2660587 1.6027634 67 57 57
-0.095793545 -0.2650288 1.5965592 66 58 58
-0.09419699 -0.2650288 1.5965592 64 56 56
-0.092600435 -0.2650288 1.5965592 66 58 58
-0.09100387 -0.2650288 1.5965592 63 55 55
-0.08940731 -0.2650288 1.5965592 63 55 56
-0.087810755 -0.2650288 1.5965592 61 54 54
-0.08621419 -0.2650288 1.5965592 59 53 53
-0.084291354 -0.26400685 1.5904028 59 52 54
-0.08270095 -0.26400685 1.5904028 57 49 49
-0.081110545 -0.26400685 1.5904028 57 50 49
-0.07952014 -0.26400685 1.5904028 61 54 54
-0.077680126 -0.2631612 1.5853087 60 53 53
-0.07609482 -0.2631612 1.5853087 61 54 55
-0.07450951 -0.2631612 1.5853087 59 52 52
-0.072924204 -0.2631612 1.5853087 58 52 51
-0.07106573 -0.2621536 1.5792385 61 53 53
-0.06922145 -0.26115367 1.5732148 59 52 48
-0.06739117 -0.26016128 1.5672367 56 51 42
-0.065574765 -0.25917646 1.561304 59 52 42
-0.06309785 -0.25546932 1.5389719 82 68 51
-0.059380125 -0.24642752 1.4845031 152 113 87
-0.05744762 -0.24452065 1.4730159 178 127 94
-0.056208808 -0.24554373 1.4791791 189 134 101
-0.05472963 -0.24554373 1.4791791 195 138 106
-0.05325045 -0.24554373 1.4791791 198 141 106
-0.051771272 -0.24554373 1.4791791 205 142 107
-0.05029209 -0.24554373 1.4791791 207 142 107
-0.04881291 -0.24554373 1.4791791 207 142 106
-0.047136508 -0.24452065 1.4730159 206 143 104
-0.045663495 -0.24452065 1.4730159 207 140 106
-0.044190474 -0.24452065 1.4730159 202 138 103
-0.04271746 -0.24452065 1.4730159 203 139 105
-0.041244447 -0.24452065 1.4730159 203 140 106
-0.03977143 -0.24452065 1.4730159 204 142 107
-0.038298413 -0.24452065 1.4730159 208 143 109
-0.036825396 -0.24452065 1.4730159 208 143 109
-0.035352383 -0.24452065 1.4730159 209 141 108
-0.033879366 -0.24452065 1.4730159 208 139 108
-0.03240635 -0.24452065 1.4730159 211 141 110
-0.030933334 -0.24452065 1.4730159 209 140 111
-0.029460318 -0.24452065 1.4730159 209 139 110
-0.027987303 -0.24452065 1.4730159 208 139 110
-0.026514286 -0.24452065 1.4730159 210 138 109
-0.025041271 -0.24452065 1.4730159 208 138 108
-0.023666866 -0.24554373 1.4791791 207 136 108
-0.022187687 -0.24554373 1.4791791 205 135 107
-0.020708507 -0.24554373 1.4791791 205 135 108
-0.019229328 -0.24554373 1.4791791 203 134 106
-0.01775015 -0.24554373 1.4791791 201 133 106
-0.01627097 -0.24554373 1.4791791 201 131 105
-0.014791792 -0.24554373 1.4791791 201 131 105
-0.013312613 -0.24554373 1.4791791 199 130 105
-0.011833433 -0.24554373 1.4791791 199 130 104
-0.010354253 -0.24554373 1.4791791 198 129 102
-0.008907018 -0.24642752 1.4845031 199 129 102
-0.0074225157 -0.24642752 1.4845031 195 128 101
-0.006178943 -0.25642616 1.5447358 163 116 96
-0.004916556 -0.27204943 1.6388521 99 81 65
-0.0034016038 -0.2823331 1.7008018 92 77 60
-0.0017269134 -0.28666762 1.7269133 95 76 65
0.0 -0.28868213 1.739049 94 75 65
0.001739049 -0.28868213 1.739049 92 74 64
0.0034659198 -0.28767133 1.7329599 88 71 59
0.0051988796 -0.28767133 1.7329599 87 72 61
0.0069318395 -0.28767133 1.7329599 88 72 61
0.008634566 -0.28666762 1.7269133 90 74 63
0.01036148 -0.28666762 1.7269133 90 74 64
0.012088393 -0.28666762 1.7269133 90 74 63
0.013815307 -0.28666762 1.7269133 92 76 65
0.01554222 -0.28666762 1.7269133 91 74 63
0.017269133 -0.28666762 1.7269133 90 75 63
0.018996047 -0.28666762 1.7269133 92 78 66
0.02072296 -0.28666762 1.7269133 94 79 66
0.022449873 -0.28666762 1.7269133 96 81 68
0.024176786 -0.28666762 1.7269133 96 81 69
0.025795693 -0.28547233 1.7197129 95 80 67
0.027515406 -0.28547233 1.7197129 93 78 66
0.029235119 -0.28547233 1.7197129 94 78 67
0.030954832 -0.28547233 1.7197129 92 78 66
0.032674544 -0.28547233 1.7197129 92 78 66
0.034394257 -0.28547233 1.7197129 91 76 65
0.03611397 -0.28547233 1.7197129 92 77 66
0.037833683 -0.28547233 1.7197129 92 78 66
0.039553393 -0.28547233 1.7197129 88 73 61
0.04127311 -0.28547233 1.7197129 87 73 61
0.04299282 -0.28547233 1.7197129 88 75 63
0.044712536 -0.28547233 1.7197129 89 75 63
0.046432246 -0.28547233 1.7197129 90 75 64
0.04815196 -0.28547233 1.7197129 90 75 65
0.049871672 -0.28547233 1.7197129 88 73 63
0.051591385 -0.28547233 1.7197129 88 73 63
0.0533111 -0.28547233 1.7197129 88 74 63
0.05503081 -0.28547233 1.7197129 85 72 61
0.05675052 -0.28547233 1.7197129 81 69 59
0.058715053 -0.28666762 1.7269133 83 70 60
0.060441967 -0.28666762 1.7269133 79 66 56
0.06216888 -0.28666762 1.7269133 76 65 54
0.06389579 -0.28666762 1.7269133 80 68 58
0.0656227 -0.28666762 1.7269133 78 66 56
0.0670688 -0.28547233 1.7197129 77 64 56
0.06878851 -0.28547233 1.7197129 77 65 56
0.07050823 -0.28547233 1.7197129 78 65 55
0.07253036 -0.28666762 1.7269133 75 64 52
0.07394765 -0.28547233 1.7197129 76 64 52
0.07566737 -0.28547233 1.7197129 76 65 52
0.07738708 -0.28547233 1.7197129 71 59 47
0.079106785 -0.28547233 1.7197129 72 60 51
0.080826506 -0.28547233 1.7197129 70 57 48
0.08226039 -0.28448385 1.7137581 69 55 46
0.083974145 -0.28448385 1.7137581 69 55 47
0.08533333 -0.28330666 1.7066667 68 56 48
0.08704 -0.28330666 1.7066667 68 56 48
0.08874667 -0.28330666 1.7066667 68 55 47
0.0901425 -0.2823331 1.7008018 67 55 46
0.0918433 -0.2823331 1.7008018 69 56 51
0.091469534 -0.2760717 1.6630825 67 55 51
0.087765254 -0.26016128 1.5672367 80 63 58
0.08585271 -0.25002718 1.5061879 160 111 94
0.08610118 -0.24642752 1.4845031 180 120 101
0.08727157 -0.24554373 1.4791791 182 124 102
0.08875075 -0.24554373 1.4791791 185 125 103
0.09022993 -0.24554373 1.4791791 189 127 107
0.09170911 -0.24554373 1.4791791 192 129 110
0.093188286 -0.24554373 1.4791791 193 129 110
0.0950082 -0.24642752 1.4845031 197 132 110
0.09649271 -0.24642752 1.4845031 205 135 111
0.09797721 -0.24642752 1.4845031 208 139 112
0.099461704 -0.24642752 1.4845031 206 139 115
0.10094621 -0.24642752 1.4845031 209 142 117
0.102063365 -0.24554373 1.4791791 214 145 120
0.103542544 -0.24554373 1.4791791 214 146 121
0.10502172 -0.24554373 1.4791791 216 144 121
0.1065009 -0.24554373 1.4791791 215 145 121
0.10798008 -0.24554373 1.4791791 219 146 121
0.10945926 -0.24554373 1.4791791 220 149 123
0.110476196 -0.24452065 1.4730159 222 150 123
0.11194921 -0.24452065 1.4730159 220 152 125
0.11342222 -0.24452065 1.4730159 221 153 126
0.11537597 -0.24554373 1.4791791 223 154 126
0.11685516 -0.24554373 1.4791791 222 153 126
0.11833434 -0.24554373 1.4791791 222 151 125
0.11981351 -0.24554373 1.4791791 221 151 125
0.12129269 -0.24554373 1.4791791 222 152 126
0.12277187 -0.24554373 1.4791791 223 153 126
0.124251045 -0.24554373 1.4791791 223 153 128
0.12573023 -0.24554373 1.4791791 223 154 130
0.12720941 -0.24554373 1.4791791 225 154 130
0.12868859 -0.24554373 1.4791791 225 155 131
0.13016777 -0.24554373 1.4791791 225 155 131
0.13164695 -0.24554373 1.4791791 225 156 131
0.13312612 -0.24554373 1.4791791 226 157 133
0.1346053 -0.24554373 1.4791791 228 158 133
0.13608448 -0.24554373 1.4791791 228 158 135
0.1380588 -0.24642752 1.4845031 226 158 135
0.14004736 -0.24731767 1.4898655 226 158 136
0.14205036 -0.2482143 1.4952669 226 158 139
0.14406791 -0.24911745 1.5007075 224 157 137
0.14663573 -0.2509436 1.5117085 159 124 118
0.14914966 -0.25264126 1.5219352 111 92 91
0.15179183 -0.25451964 1.5332508 110 93 93
0.15389718 -0.25546932 1.5389719 111 94 94
0.15485834 -0.25451964 1.5332508 110 94 94
0.1581554 -0.25739014 1.5505431 111 95 94
0.16328679 -0.2631612 1.5853087 113 97 94
0.17100689 -0.27295327 1.6442969 145 126 113
0.17994459 -0.28448385 1.7137581 210 180 161
0.18577527 -0.2909311 1.7525969 205 180 160
0.18900025 -0.29321533 1.7663574 205 180 160
0.1907666 -0.29321533 1.7663574 206 181 161
0.19253296 -0.29321533 1.7663574 213 187 166
0.19499522 -0.29426554 1.7726839 207 181 162
0.19606568 -0.29321533 1.7663574 208 185 165
0.19783203 -0.29321533 1.7663574 214 189 169
0.19959839 -0.29321533 1.7663574 209 189 168
0.20136474 -0.29321533 1.7663574 196 174 154
0.20313111 -0.29321533 1.7663574 207 185 163
0.20489746 -0.29321533 1.7663574 214 192 167
0.20666382 -0.29321533 1.7663574 202 179 157
0.20843017 -0.29321533 1.7663574 178 156 136
0.21019654 -0.29321533 1.7663574 204 179 157
0.21105899 -0.29196495 1.758825 212 187 164
0.21281782 -0.29196495 1.758825 203 180 158
0.21457665 -0.29196495 1.758825 209 186 163
0.21633546 -0.29196495 1.758825 209 186 165
0.2180943 -0.29196495 1.758825 213 189 168
0.21985312 -0.29196495 1.758825 209 188 167
0.22161193 -0.29196495 1.758825 211 187 168
0.22337078 -0.29196495 1.758825 213 187 168
0.22512959 -0.29196495 1.758825 197 175 157
0.22688842 -0.29196495 1.758825 187 166 148
0.22864725 -0.29196495 1.758825 189 166 148
0.23040606 -0.29196495 1.758825 193 168 149
0.23216489 -0.29196495 1.758825 202 175 156
0.23392372 -0.29196495 1.758825 207 185 164
0.23568255 -0.29196495 1.758825 207 186 167
0.23744136 -0.29196495 1.758825 213 190 170
0.23920019 -0.29196495 1.758825 212 189 170
0.24095902 -0.29196495 1.758825 215 193 173
0.24271785 -0.29196495 1.758825 212 189 170
0.24447668 -0.29196495 1.758825 207 184 166
0.24623549 -0.29196495 1.758825 212 188 170
0.24799432 -0.29196495 1.758825 217 193 175
0.24975315 -0.29196495 1.758825 202 180 163
0.25151196 -0.29196495 1.758825 198 177 159
-0.24954621 -0.2894043 1.7329599 65 68 78
-0.24781327 -0.2894043 1.7329599 66 69 79
-0.24608031 -0.2894043 1.7329599 62 65 75
-0.24434733 -0.2894043 1.7329599 72 75 84
-0.24261437 -0.2894043 1.7329599 72 75 84
-0.24088143 -0.2894043 1.7329599 69 72 81
-0.23914847 -0.2894043 1.7329599 72 75 84
-0.23741549 -0.2894043 1.7329599 71 72 84
-0.23568255 -0.2894043 1.7329599 63 66 77
-0.23394959 -0.2894043 1.7329599 62 64 76
-0.23221663 -0.2894043 1.7329599 78 78 89
-0.23048365 -0.2894043 1.7329599 71 72 85
-0.2287507 -0.2894043 1.7329599 68 69 82
-0.22701775 -0.2894043 1.7329599 43 44 59
-0.22528479 -0.2894043 1.7329599 63 62 75
-0.22355182 -0.2894043 1.7329599 84 82 90
-0.22181886 -0.2894043 1.7329599 124 117 123
-0.2200859 -0.2894043 1.7329599 115 107 103
-0.21835293 -0.2894043 1.7329599 141 129 117
-0.21738112 -0.2904212 1.739049 164 146 128
-0.21564208 -0.2904212 1.739049 168 148 129
-0.21390301 -0.2904212 1.739049 163 142 123
-0.21216397 -0.2904212 1.739049 163 143 125
-0.21042493 -0.2904212 1.739049 162 144 124
-0.20868589 -0.2904212 1.739049 159 142 121
-0.20694682 -0.2904212 1.739049 165 147 126
-0.20520778 -0.2904212 1.739049 163 145 125
-0.20346874 -0.2904212 1.739049 160 142 122
-0.20172967 -0.2904212 1.739049 157 140 119
-0.19999063 -0.2904212 1.739049 158 139 118
-0.19825159 -0.2904212 1.739049 155 137 116
-0.19651252 -0.2904212 1.739049 153 136 114
-0.19477348 -0.2904212 1.739049 145 128 107
-0.19303444 -0.2904212 1.739049 143 125 105
-0.19129539 -0.2904212 1.739049 143 124 104
-0.18955633 -0.2904212 1.739049 137 121 102
-0.18781729 -0.2904212 1.739049 139 120 101
-0.18607824 -0.2904212 1.739049 136 117 95
-0.18433918 -0.2904212 1.739049 126 109 90
-0.18260014 -0.2904212 1.739049 131 113 93
-0.18086109 -0.2904212 1.739049 136 116 96
-0.17912205 -0.2904212 1.739049 144 125 105
-0.1781341 -0.29165092 1.7464126 142 124 105
-0.17564395 -0.2904212 1.739049 139 122 103
-0.1739049 -0.2904212 1.739049 143 125 106
-0.17216584 -0.2904212 1.739049 135 118 100
-0.1704268 -0.2904212 1.739049 143 126 105
-0.16868775 -0.2904212 1.739049 146 127 106
-0.1676556 -0.29165092 1.7464126 140 124 104
-0.1659092 -0.29165092 1.7464126 138 122 103
-0.16416278 -0.29165092 1.7464126 143 125 106
-0.16241638 -0.29165092 1.7464126 140 122 103
-0.16066997 -0.29165092 1.7464126 142 125 105
-0.15892355 -0.29165092 1.7464126 143 126 106
-0.15717714 -0.29165092 1.7464126 144 127 106
-0.15543072 -0.29165092 1.7464126 141 124 104
-0.15368432 -0.29165092 1.7464126 143 125 105
-0.15247592 -0.2926837 1.7525969 134 119 101
-0.15072332 -0.2926837 1.7525969 135 119 102
-0.14897074 -0.2926837 1.7525969 145 127 108
-0.14669865 -0.29165092 1.7464126 142 125 106
-0.14495225 -0.29165092 1.7464126 140 124 104
-0.14320584 -0.29165092 1.7464126 139 122 103
-0.14145942 -0.29165092 1.7464126 133 117 98
-0.13971302 -0.29165092 1.7464126 127 111 94
-0.13845515 -0.2926837 1.7525969 126 111 93
-0.13670257 -0.2926837 1.7525969 132 115 96
-0.13494995 -0.2926837 1.7525969 128 112 95
-0.1336707 -0.29372376 1.758825 125 111 93
-0.13144477 -0.2926837 1.7525969 125 110 93
-0.12923452 -0.29165092 1.7464126 123 109 92
-0.12650608 -0.2894043 1.7329599 124 107 95
-0.120145656 -0.27867118 1.6686896 103 90 83
-0.115063086 -0.27064136 1.6206069 88 75 71
-0.11299848 -0.2695821 1.614264 74 62 59
-0.11094997 -0.26853108 1.6079706 72 62 59
-0.109342 -0.26853108 1.6079706 71 61 59
-0.10773403 -0.26853108 1.6079706 70 61 60
-0.10612606 -0.26853108 1.6079706 65 56 54
-0.10417962 -0.2676615 1.6027634 67 58 56
-0.10257686 -0.2676615 1.6027634 68 59 57
-0.1009741 -0.2676615 1.6027634 65 57 55
-0.09937133 -0.2676615 1.6027634 65 56 55
-0.09739011 -0.26662537 1.5965592 68 58 58
-0.095793545 -0.26662537 1.5965592 62 52 53
-0.09419699 -0.26662537 1.5965592 65 58 57
-0.092600435 -0.26662537 1.5965592 63 55 55
-0.090652965 -0.26559725 1.5904028 65 56 56
-0.089062564 -0.26559725 1.5904028 63 56 55
-0.087472156 -0.26559725 1.5904028 61 55 54
-0.085881755 -0.26559725 1.5904028 60 53 54
-0.084291354 -0.26559725 1.5904028 62 54 55
-0.08270095 -0.26559725 1.5904028 62 55 55
-0.081110545 -0.26559725 1.5904028 64 57 56
-0.07926543 -0.26474655 1.5853087 63 55 55
-0.077680126 -0.26474655 1.5853087 61 54 53
-0.07609482 -0.26474655 1.5853087 60 53 52
-0.07450951 -0.26474655 1.5853087 58 52 51
-0.072924204 -0.26474655 1.5853087 59 52 51
-0.07106573 -0.26373285 1.5792385 60 52 52
-0.06922145 -0.26272687 1.5732148 58 49 45
-0.06739117 -0.26172853 1.5672367 56 49 40
-0.06512281 -0.2589407 1.5505431 59 49 35
-0.06286328 -0.25605288 1.5332508 116 93 72
-0.05916717 -0.24702291 1.4791791 181 129 97
-0.05744762 -0.24599366 1.4730159 199 139 107
-0.056208808 -0.24702291 1.4791791 205 143 109
-0.05472963 -0.24702291 1.4791791 205 144 109
-0.05325045 -0.24702291 1.4791791 204 143 109
-0.051771272 -0.24702291 1.4791791 206 142 108
-0.05029209 -0.24702291 1.4791791 206 141 108
-0.04881291 -0.24702291 1.4791791 204 141 106
-0.047136508 -0.24599366 1.4730159 202 140 104
-0.045663495 -0.24599366 1.4730159 204 138 105
-0.044190474 -0.24599366 1.4730159 203 138 105
-0.04271746 -0.24599366 1.4730159 205 140 107
-0.041244447 -0.24599366 1.4730159 204 140 106
-0.03977143 -0.24599366 1.4730159 206 142 108
-0.038298413 -0.24599366 1.4730159 208 143 109
-0.036825396 -0.24599366 1.4730159 210 143 109
-0.035352383 -0.24599366 1.4730159 208 141 108
-0.033879366 -0.24599366 1.4730159 207 140 107
-0.03240635 -0.24599366 1.4730159 208 138 110
-0.030933334 -0.24599366 1.4730159 209 138 110
-0.029460318 -0.24599366 1.4730159 207 137 110
-0.027987303 -0.24599366 1.4730159 206 137 110
-0.026514286 -0.24599366 1.4730159 207 137 109
-0.025041271 -0.24599366 1.4730159 206 137 110
-0.023666866 -0.24702291 1.4791791 205 133 107
-0.022187687 -0.24702291 1.4791791 204 133 107
-0.020708507 -0.24702291 1.4791791 203 134 106
-0.019229328 -0.24702291 1.4791791 203 134 107
-0.01775015 -0.24702291 1.4791791 201 132 106
-0.01627097 -0.24702291 1.4791791 200 132 106
-0.014791792 -0.24702291 1.4791791 201 131 106
-0.013312613 -0.24702291 1.4791791 200 130 105
-0.011833433 -0.24702291 1.4791791 199 130 104
-0.010354253 -0.24702291 1.4791791 198 129 103
-0.008875075 -0.24702291 1.4791791 198 129 102
-0.007395896 -0.24702291 1.4791791 196 129 101
-0.006087741 -0.25416318 1.5219352 182 123 99
-0.0048239115 -0.26853108 1.6079706 110 88 74
-0.0034016038 -0.2840339 1.7008018 97 79 64
-0.0017269134 -0.28839454 1.7269133 99 80 70
0.0 -0.2894043 1.7329599 99 81 71
0.0017329599 -0.2894043 1.7329599 101 83 73
0.0034538268 -0.28839454 1.7269133 92 75 64
0.00518074 -0.28839454 1.7269133 88 72 60
0.0069076535 -0.28839454 1.7269133 87 72 59
0.008634566 -0.28839454 1.7269133 87 70 59
0.01036148 -0.28839454 1.7269133 93 76 65
0.0119963065 -0.2861976 1.7137581 94 77 67
0.013710065 -0.2861976 1.7137581 93 77 65
0.015423823 -0.2861976 1.7137581 95 79 67
0.017137581 -0.2861976 1.7137581 96 80 69
0.01885134 -0.2861976 1.7137581 93 78 66
0.020565098 -0.2861976 1.7137581 93 77 65
0.022278856 -0.2861976 1.7137581 99 82 70
0.023992613 -0.2861976 1.7137581 98 82 70
0.025706371 -0.2861976 1.7137581 97 80 68
0.02742013 -0.2861976 1.7137581 94 78 67
0.029133888 -0.2861976 1.7137581 96 81 70
0.030847646 -0.2861976 1.7137581 94 79 68
0.032561406 -0.2861976 1.7137581 92 78 67
0.034275163 -0.2861976 1.7137581 93 78 66
0.035988923 -0.2861976 1.7137581 92 78 66
0.03770268 -0.2861976 1.7137581 94 79 68
0.039416436 -0.2861976 1.7137581 90 75 63
0.041130196 -0.2861976 1.7137581 86 72 60
0.042843953 -0.2861976 1.7137581 89 75 64
0.044557713 -0.2861976 1.7137581 89 75 63
0.04627147 -0.2861976 1.7137581 89 74 64
0.047985226 -0.2861976 1.7137581 88 73 63
0.049698986 -0.2861976 1.7137581 88 73 63
0.051412743 -0.2861976 1.7137581 86 73 62
0.053126503 -0.2861976 1.7137581 87 73 63
0.05503081 -0.28719205 1.7197129 87 73 63
0.05675052 -0.28719205 1.7197129 83 72 61
0.058470238 -0.28719205 1.7197129 84 71 61
0.060189947 -0.28719205 1.7197129 79 67 57
0.061909664 -0.28719205 1.7197129 74 63 52
0.063629374 -0.28719205 1.7197129 74 61 50
0.06534909 -0.28719205 1.7197129 78 66 55
0.0670688 -0.28719205 1.7197129 78 65 56
0.068550326 -0.2861976 1.7137581 78 65 56
0.070264086 -0.2861976 1.7137581 78 64 55
0.07197785 -0.2861976 1.7137581 79 67 54
0.0736916 -0.2861976 1.7137581 76 65 52
0.07566737 -0.28719205 1.7197129 73 62 49
0.07711912 -0.2861976 1.7137581 74 61 48
0.07883287 -0.2861976 1.7137581 73 60 50
0.08054663 -0.2861976 1.7137581 73 60 50
0.081638485 -0.2840339 1.7008018 73 59 50
0.0833393 -0.2840339 1.7008018 71 56 48
0.08504009 -0.2840339 1.7008018 70 57 48
0.08674089 -0.2840339 1.7008018 68 56 46
0.0884417 -0.2840339 1.7008018 68 56 46
0.0897723 -0.28286743 1.693817 70 57 48
0.0918433 -0.2840339 1.7008018 71 58 50
0.09079832 -0.2756967 1.6508784 74 61 55
0.086830415 -0.2589407 1.5505431 98 77 67
0.08554033 -0.25061816 1.5007075 159 107 90
0.08579239 -0.24702291 1.4791791 179 118 98
0.08727157 -0.24702291 1.4791791 181 122 100
0.08875075 -0.24702291 1.4791791 183 124 101
0.09022993 -0.24702291 1.4791791 186 126 105
0.09170911 -0.24702291 1.4791791 187 125 107
0.092800006 -0.24599366 1.4730159 192 129 110
0.0950082 -0.24791203 1.4845031 198 132 110
0.09649271 -0.24791203 1.4845031 203 134 111
0.09797721 -0.24791203 1.4845031 206 137 111
0.099461704 -0.24791203 1.4845031 207 140 114
0.10058418 -0.24702291 1.4791791 210 142 117
0.102063365 -0.24702291 1.4791791 212 144 119
0.103542544 -0.24702291 1.4791791 213 145 120
0.10502172 -0.24702291 1.4791791 215 145 120
0.1065009 -0.24702291 1.4791791 216 145 120
0.10798008 -0.24702291 1.4791791 219 146 122
0.10900317 -0.24599366 1.4730159 220 149 123
0.110476196 -0.24599366 1.4730159 222 150 123
0.11194921 -0.24599366 1.4730159 219 152 126
0.11342222 -0.24599366 1.4730159 219 152 125
0.11489524 -0.24599366 1.4730159 219 152 126
0.11636826 -0.24599366 1.4730159 220 152 125
0.11784127 -0.24599366 1.4730159 220 152 125
0.11931428 -0.24599366 1.4730159 218 148 123
0.12078731 -0.24599366 1.4730159 218 149 124
0.122260325 -0.24599366 1.4730159 220 150 124
0.123733334 -0.24599366 1.4730159 223 154 128
0.12520635 -0.24599366 1.4730159 224 156 130
0.12667936 -0.24599366 1.4730159 224 156 130
0.12815239 -0.24599366 1.4730159 224 156 130
0.13016777 -0.24702291 1.4791791 224 154 130
0.13164695 -0.24702291 1.4791791 223 155 129
0.13312612 -0.24702291 1.4791791 226 157 131
0.1346053 -0.24702291 1.4791791 227 158 133
0.13608448 -0.24702291 1.4791791 228 158 134
0.13756366 -0.24702291 1.4791791 225 159 135
0.13904284 -0.24702291 1.4791791 225 159 135
0.14102781 -0.24791203 1.4845031 225 159 135
0.14354563 -0.24970958 1.4952669 226 159 135
0.14556864 -0.25061816 1.5007075 227 152 136
0.14814743 -0.25245532 1.5117085 192 143 134
0.15020968 -0.25338402 1.5172696 113 96 92
0.15219353 -0.25416318 1.5219352 108 92 88
0.15371546 -0.25416318 1.5219352 108 93 91
0.15581235 -0.2551045 1.527572 110 93 95
0.15970594 -0.2589407 1.5505431 110 93 94
0.16604216 -0.26662537 1.5965592 116 99 96
0.17462365 -0.2777348 1.6630825 192 165 148
0.18305281 -0.28839454 1.7269133 212 186 166
0.18819427 -0.29372376 1.758825 209 183 163
0.1907666 -0.2949817 1.7663574 209 183 163
0.19322254 -0.2960382 1.7726839 213 188 167
0.19499522 -0.2960382 1.7726839 214 188 169
0.19606568 -0.2949817 1.7663574 211 191 170
0.19698839 -0.29372376 1.758825 210 188 167
0.19874722 -0.29372376 1.758825 209 189 167
0.20050605 -0.29372376 1.758825 218 196 175
0.20226486 -0.29372376 1.758825 204 180 160
0.2040237 -0.29372376 1.758825 205 182 161
0.20578252 -0.29372376 1.758825 203 182 159
0.20754133 -0.29372376 1.758825 207 186 161
0.20930018 -0.29372376 1.758825 200 177 155
0.21031162 -0.2926837 1.7525969 209 185 163
0.21206422 -0.2926837 1.7525969 206 182 160
0.21381682 -0.2926837 1.7525969 208 184 163
0.2155694 -0.2926837 1.7525969 208 184 163
0.217322 -0.2926837 1.7525969 209 186 165
0.2190746 -0.2926837 1.7525969 208 185 164
0.2208272 -0.2926837 1.7525969 211 188 166
0.2225798 -0.2926837 1.7525969 208 183 163
0.22433239 -0.2926837 1.7525969 210 187 166
0.22608499 -0.2926837 1.7525969 204 181 161
0.22783759 -0.2926837 1.7525969 204 179 159
0.22959019 -0.2926837 1.7525969 198 172 152
0.23134279 -0.2926837 1.7525969 202 176 155
0.23309538 -0.2926837 1.7525969 201 179 157
0.23484798 -0.2926837 1.7525969 207 185 164
0.23660058 -0.2926837 1.7525969 203 182 162
0.23835318 -0.2926837 1.7525969 202 180 162
0.24010578 -0.2926837 1.7525969 188 168 151
0.24185836 -0.2926837 1.7525969 203 179 161
0.24361096 -0.2926837 1.7525969 212 187 168
0.24536356 -0.2926837 1.7525969 211 189 170
0.24711615 -0.2926837 1.7525969 216 193 173
0.24886876 -0.2926837 1.7525969 213 191 172
0.25062135 -0.2926837 1.7525969 198 174 158
-0.24763866 -0.28891176 1.7197129 69 72 84
-0.24591894 -0.28891176 1.7197129 70 73 85
-0.24419922 -0.28891176 1.7197129 69 72 83
-0.2424795 -0.28891176 1.7197129 67 70 81
-0.24075979 -0.28891176 1.7197129 66 70 81
-0.23904009 -0.28891176 1.7197129 69 72 83
-0.23732038 -0.28891176 1.7197129 71 74 85
-0.23560067 -0.28891176 1.7197129 63 68 79
-0.23388095 -0.28891176 1.7197129 56 61 72
-0.23216124 -0.28891176 1.7197129 56 61 72
-0.23044153 -0.28891176 1.7197129 60 64 76
-0.22872181 -0.28891176 1.7197129 61 64 78
-0.22700208 -0.28891176 1.7197129 74 77 89
-0.22528239 -0.28891176 1.7197129 62 64 77
-0.22356267 -0.28891176 1.7197129 73 75 86
-0.22184296 -0.28891176 1.7197129 87 84 91
-0.22012325 -0.28891176 1.7197129 99 95 97
-0.21931799 -0.29012144 1.7269133 134 126 120
-0.21759108 -0.29012144 1.7269133 151 140 126
-0.21586417 -0.29012144 1.7269133 158 140 123
-0.21413726 -0.29012144 1.7269133 161 143 125
-0.21241035 -0.29012144 1.7269133 160 140 122
-0.21068342 -0.29012144 1.7269133 163 143 125
-0.20895651 -0.29012144 1.7269133 164 146 125
-0.2072296 -0.29012144 1.7269133 161 144 123
-0.20550269 -0.29012144 1.7269133 166 148 127
-0.20377578 -0.29012144 1.7269133 163 144 123
-0.20204885 -0.29012144 1.7269133 163 144 123
-0.20032194 -0.29012144 1.7269133 159 141 120
-0.19859503 -0.29012144 1.7269133 160 141 119
-0.19755742 -0.29113728 1.7329599 155 137 115
-0.19582446 -0.29113728 1.7329599 155 138 114
-0.19341429 -0.29012144 1.7269133 144 127 105
-0.19235855 -0.29113728 1.7329599 140 123 103
-0.19062558 -0.29113728 1.7329599 146 126 106
-0.18889262 -0.29113728 1.7329599 136 119 101
-0.18715967 -0.29113728 1.7329599 136 117 99
-0.18542671 -0.29113728 1.7329599 137 117 95
-0.18369374 -0.29113728 1.7329599 136 117 96
-0.18260014 -0.2921602 1.739049 137 118 97
-0.18086109 -0.2921602 1.739049 140 120 99
-0.17912205 -0.2921602 1.739049 139 121 103
-0.17738299 -0.2921602 1.739049 139 121 103
-0.17564395 -0.2921602 1.739049 144 126 106
-0.1739049 -0.2921602 1.739049 143 126 105
-0.17216584 -0.2921602 1.739049 143 125 105
-0.16983007 -0.29113728 1.7329599 146 128 107
-0.16868775 -0.2921602 1.739049 144 126 106
-0.1669487 -0.2921602 1.739049 136 119 100
-0.16520965 -0.2921602 1.739049 138 121 102
-0.16416278 -0.2933973 1.7464126 142 125 105
-0.16241638 -0.2933973 1.7464126 141 122 104
-0.1599925 -0.2921602 1.739049 136 120 101
-0.15825345 -0.2921602 1.739049 140 122 104
-0.15717714 -0.2933973 1.7464126 137 121 102
-0.15543072 -0.2933973 1.7464126 142 125 105
-0.15368432 -0.2933973 1.7464126 144 127 106
-0.15129726 -0.2921602 1.739049 141 124 105
-0.14955822 -0.2921602 1.739049 138 123 105
-0.14781916 -0.2921602 1.739049 139 123 105
-0.1460801 -0.2921602 1.739049 136 120 102
-0.14434107 -0.2921602 1.739049 138 122 102
-0.14260203 -0.2921602 1.739049 143 125 105
-0.14086296 -0.2921602 1.739049 133 117 98
-0.13912392 -0.2921602 1.739049 134 117 98
-0.13690382 -0.29113728 1.7329599 131 116 96
-0.1356458 -0.2921602 1.739049 129 113 94
-0.13447377 -0.2933973 1.7464126 126 111 93
-0.13319735 -0.29443628 1.7525969 127 112 94
-0.13144477 -0.29443628 1.7525969 125 110 93
-0.12868962 -0.2921602 1.739049 125 111 94
-0.12458667 -0.28672 1.7066667 120 105 94
-0.118389376 -0.27624187 1.6442969 91 78 72
-0.11461275 -0.27119634 1.614264 80 68 64
-0.11255795 -0.27013907 1.6079706 75 64 61
-0.110590674 -0.26926425 1.6027634 75 65 63
-0.10898791 -0.26926425 1.6027634 72 62 60
-0.10738514 -0.26926425 1.6027634 66 56 55
-0.10578239 -0.26926425 1.6027634 73 62 62
-0.10417962 -0.26926425 1.6027634 69 60 58
-0.10257686 -0.26926425 1.6027634 67 58 57
-0.1009741 -0.26926425 1.6027634 70 61 60
-0.09937133 -0.26926425 1.6027634 67 58 56
-0.09739011 -0.26822194 1.5965592 64 55 55
-0.095793545 -0.26822194 1.5965592 66 57 57
-0.09419699 -0.26822194 1.5965592 65 57 57
-0.092243366 -0.26718768 1.5904028 63 54 54
-0.090652965 -0.26718768 1.5904028 65 57 57
-0.089062564 -0.26718768 1.5904028 62 54 54
-0.087472156 -0.26718768 1.5904028 61 55 54
-0.085881755 -0.26718768 1.5904028 60 54 54
-0.084291354 -0.26718768 1.5904028 64 57 58
-0.08243605 -0.26633185 1.5853087 59 51 51
-0.080850735 -0.26633185 1.5853087 60 52 52
-0.07926543 -0.26633185 1.5853087 62 54 54
-0.07738269 -0.26531208 1.5792385 61 53 53
-0.07609482 -0.26633185 1.5853087 61 53 53
-0.07450951 -0.26633185 1.5853087 62 55 55
-0.07264497 -0.26531208 1.5792385 64 56 56
-0.070794664 -0.26430008 1.5732148 59 51 50
-0.06895841 -0.26329574 1.5672367 56 48 43
-0.06692495 -0.26147425 1.5563942 57 49 39
-0.06463682 -0.25854728 1.5389719 97 81 65
-0.061305944 -0.25120485 1.4952669 163 120 90
-0.05916717 -0.24850209 1.4791791 200 142 107
-0.05744762 -0.24746667 1.4730159 207 145 111
-0.056208808 -0.24850209 1.4791791 210 148 113
-0.05472963 -0.24850209 1.4791791 210 148 113
-0.053028572 -0.24746667 1.4730159 207 146 111
-0.05155556 -0.24746667 1.4730159 208 144 111
-0.050082542 -0.24746667 1.4730159 207 144 109
-0.048609525 -0.24746667 1.4730159 207 143 109
-0.047136508 -0.24746667 1.4730159 203 141 106
-0.045663495 -0.24746667 1.4730159 203 139 107
-0.044190474 -0.24746667 1.4730159 204 138 107
-0.04271746 -0.24746667 1.4730159 207 142 109
-0.041244447 -0.24746667 1.4730159 207 142 108
-0.03977143 -0.24746667 1.4730159 208 144 109
-0.038298413 -0.24746667 1.4730159 210 144 111
-0.036694348 -0.24658601 1.4677739 211 143 110
-0.035226572 -0.24658601 1.4677739 208 142 110
-0.0337588 -0.24658601 1.4677739 209 142 109
-0.03229103 -0.24658601 1.4677739 207 139 109
-0.030823251 -0.24658601 1.4677739 206 137 109
-0.029355478 -0.24658601 1.4677739 206 137 110
-0.027887706 -0.24658601 1.4677739 206 137 111
-0.02641993 -0.24658601 1.4677739 206 137 110
-0.024952156 -0.24658601 1.4677739 208 137 110
-0.023568254 -0.24746667 1.4730159 206 135 109
-0.022095237 -0.24746667 1.4730159 206 134 108
-0.020622224 -0.24746667 1.4730159 202 133 107
-0.019149207 -0.24746667 1.4730159 203 134 108
-0.017676191 -0.24746667 1.4730159 201 132 106
-0.016203174 -0.24746667 1.4730159 201 131 106
-0.014730159 -0.24746667 1.4730159 201 131 105
-0.013257143 -0.24746667 1.4730159 201 131 105
-0.011784127 -0.24746667 1.4730159 199 130 104
-0.010311112 -0.24746667 1.4730159 199 130 103
-0.008838096 -0.24746667 1.4730159 198 129 103
-0.0073650796 -0.24746667 1.4730159 193 127 101
-0.006024752 -0.25303957 1.5061879 188 127 99
-0.0047377157 -0.26531208 1.5792385 131 102 87
-0.0033373793 -0.28033984 1.6686896 102 84 69
-0.0017137581 -0.2879114 1.7137581 106 88 74
0.0 -0.29012144 1.7269133 108 88 75
0.0017269134 -0.29012144 1.7269133 108 88 75
0.0034538268 -0.29012144 1.7269133 101 81 69
0.00518074 -0.29012144 1.7269133 95 77 64
0.0068788514 -0.28891176 1.7197129 92 75 62
0.008568791 -0.2879114 1.7137581 90 73 60
0.010282549 -0.2879114 1.7137581 87 70 58
0.0119963065 -0.2879114 1.7137581 92 75 63
0.013710065 -0.2879114 1.7137581 98 83 71
0.015423823 -0.2879114 1.7137581 98 83 71
0.017137581 -0.2879114 1.7137581 98 82 70
0.01885134 -0.2879114 1.7137581 100 84 72
0.020565098 -0.2879114 1.7137581 100 83 70
0.022278856 -0.2879114 1.7137581 99 82 70
0.023992613 -0.2879114 1.7137581 102 86 74
0.025706371 -0.2879114 1.7137581 99 83 70
0.027306667 -0.28672 1.7066667 97 81 69
0.029013334 -0.28672 1.7066667 94 78 67
0.030720001 -0.28672 1.7066667 93 79 66
0.032426666 -0.28672 1.7066667 95 81 69
0.034133334 -0.28672 1.7066667 93 79 67
0.03584 -0.28672 1.7066667 94 79 67
0.03754667 -0.28672 1.7066667 92 77 65
0.039253335 -0.28672 1.7066667 90 76 63
0.04096 -0.28672 1.7066667 89 75 62
0.042666666 -0.28672 1.7066667 88 73 61
0.044373333 -0.28672 1.7066667 87 72 60
0.04608 -0.28672 1.7066667 87 71 61
0.047985226 -0.2879114 1.7137581 87 72 61
0.049698986 -0.2879114 1.7137581 88 73 63
0.051412743 -0.2879114 1.7137581 86 71 60
0.05290667 -0.28672 1.7066667 86 72 61
0.05484026 -0.2879114 1.7137581 86 72 61
0.056554016 -0.2879114 1.7137581 83 70 61
0.058267776 -0.2879114 1.7137581 84 72 62
0.059981532 -0.2879114 1.7137581 82 70 60
0.061695293 -0.2879114 1.7137581 79 68 58
0.06340905 -0.2879114 1.7137581 78 65 54
0.06512281 -0.2879114 1.7137581 78 64 54
0.066836566 -0.2879114 1.7137581 79 66 57
0.068550326 -0.2879114 1.7137581 77 64 54
0.070264086 -0.2879114 1.7137581 76 63 53
0.07197785 -0.2879114 1.7137581 77 64 50
0.0736916 -0.2879114 1.7137581 78 67 53
0.07540536 -0.2879114 1.7137581 75 63 50
0.0768 -0.28672 1.7066667 73 61 48
0.07850667 -0.28672 1.7066667 75 62 51
0.08021333 -0.28672 1.7066667 75 62 51
0.081638485 -0.2857347 1.7008018 73 59 50
0.0833393 -0.2857347 1.7008018 70 56 47
0.08504009 -0.2857347 1.7008018 69 57 48
0.08674089 -0.2857347 1.7008018 68 55 46
0.0884417 -0.2857347 1.7008018 68 55 46
0.0897723 -0.28456125 1.693817 71 58 49
0.09146612 -0.28456125 1.693817 74 61 54
0.08978013 -0.27423748 1.632366 78 65 60
0.08618242 -0.25854728 1.5389719 112 86 75
0.08523022 -0.25120485 1.4952669 160 108 89
