ply
format ascii 1.0
element vertex 1114
property float32 x
property float32 y
property float32 z
property uchar red
property uchar green
property uchar blue
element face 0
property list uint8 int32 vertex_indices
end_header
-0.050460495 0.3279932 2.1025207 133 126 123
-0.048357975 0.3279932 2.1025207 127 118 117
-0.046255454 0.3279932 2.1025207 126 117 116
-0.044152934 0.3279932 2.1025207 112 104 104
-0.042050414 0.3279932 2.1025207 131 120 119
-0.039947893 0.3279932 2.1025207 137 127 126
-0.03784537 0.3279932 2.1025207 126 115 113
-0.035742853 0.3279932 2.1025207 147 136 132
-0.033498026 0.32660577 2.0936267 111 107 103
-0.031537812 0.3279932 2.1025207 125 116 112
-0.029310774 0.32660577 2.0936267 107 98 94
-0.027217148 0.32660577 2.0936267 116 107 102
-0.02512352 0.32660577 2.0936267 102 96 91
-0.023029894 0.32660577 2.0936267 121 113 106
-0.020936267 0.32660577 2.0936267 117 107 102
-0.01884264 0.32660577 2.0936267 129 116 111
-0.016749013 0.32660577 2.0936267 127 119 110
-0.014655387 0.32660577 2.0936267 138 128 119
-0.012615124 0.3279932 2.1025207 130 119 108
-0.010512603 0.3279932 2.1025207 132 117 105
-0.008438761 0.3291117 2.1096904 119 104 94
-0.0063290712 0.3291117 2.1096904 131 118 108
-0.0042193807 0.3291117 2.1096904 121 108 103
-0.0021096903 0.3291117 2.1096904 121 106 100
0.0 0.33194155 2.1278305 112 94 88
0.0021278304 0.33194155 2.1278305 109 93 85
0.0042374427 0.33052054 2.1187215 102 86 78
0.0063834917 0.33194155 2.1278305 102 85 78
0.008511322 0.33194155 2.1278305 101 84 76
0.01067587 0.33308715 2.135174 101 83 76
0.012811044 0.33308715 2.135174 114 95 88
0.015010976 0.33453032 2.1444252 125 103 96
0.01729025 0.33715984 2.161281 133 112 102
0.01969231 0.34133333 2.1880343 141 120 109
0.02314936 0.36113003 2.3149362 156 133 121
-0.09753499 0.35157958 2.2682555 100 86 78
-0.091897435 0.33914533 2.1880343 116 100 93
-0.08861253 0.33499858 2.161281 103 89 82
-0.08577701 0.3323859 2.1444252 108 95 88
-0.08399652 0.3338323 2.1537569 82 67 61
-0.081136614 0.33095196 2.135174 75 59 53
-0.07934373 0.3323859 2.1444252 77 61 55
-0.07686626 0.33095196 2.135174 78 60 55
-0.07447407 0.32981372 2.1278305 76 61 56
-0.07234624 0.32981372 2.1278305 83 69 65
-0.07021841 0.32981372 2.1278305 92 80 75
-0.067799084 0.32840183 2.1187215 130 116 111
-0.06517814 0.32589072 2.1025207 114 103 100
-0.063290715 0.32700202 2.1096904 98 87 83
-0.0609731 0.32589072 2.1025207 108 96 94
-0.05887058 0.32589072 2.1025207 98 86 84
-0.05676806 0.32589072 2.1025207 92 81 79
-0.05466554 0.32589072 2.1025207 130 118 116
-0.05256302 0.32589072 2.1025207 106 100 97
-0.050460495 0.32589072 2.1025207 123 118 114
-0.048357975 0.32589072 2.1025207 126 120 116
-0.046255454 0.32589072 2.1025207 116 108 104
-0.044152934 0.32589072 2.1025207 111 102 99
-0.042050414 0.32589072 2.1025207 116 108 104
-0.039947893 0.32589072 2.1025207 127 119 115
-0.03784537 0.32589072 2.1025207 133 121 116
-0.035591654 0.32451215 2.0936267 134 125 119
-0.033498026 0.32451215 2.0936267 107 102 98
-0.031404402 0.32451215 2.0936267 118 113 108
-0.029310774 0.32451215 2.0936267 113 106 100
-0.027217148 0.32451215 2.0936267 113 106 101
-0.025017692 0.32314518 2.0848076 112 107 101
-0.022932883 0.32314518 2.0848076 125 119 111
-0.020848077 0.32314518 2.0848076 128 119 114
-0.01884264 0.32451215 2.0936267 123 114 109
-0.016749013 0.32451215 2.0936267 120 112 106
-0.014655387 0.32451215 2.0936267 132 122 116
-0.01256176 0.32451215 2.0936267 129 119 112
-0.010468134 0.32451215 2.0936267 140 129 125
-0.008410083 0.32589072 2.1025207 139 128 126
-0.006307562 0.32589072 2.1025207 136 130 127
-0.0042193807 0.32700202 2.1096904 138 130 126
-0.0021096903 0.32700202 2.1096904 132 123 114
0.0 0.32700202 2.1096904 115 101 95
0.0021025208 0.32589072 2.1025207 118 103 96
0.0042193807 0.32700202 2.1096904 110 93 86
0.0063290712 0.32700202 2.1096904 106 88 81
0.0084748855 0.32840183 2.1187215 106 88 81
0.0106391525 0.32981372 2.1278305 109 91 84
0.012811044 0.33095196 2.135174 111 93 86
0.014946219 0.33095196 2.135174 121 100 93
0.017081393 0.33095196 2.135174 126 105 97
0.019216565 0.33095196 2.135174 138 116 106
0.021707604 0.33646786 2.1707604 142 121 110
0.02536937 0.3574775 2.3063064 156 135 123
-0.10026274 0.35091957 2.2786987 94 82 74
-0.09367137 0.3354742 2.1784039 95 79 73
-0.09006586 0.33024147 2.1444252 103 88 82
-0.08830403 0.33167857 2.1537569 99 81 76
-0.08577701 0.33024147 2.1444252 86 69 64
-0.08363258 0.33024147 2.1444252 76 58 54
-0.08148816 0.33024147 2.1444252 75 60 56
-0.07934373 0.33024147 2.1444252 76 60 56
-0.07686626 0.3288168 2.135174 74 58 54
-0.07447407 0.32768592 2.1278305 83 67 61
-0.07203653 0.3262831 2.1187215 81 65 59
-0.069917805 0.3262831 2.1187215 96 82 77
-0.067799084 0.3262831 2.1187215 123 108 102
-0.06540041 0.32489234 2.1096904 96 84 80
-0.063290715 0.32489234 2.1096904 94 83 79
-0.0609731 0.32378817 2.1025207 89 76 73
-0.05887058 0.32378817 2.1025207 88 74 70
-0.05676806 0.32378817 2.1025207 89 78 74
-0.05466554 0.32378817 2.1025207 132 120 115
-0.05256302 0.32378817 2.1025207 116 106 101
-0.050460495 0.32378817 2.1025207 124 113 107
-0.048153415 0.3224185 2.0936267 117 105 101
-0.046255454 0.32378817 2.1025207 105 95 90
-0.04396616 0.3224185 2.0936267 109 99 95
-0.041872535 0.3224185 2.0936267 111 101 96
-0.039778907 0.3224185 2.0936267 121 111 106
-0.03768528 0.3224185 2.0936267 114 106 103
-0.03544173 0.32106036 2.0848076 125 118 116
-0.033356924 0.32106036 2.0848076 104 99 98
-0.031272113 0.32106036 2.0848076 120 112 111
-0.029187307 0.32106036 2.0848076 119 112 110
-0.027102498 0.32106036 2.0848076 113 108 104
-0.025017692 0.32106036 2.0848076 126 122 116
-0.022932883 0.32106036 2.0848076 127 121 115
-0.020848077 0.32106036 2.0848076 126 118 112
-0.01876327 0.32106036 2.0848076 121 113 107
-0.016749013 0.3224185 2.0936267 119 110 105
-0.014655387 0.3224185 2.0936267 139 129 124
-0.01256176 0.3224185 2.0936267 127 116 112
-0.010468134 0.3224185 2.0936267 145 133 127
-0.008374507 0.3224185 2.0936267 141 129 124
-0.00628088 0.3224185 2.0936267 140 131 124
-0.0042050416 0.32378817 2.1025207 149 142 133
-0.0021025208 0.32378817 2.1025207 138 132 123
0.0 0.32378817 2.1025207 139 130 122
0.0021025208 0.32378817 2.1025207 135 125 116
0.0042193807 0.32489234 2.1096904 118 101 97
0.0063290712 0.32489234 2.1096904 108 91 87
0.0084748855 0.3262831 2.1187215 110 92 87
0.010593607 0.3262831 2.1187215 112 95 89
0.012712329 0.3262831 2.1187215 120 102 95
0.014946219 0.3288168 2.135174 119 102 95
0.016877523 0.32489234 2.1096904 133 113 106
0.019150475 0.32768592 2.1278305 124 106 100
0.02135174 0.3288168 2.135174 141 121 111
0.023486914 0.3288168 2.135174 151 134 122
0.027572887 0.3538521 2.2977407 156 137 124
-0.101236366 0.34420365 2.249697 94 79 72
-0.095513456 0.33212635 2.1707604 86 70 63
-0.09221028 0.32809705 2.1444252 94 77 71
-0.09006586 0.32809705 2.1444252 88 69 63
-0.08792143 0.32809705 2.1444252 90 70 66
-0.08577701 0.32809705 2.1444252 75 59 54
-0.08327179 0.32668164 2.135174 71 56 52
-0.081136614 0.32668164 2.135174 71 58 54
-0.07900144 0.32668164 2.135174 70 56 52
-0.0766019 0.32555807 2.1278305 74 58 54
-0.07415525 0.3241644 2.1187215 80 65 58
-0.07203653 0.3241644 2.1187215 79 64 58
-0.069917805 0.3241644 2.1187215 103 89 84
-0.06751009 0.32278264 2.1096904 97 84 79
-0.06540041 0.32278264 2.1096904 84 72 68
-0.063290715 0.32278264 2.1096904 86 76 71
-0.061181024 0.32278264 2.1096904 79 66 62
-0.05887058 0.32168567 2.1025207 85 72 68
-0.05676806 0.32168567 2.1025207 83 71 67
-0.054434296 0.3203249 2.0936267 123 109 105
-0.052340668 0.3203249 2.0936267 118 106 102
-0.05024704 0.3203249 2.0936267 112 100 97
-0.048153415 0.3203249 2.0936267 103 92 89
-0.046059787 0.3203249 2.0936267 105 93 90
-0.04396616 0.3203249 2.0936267 98 88 84
-0.041872535 0.3203249 2.0936267 101 91 88
-0.039611343 0.31897557 2.0848076 124 112 107
-0.03752654 0.31897557 2.0848076 117 109 105
-0.03544173 0.31897557 2.0848076 107 101 98
-0.033244893 0.31790426 2.0778058 96 90 87
-0.031272113 0.31897557 2.0848076 119 112 108
-0.029187307 0.31897557 2.0848076 114 107 104
-0.027102498 0.31897557 2.0848076 119 112 108
-0.025017692 0.31897557 2.0848076 143 135 128
-0.022932883 0.31897557 2.0848076 104 99 94
-0.020848077 0.31897557 2.0848076 112 106 101
-0.01876327 0.31897557 2.0848076 112 106 101
-0.016678462 0.31897557 2.0848076 110 104 99
-0.014593653 0.31897557 2.0848076 136 126 121
-0.012508846 0.31897557 2.0848076 132 121 117
-0.010424038 0.31897557 2.0848076 135 123 118
-0.008374507 0.3203249 2.0936267 155 142 136
-0.006254423 0.31897557 2.0848076 146 137 129
-0.0041872533 0.3203249 2.0936267 143 135 128
-0.0020936267 0.3203249 2.0936267 139 132 124
0.0 0.32168567 2.1025207 156 150 142
0.0021025208 0.32168567 2.1025207 157 150 139
0.0042193807 0.32278264 2.1096904 132 118 112
0.0063290712 0.32278264 2.1096904 119 104 99
0.0084748855 0.3241644 2.1187215 113 98 92
0.010548452 0.32278264 2.1096904 111 97 91
0.0126581425 0.32278264 2.1096904 125 109 102
0.014831051 0.3241644 2.1187215 122 107 100
0.016678462 0.31897557 2.0848076 136 117 110
0.018987212 0.32278264 2.1096904 135 116 109
0.021187214 0.3241644 2.1187215 134 116 107
0.023486914 0.32668164 2.135174 150 133 121
0.025622088 0.32668164 2.135174 157 137 125
0.029623084 0.3486409 2.2786987 163 142 128
-0.1039586 0.34351537 2.2599697 87 71 63
-0.09691906 0.32737103 2.1537569 83 66 59
-0.094354704 0.32595265 2.1444252 87 70 63
-0.091812484 0.32454646 2.135174 83 66 60
-0.09006586 0.32595265 2.1444252 88 71 65
-0.08792143 0.32595265 2.1444252 74 57 51
-0.08540696 0.32454646 2.135174 68 54 48
-0.08327179 0.32454646 2.135174 70 58 53
-0.081136614 0.32454646 2.135174 69 56 51
-0.07872973 0.32343024 2.1278305 70 57 53
-0.0766019 0.32343024 2.1278305 71 57 53
-0.07415525 0.32204565 2.1187215 72 57 52
-0.071729474 0.32067293 2.1096904 79 64 59
-0.06961978 0.32067293 2.1096904 109 96 91
-0.067280665 0.31958315 2.1025207 86 74 69
-0.06517814 0.31958315 2.1025207 71 59 55
-0.063290715 0.32067293 2.1096904 80 70 65
-0.0609731 0.31958315 2.1025207 75 63 59
-0.058621548 0.31823125 2.0936267 81 68 64
-0.056527924 0.31823125 2.0936267 70 56 52
-0.054434296 0.31823125 2.0936267 110 99 95
-0.052340668 0.31823125 2.0936267 113 101 97
-0.050035384 0.31689075 2.0848076 112 99 96
-0.047950577 0.31689075 2.0848076 98 86 83
-0.045865767 0.31689075 2.0848076 90 78 75
-0.04378096 0.31689075 2.0848076 89 79 75
-0.041696154 0.31689075 2.0848076 97 87 84
-0.039611343 0.31689075 2.0848076 102 92 89
-0.03752654 0.31689075 2.0848076 97 89 86
-0.03544173 0.31689075 2.0848076 106 99 95
-0.033244893 0.31582648 2.0778058 98 92 88
-0.031167086 0.31582648 2.0778058 107 100 97
-0.029187307 0.31689075 2.0848076 122 114 110
-0.027102498 0.31689075 2.0848076 118 110 105
-0.025017692 0.31689075 2.0848076 144 135 128
-0.022932883 0.31689075 2.0848076 88 83 77
-0.020848077 0.31689075 2.0848076 103 98 93
-0.01876327 0.31689075 2.0848076 122 115 109
-0.016678462 0.31689075 2.0848076 104 97 93
-0.014593653 0.31689075 2.0848076 114 106 102
-0.012508846 0.31689075 2.0848076 133 121 117
-0.010424038 0.31689075 2.0848076 134 122 118
-0.008339231 0.31689075 2.0848076 137 127 122
-0.006254423 0.31689075 2.0848076 131 123 117
-0.0041696155 0.31689075 2.0848076 135 126 121
-0.0020848077 0.31689075 2.0848076 140 134 127
0.0 0.31823125 2.0936267 158 153 146
0.0020936267 0.31823125 2.0936267 148 143 133
0.0042050416 0.31958315 2.1025207 147 137 127
0.006307562 0.31958315 2.1025207 132 118 112
0.008410083 0.31958315 2.1025207 126 110 104
0.010512603 0.31958315 2.1025207 123 108 102
0.012615124 0.31958315 2.1025207 119 106 100
0.014717645 0.31958315 2.1025207 130 116 109
0.016949771 0.32204565 2.1187215 136 121 114
0.019216565 0.32454646 2.135174 133 118 111
0.02135174 0.32454646 2.135174 132 115 106
0.023406135 0.32343024 2.1278305 124 110 101
0.025622088 0.32454646 2.135174 164 143 130
0.027877526 0.32595265 2.1444252 145 126 115
0.031495757 0.34195396 2.249697 164 143 129
-0.104126535 0.33453417 2.2154582 86 69 56
-0.09985498 0.3277848 2.1707604 87 70 63
-0.09575237 0.32130238 2.1278305 81 64 57
-0.09394766 0.3224113 2.135174 87 71 64
-0.09221028 0.3238082 2.1444252 85 70 62
-0.089677304 0.3224113 2.135174 77 61 54
-0.08754214 0.3224113 2.135174 68 54 47
-0.08540696 0.3224113 2.135174 71 60 53
-0.082985386 0.32130238 2.1278305 68 55 51
-0.08085756 0.32130238 2.1278305 64 52 48
-0.07872973 0.32130238 2.1278305 69 55 52
-0.07627397 0.31992695 2.1187215 72 59 56
-0.073839165 0.31856325 2.1096904 71 56 51
-0.071729474 0.31856325 2.1096904 90 78 72
-0.06961978 0.31856325 2.1096904 100 88 83
-0.067280665 0.31748062 2.1025207 79 66 63
-0.06517814 0.31748062 2.1025207 68 56 51
-0.062808804 0.31613764 2.0936267 68 57 52
-0.060715176 0.31613764 2.0936267 73 61 56
-0.058621548 0.31613764 2.0936267 74 60 56
-0.056527924 0.31613764 2.0936267 69 56 52
-0.054434296 0.31613764 2.0936267 99 88 85
-0.05212019 0.31480592 2.0848076 98 87 83
-0.050035384 0.31480592 2.0848076 101 90 87
-0.047950577 0.31480592 2.0848076 82 70 67
-0.045711726 0.31374866 2.0778058 81 69 66
-0.04378096 0.31480592 2.0848076 85 75 71
-0.041696154 0.31480592 2.0848076 89 78 75
-0.039611343 0.31480592 2.0848076 85 74 71
-0.03752654 0.31480592 2.0848076 90 80 77
-0.03544173 0.31480592 2.0848076 109 101 97
-0.033244893 0.31374866 2.0778058 94 87 82
-0.031167086 0.31374866 2.0778058 102 94 90
-0.029089281 0.31374866 2.0778058 106 98 94
-0.027011475 0.31374866 2.0778058 132 121 114
-0.02493367 0.31374866 2.0778058 127 118 110
-0.022932883 0.31480592 2.0848076 88 81 75
-0.020848077 0.31480592 2.0848076 104 97 91
-0.01876327 0.31480592 2.0848076 106 98 95
-0.016678462 0.31480592 2.0848076 96 87 84
-0.014593653 0.31480592 2.0848076 93 83 81
-0.012508846 0.31480592 2.0848076 118 108 105
-0.010424038 0.31480592 2.0848076 125 112 110
-0.008339231 0.31480592 2.0848076 124 113 110
-0.006254423 0.31480592 2.0848076 119 109 106
-0.0041696155 0.31480592 2.0848076 116 107 104
-0.0020848077 0.31480592 2.0848076 125 117 114
0.0 0.31613764 2.0936267 153 145 141
0.0020936267 0.31613764 2.0936267 153 148 141
0.0042050416 0.31748062 2.1025207 154 146 138
0.006307562 0.31748062 2.1025207 138 128 124
0.008410083 0.31748062 2.1025207 116 105 102
0.010512603 0.31748062 2.1025207 122 110 105
0.012615124 0.31748062 2.1025207 121 110 104
0.014717645 0.31748062 2.1025207 131 120 114
0.016949771 0.31992695 2.1187215 144 129 123
0.019068493 0.31992695 2.1187215 143 131 124
0.021278305 0.32130238 2.1278305 138 126 117
0.023406135 0.32130238 2.1278305 122 109 101
0.025424657 0.31992695 2.1187215 139 121 110
0.027661797 0.32130238 2.1278305 158 137 124
0.030152595 0.32521728 2.1537569 145 126 115
0.032820515 0.3303932 2.1880343 151 131 119
0.037213035 0.35119802 2.3258147 127 113 103
-0.106341995 0.33231872 2.2154582 83 65 53
-0.10158022 0.32419217 2.161281 88 70 59
-0.098643556 0.3216638 2.1444252 83 63 56
-0.09691906 0.32306355 2.1537569 88 71 64
-0.094354704 0.3216638 2.1444252 84 68 62
-0.091812484 0.32027608 2.135174 73 59 52
-0.089677304 0.32027608 2.135174 69 54 48
-0.08754214 0.32027608 2.135174 71 58 51
-0.08540696 0.32027608 2.135174 67 56 50
-0.082985386 0.31917456 2.1278305 66 52 49
-0.08085756 0.31917456 2.1278305 67 54 52
-0.07839269 0.31780824 2.1187215 68 56 54
-0.07627397 0.31780824 2.1187215 66 51 49
-0.073839165 0.31645355 2.1096904 70 56 51
-0.071729474 0.31645355 2.1096904 92 80 75
-0.06961978 0.31645355 2.1096904 89 78 73
-0.067280665 0.3153781 2.1025207 73 61 56
-0.064902425 0.314044 2.0936267 69 58 53
-0.062808804 0.314044 2.0936267 67 55 51
-0.060715176 0.314044 2.0936267 75 65 60
-0.058621548 0.314044 2.0936267 67 55 51
-0.056527924 0.314044 2.0936267 67 56 51
-0.054204997 0.31272113 2.0848076 100 90 86
-0.05212019 0.31272113 2.0848076 77 65 62
-0.050035384 0.31272113 2.0848076 79 66 64
-0.047950577 0.31272113 2.0848076 74 62 58
-0.045865767 0.31272113 2.0848076 75 64 60
-0.04378096 0.31272113 2.0848076 71 60 57
-0.041696154 0.31272113 2.0848076 76 64 61
-0.039611343 0.31272113 2.0848076 79 67 64
-0.03752654 0.31272113 2.0848076 91 82 79
-0.035322696 0.31167087 2.0778058 95 87 83
-0.03310591 0.3103679 2.0691195 94 86 82
-0.031167086 0.31167087 2.0778058 94 86 82
-0.029089281 0.31167087 2.0778058 107 99 95
-0.026898552 0.3103679 2.0691195 107 97 93
-0.02493367 0.31167087 2.0778058 109 100 95
-0.022855863 0.31167087 2.0778058 91 82 77
-0.020778056 0.31167087 2.0778058 102 93 88
-0.01876327 0.31272113 2.0848076 87 76 73
-0.016678462 0.31272113 2.0848076 93 82 80
-0.014593653 0.31272113 2.0848076 87 75 73
-0.012508846 0.31272113 2.0848076 113 100 99
-0.010424038 0.31272113 2.0848076 113 100 99
-0.008339231 0.31272113 2.0848076 117 103 102
-0.0062334174 0.31167087 2.0778058 120 106 105
-0.0041696155 0.31272113 2.0848076 100 90 88
-0.0020848077 0.31272113 2.0848076 124 112 109
0.0 0.314044 2.0936267 124 113 111
0.0020936267 0.314044 2.0936267 135 125 120
0.0042050416 0.3153781 2.1025207 143 132 127
0.006307562 0.3153781 2.1025207 147 135 130
0.008410083 0.3153781 2.1025207 128 117 112
0.010512603 0.3153781 2.1025207 123 112 107
0.012615124 0.3153781 2.1025207 111 102 98
0.014717645 0.3153781 2.1025207 125 114 110
0.017022643 0.31917456 2.1278305 135 123 118
0.018987212 0.31645355 2.1096904 138 127 121
0.021187214 0.31780824 2.1187215 147 136 130
0.023406135 0.31917456 2.1278305 138 125 114
0.025533967 0.31917456 2.1278305 116 102 95
0.027543379 0.31780824 2.1187215 140 122 113
0.029789627 0.31917456 2.1278305 149 131 119
0.032306354 0.32306355 2.1537569 152 131 120
0.03485446 0.3267606 2.1784039 135 117 108
0.039688054 0.35018873 2.3345914 121 104 97
-0.110235155 0.33520484 2.249697 84 67 55
-0.1037415 0.32203087 2.161281 86 67 58
-0.10122657 0.32090977 2.1537569 85 66 57
-0.098643556 0.31951934 2.1444252 76 57 51
-0.09725765 0.32203087 2.161281 94 78 73
-0.094765306 0.32090977 2.1537569 70 54 48
-0.091812484 0.31814092 2.135174 70 57 50
-0.089677304 0.31814092 2.135174 70 57 51
-0.08754214 0.31814092 2.135174 68 55 49
-0.08511322 0.31704676 2.1278305 66 54 52
-0.082985386 0.31704676 2.1278305 65 51 49
-0.08051141 0.3156895 2.1187215 67 53 53
-0.07839269 0.3156895 2.1187215 65 51 50
-0.07594885 0.31434387 2.1096904 66 52 51
-0.073839165 0.31434387 2.1096904 69 55 51
-0.071729474 0.31434387 2.1096904 91 78 75
-0.06938319 0.31327558 2.1025207 78 65 61
-0.067280665 0.31327558 2.1025207 66 53 49
-0.064902425 0.3119504 2.0936267 72 60 56
-0.062808804 0.3119504 2.0936267 66 55 50
-0.060715176 0.3119504 2.0936267 71 59 55
-0.058621548 0.3119504 2.0936267 65 54 50
-0.056289807 0.31063634 2.0848076 66 56 51
-0.054204997 0.31063634 2.0848076 84 73 69
-0.05212019 0.31063634 2.0848076 70 59 55
-0.050035384 0.31063634 2.0848076 74 62 59
-0.047950577 0.31063634 2.0848076 72 60 56
-0.045865767 0.31063634 2.0848076 71 59 56
-0.043633923 0.30959305 2.0778058 70 58 55
-0.041556112 0.30959305 2.0778058 70 60 57
-0.03947831 0.30959305 2.0778058 73 62 59
-0.037400506 0.30959305 2.0778058 91 81 78
-0.035322696 0.30959305 2.0778058 91 82 78
-0.03310591 0.3082988 2.0691195 94 85 82
-0.031036792 0.3082988 2.0691195 92 82 79
-0.028967673 0.3082988 2.0691195 93 84 80
-0.026898552 0.3082988 2.0691195 100 91 88
-0.02493367 0.30959305 2.0778058 88 77 74
-0.022760315 0.3082988 2.0691195 87 76 73
-0.020778056 0.30959305 2.0778058 90 79 77
-0.018700253 0.30959305 2.0778058 81 69 67
-0.016622446 0.30959305 2.0778058 87 76 74
-0.014593653 0.31063634 2.0848076 83 72 70
-0.012508846 0.31063634 2.0848076 106 95 93
-0.010424038 0.31063634 2.0848076 103 92 91
-0.008339231 0.31063634 2.0848076 108 96 94
-0.0062334174 0.30959305 2.0778058 106 94 92
-0.0041556116 0.30959305 2.0778058 92 81 79
-0.0020848077 0.31063634 2.0848076 108 97 95
0.0 0.3119504 2.0936267 101 92 89
0.0020936267 0.3119504 2.0936267 125 112 108
0.0041872533 0.3119504 2.0936267 129 116 111
0.00628088 0.3119504 2.0936267 131 118 113
0.008374507 0.3119504 2.0936267 133 120 114
0.010512603 0.31327558 2.1025207 129 116 111
0.012615124 0.31327558 2.1025207 125 113 108
0.014717645 0.31327558 2.1025207 121 111 106
0.016877523 0.31434387 2.1096904 134 121 117
0.018987212 0.31434387 2.1096904 129 119 113
0.021096904 0.31434387 2.1096904 145 130 124
0.023305938 0.3156895 2.1187215 134 122 112
0.025533967 0.31704676 2.1278305 101 91 83
0.027661797 0.31704676 2.1278305 122 107 100
0.029662102 0.3156895 2.1187215 145 129 117
0.031917457 0.31704676 2.1278305 149 129 119
0.034162786 0.31814092 2.135174 152 129 119
0.0373286 0.32717422 2.1958 122 104 97
-0.11488703 0.3400656 2.2977407 88 71 62
-0.10590277 0.3198696 2.161281 88 70 59
-0.10338032 0.318756 2.1537569 85 66 58
-0.10122657 0.318756 2.1537569 78 59 52
-0.098643556 0.3173749 2.1444252 83 65 60
-0.09649913 0.3173749 2.1444252 79 63 58
-0.094354704 0.3173749 2.1444252 68 53 47
-0.091812484 0.31600577 2.135174 66 52 46
-0.089677304 0.31600577 2.135174 70 57 51
-0.08724105 0.3149189 2.1278305 65 53 48
-0.08511322 0.3149189 2.1278305 64 51 50
-0.082985386 0.3149189 2.1278305 65 52 51
-0.08051141 0.31357077 2.1187215 65 51 51
-0.07839269 0.31357077 2.1187215 63 50 49
-0.07594885 0.3122342 2.1096904 66 53 51
-0.073839165 0.3122342 2.1096904 70 57 52
-0.071729474 0.3122342 2.1096904 90 79 75
-0.06938319 0.31117305 2.1025207 76 63 59
-0.067280665 0.31117305 2.1025207 65 51 47
-0.064902425 0.30985674 2.0936267 71 60 56
-0.062808804 0.30985674 2.0936267 67 55 51
-0.060715176 0.30985674 2.0936267 68 56 52
-0.058621548 0.30985674 2.0936267 65 53 49
-0.056527924 0.30985674 2.0936267 67 55 52
-0.054204997 0.30855155 2.0848076 79 67 64
-0.05212019 0.30855155 2.0848076 70 58 55
-0.050035384 0.30855155 2.0848076 75 63 59
-0.047950577 0.30855155 2.0848076 69 57 53
-0.045865767 0.30855155 2.0848076 68 56 53
-0.043633923 0.30751526 2.0778058 68 56 53
-0.041556112 0.30751526 2.0778058 64 54 51
-0.03947831 0.30751526 2.0778058 71 60 57
-0.037400506 0.30751526 2.0778058 80 70 68
-0.035322696 0.30751526 2.0778058 85 75 73
-0.03310591 0.30622968 2.0691195 89 79 77
-0.031036792 0.30622968 2.0691195 73 63 60
-0.028967673 0.30622968 2.0691195 81 71 68
-0.026898552 0.30622968 2.0691195 87 77 74
-0.024829434 0.30622968 2.0691195 76 65 63
-0.022760315 0.30622968 2.0691195 86 75 73
-0.020691194 0.30622968 2.0691195 78 68 65
-0.018622074 0.30622968 2.0691195 73 63 60
-0.016622446 0.30751526 2.0778058 80 70 68
-0.014544641 0.30751526 2.0778058 67 56 53
-0.012466835 0.30751526 2.0778058 88 77 75
-0.010389028 0.30751526 2.0778058 89 78 76
-0.008311223 0.30751526 2.0778058 96 85 84
-0.0062334174 0.30751526 2.0778058 93 82 80
-0.0041556116 0.30751526 2.0778058 84 71 69
-0.0020848077 0.30855155 2.0848076 92 80 78
0.0 0.30985674 2.0936267 96 85 83
0.0020936267 0.30985674 2.0936267 107 94 91
0.0041872533 0.30985674 2.0936267 115 101 97
0.00628088 0.30985674 2.0936267 122 108 104
0.008374507 0.30985674 2.0936267 133 120 114
0.010468134 0.30985674 2.0936267 126 114 108
0.012615124 0.31117305 2.1025207 127 114 109
0.014717645 0.31117305 2.1025207 108 98 94
0.016877523 0.3122342 2.1096904 132 119 114
0.018922685 0.31117305 2.1025207 123 113 107
0.021096904 0.3122342 2.1096904 135 120 114
0.023305938 0.31357077 2.1187215 132 119 109
0.025316285 0.3122342 2.1096904 117 104 96
0.027661797 0.3149189 2.1278305 106 91 85
0.029662102 0.31357077 2.1187215 124 108 101
0.031537812 0.31117305 2.1025207 140 121 111
0.034045286 0.3149189 2.1278305 137 119 110
0.03703287 0.3224038 2.1784039 140 118 110
-0.119628444 0.34481138 2.3456557 113 97 87
-0.10853802 0.31910178 2.1707604 88 68 59
-0.10553409 0.31660226 2.1537569 83 66 55
-0.1029324 0.3152305 2.1444252 78 61 54
-0.10078798 0.3152305 2.1444252 79 61 54
-0.098643556 0.3152305 2.1444252 89 72 67
-0.09649913 0.3152305 2.1444252 67 52 45
-0.094354704 0.3152305 2.1444252 65 51 45
-0.091812484 0.31387058 2.135174 72 59 53
-0.08936888 0.31279108 2.1278305 67 54 48
-0.08724105 0.31279108 2.1278305 64 52 47
-0.08511322 0.31279108 2.1278305 62 50 49
-0.082630135 0.31145206 2.1187215 66 53 52
-0.08051141 0.31145206 2.1187215 62 49 47
-0.07839269 0.31145206 2.1187215 64 51 50
-0.07594885 0.3101245 2.1096904 67 54 53
-0.073839165 0.3101245 2.1096904 70 57 53
-0.071485706 0.30907056 2.1025207 89 78 74
-0.06938319 0.30907056 2.1025207 69 56 52
-0.06699605 0.30776313 2.0936267 68 56 51
-0.064902425 0.30776313 2.0936267 74 62 58
-0.062808804 0.30776313 2.0936267 68 55 52
-0.060715176 0.30776313 2.0936267 64 52 48
-0.058621548 0.30776313 2.0936267 63 51 48
-0.056527924 0.30776313 2.0936267 65 53 49
-0.054204997 0.30646673 2.0848076 69 57 54
-0.05212019 0.30646673 2.0848076 67 55 51
-0.050035384 0.30646673 2.0848076 69 57 53
-0.047950577 0.30646673 2.0848076 67 54 51
-0.045865767 0.30646673 2.0848076 68 57 55
-0.043633923 0.30543745 2.0778058 66 56 52
-0.041556112 0.30543745 2.0778058 65 55 52
-0.03947831 0.30543745 2.0778058 68 58 55
-0.037400506 0.30543745 2.0778058 71 61 58
-0.035322696 0.30543745 2.0778058 80 71 69
-0.03310591 0.30416057 2.0691195 77 67 66
-0.031036792 0.30416057 2.0691195 73 63 61
-0.028967673 0.30416057 2.0691195 75 65 64
-0.026898552 0.30416057 2.0691195 81 71 69
-0.024829434 0.30416057 2.0691195 75 65 63
-0.022760315 0.30416057 2.0691195 77 67 65
-0.020691194 0.30416057 2.0691195 76 66 64
-0.018622074 0.30416057 2.0691195 68 58 55
-0.016552955 0.30416057 2.0691195 81 71 68
-0.0144838365 0.30416057 2.0691195 61 50 47
-0.012414717 0.30416057 2.0691195 85 74 72
-0.010345597 0.30416057 2.0691195 84 73 71
-0.008311223 0.30543745 2.0778058 83 72 70
-0.0062334174 0.30543745 2.0778058 82 70 67
-0.0041556116 0.30543745 2.0778058 77 64 62
-0.0020848077 0.30646673 2.0848076 83 70 68
0.0 0.30776313 2.0936267 92 78 77
0.0020936267 0.30776313 2.0936267 99 84 81
0.0041872533 0.30776313 2.0936267 103 89 85
0.00628088 0.30776313 2.0936267 115 98 95
0.008374507 0.30776313 2.0936267 120 107 101
0.010468134 0.30776313 2.0936267 118 105 99
0.01256176 0.30776313 2.0936267 136 120 115
0.014717645 0.30907056 2.1025207 115 100 97
0.016877523 0.3101245 2.1096904 119 101 98
0.018987212 0.3101245 2.1096904 133 120 112
0.021096904 0.3101245 2.1096904 121 109 102
0.023305938 0.31145206 2.1187215 124 110 101
0.025533967 0.31279108 2.1278305 108 94 88
0.027425976 0.3101245 2.1096904 93 76 69
0.029789627 0.31279108 2.1278305 124 107 100
0.031780824 0.31145206 2.1187215 132 113 104
0.033899542 0.31145206 2.1187215 134 114 105
0.036455225 0.3152305 2.1444252 151 126 118
0.040494546 0.33070543 2.249697 125 105 97
-0.11158975 0.319453 2.1880343 90 73 65
-0.108064055 0.31554702 2.161281 85 67 58
-0.10553409 0.31444848 2.1537569 79 62 50
-0.1029324 0.31308606 2.1444252 76 58 53
-0.10035318 0.31173542 2.135174 79 62 58
-0.098643556 0.31308606 2.1444252 78 63 58
-0.09649913 0.31308606 2.1444252 68 52 49
-0.09394766 0.31173542 2.135174 67 54 48
-0.09149671 0.31066328 2.1278305 71 57 53
-0.08936888 0.31066328 2.1278305 65 53 48
-0.08724105 0.31066328 2.1278305 64 53 48
-0.08474886 0.30933335 2.1187215 64 54 50
-0.082630135 0.30933335 2.1187215 66 52 50
-0.08051141 0.30933335 2.1187215 62 49 47
-0.07805855 0.3080148 2.1096904 65 52 49
-0.07594885 0.3080148 2.1096904 65 53 49
-0.07358823 0.306968 2.1025207 68 56 53
-0.071485706 0.306968 2.1025207 83 73 68
-0.06938319 0.306968 2.1025207 60 49 44
-0.06699605 0.3056695 2.0936267 70 60 55
-0.064902425 0.3056695 2.0936267 73 63 59
-0.062808804 0.3056695 2.0936267 65 54 50
-0.060715176 0.3056695 2.0936267 62 51 47
-0.058621548 0.3056695 2.0936267 62 50 46
-0.056527924 0.3056695 2.0936267 63 52 49
-0.054204997 0.30438194 2.0848076 66 55 51
-0.05212019 0.30438194 2.0848076 66 55 51
-0.050035384 0.30438194 2.0848076 64 53 49
-0.047950577 0.30438194 2.0848076 66 55 51
-0.045865767 0.30438194 2.0848076 70 59 56
-0.043633923 0.30335966 2.0778058 63 52 50
-0.041556112 0.30335966 2.0778058 64 53 51
-0.03947831 0.30335966 2.0778058 63 54 51
-0.037400506 0.30335966 2.0778058 70 59 57
-0.035322696 0.30335966 2.0778058 81 71 69
-0.03310591 0.30209142 2.0691195 73 63 62
-0.031036792 0.30209142 2.0691195 66 56 54
-0.028967673 0.30209142 2.0691195 67 57 55
-0.026898552 0.30209142 2.0691195 71 61 59
-0.024829434 0.30209142 2.0691195 75 64 62
-0.022760315 0.30209142 2.0691195 71 59 57
-0.020691194 0.30209142 2.0691195 71 61 60
-0.018622074 0.30209142 2.0691195 66 55 52
-0.016552955 0.30209142 2.0691195 77 67 64
-0.0144838365 0.30209142 2.0691195 66 54 52
-0.012414717 0.30209142 2.0691195 79 68 65
-0.010302526 0.30083373 2.0605052 81 70 68
-0.008276477 0.30209142 2.0691195 79 68 66
-0.0062073586 0.30209142 2.0691195 78 66 64
-0.0041556116 0.30335966 2.0778058 75 64 62
-0.0020778058 0.30335966 2.0778058 77 66 63
0.0 0.3056695 2.0936267 86 71 70
0.0020936267 0.3056695 2.0936267 93 77 73
0.0041872533 0.3056695 2.0936267 94 77 73
0.00628088 0.3056695 2.0936267 115 97 93
0.008374507 0.3056695 2.0936267 106 92 87
0.010468134 0.3056695 2.0936267 112 99 94
0.01256176 0.3056695 2.0936267 113 101 96
0.014655387 0.3056695 2.0936267 113 97 94
0.016820166 0.306968 2.1025207 105 90 86
0.018987212 0.3080148 2.1096904 137 123 116
0.021187214 0.30933335 2.1187215 116 102 95
0.023406135 0.31066328 2.1278305 118 102 95
0.025533967 0.31066328 2.1278305 111 95 88
0.027543379 0.30933335 2.1187215 91 73 66
0.029662102 0.30933335 2.1187215 128 108 101
0.031780824 0.30933335 2.1187215 132 111 103
0.034045286 0.31066328 2.1278305 123 103 96
0.03629796 0.31173542 2.135174 140 116 109
0.03921127 0.31804696 2.1784039 137 114 106
-0.11698425 0.32620606 2.249697 109 94 78
-0.11070878 0.31476027 2.1707604 87 69 59
-0.108064055 0.31338578 2.161281 84 66 59
-0.10553409 0.31229475 2.1537569 76 60 52
-0.1029324 0.31094164 2.1444252 76 60 55
-0.10035318 0.30960026 2.135174 75 62 57
-0.098643556 0.31094164 2.1444252 73 59 55
-0.09608283 0.30960026 2.135174 62 49 43
-0.09362454 0.30853543 2.1278305 73 60 55
-0.09149671 0.30853543 2.1278305 67 53 48
-0.08936888 0.30853543 2.1278305 65 52 48
-0.086867586 0.30721462 2.1187215 61 49 45
-0.08511322 0.30853543 2.1278305 67 53 51
-0.082630135 0.30721462 2.1187215 61 47 45
-0.08016823 0.30590513 2.1096904 63 52 49
-0.07805855 0.30590513 2.1096904 65 54 51
-0.07594885 0.30590513 2.1096904 67 55 52
-0.07358823 0.3048655 2.1025207 64 50 45
-0.071485706 0.3048655 2.1025207 72 60 56
-0.06908968 0.30357587 2.0936267 63 51 47
-0.06699605 0.30357587 2.0936267 69 58 54
-0.064902425 0.30357587 2.0936267 75 66 61
-0.062808804 0.30357587 2.0936267 63 53 48
-0.060715176 0.30357587 2.0936267 62 51 47
-0.058621548 0.30357587 2.0936267 61 51 46
-0.056289807 0.30229712 2.0848076 62 53 48
-0.054204997 0.30229712 2.0848076 64 54 50
-0.05212019 0.30229712 2.0848076 67 56 52
-0.050035384 0.30229712 2.0848076 64 52 49
-0.047950577 0.30229712 2.0848076 64 53 50
-0.045711726 0.30128184 2.0778058 65 53 50
-0.043633923 0.30128184 2.0778058 61 51 48
-0.041556112 0.30128184 2.0778058 63 52 49
-0.03947831 0.30128184 2.0778058 62 53 51
-0.037400506 0.30128184 2.0778058 63 53 52
-0.035322696 0.30128184 2.0778058 69 60 57
-0.03310591 0.3000223 2.0691195 66 56 54
-0.031036792 0.3000223 2.0691195 63 54 51
-0.028967673 0.3000223 2.0691195 64 53 51
-0.026898552 0.3000223 2.0691195 67 56 54
-0.024829434 0.3000223 2.0691195 69 58 57
-0.022760315 0.3000223 2.0691195 69 59 58
-0.020691194 0.3000223 2.0691195 69 58 56
-0.018622074 0.3000223 2.0691195 64 54 52
-0.016552955 0.3000223 2.0691195 69 59 58
-0.0144838365 0.3000223 2.0691195 67 56 55
-0.012414717 0.3000223 2.0691195 72 61 60
-0.010302526 0.29877326 2.0605052 73 62 61
-0.008276477 0.3000223 2.0691195 72 61 60
-0.0061815158 0.29877326 2.0605052 71 59 58
-0.0041382387 0.3000223 2.0691195 72 59 57
-0.0020691194 0.3000223 2.0691195 72 60 58
0.0 0.30357587 2.0936267 78 65 62
0.0020936267 0.30357587 2.0936267 84 71 64
0.0041872533 0.30357587 2.0936267 89 73 69
0.00628088 0.30357587 2.0936267 110 91 85
0.008374507 0.30357587 2.0936267 110 96 84
0.010468134 0.30357587 2.0936267 138 117 102
0.01256176 0.30357587 2.0936267 114 95 84
0.014655387 0.30357587 2.0936267 113 94 85
0.016820166 0.3048655 2.1025207 108 89 85
0.018922685 0.3048655 2.1025207 124 114 106
0.021096904 0.30590513 2.1096904 115 101 92
0.023305938 0.30721462 2.1187215 114 94 88
0.025424657 0.30721462 2.1187215 121 100 93
0.027543379 0.30721462 2.1187215 91 70 62
0.029789627 0.30853543 2.1278305 97 78 73
0.031645358 0.30590513 2.1096904 131 112 104
0.033755045 0.30590513 2.1096904 110 93 90
0.03617312 0.30853543 2.1278305 116 98 94
0.03843313 0.30960026 2.135174 146 122 117
0.043295275 0.33041131 2.2786987 118 99 95
-0.1247929 0.33905998 2.354583 120 104 90
-0.11287954 0.3125895 2.1707604 88 69 57
-0.10936569 0.3087972 2.1444252 83 67 58
-0.10722126 0.3087972 2.1444252 77 63 56
-0.105076835 0.3087972 2.1444252 73 57 50
-0.1029324 0.3087972 2.1444252 75 60 55
-0.10078798 0.3087972 2.1444252 71 59 54
-0.098218 0.30746505 2.135174 70 58 53
-0.09575237 0.3064076 2.1278305 70 59 54
-0.09362454 0.3064076 2.1278305 70 58 52
-0.09149671 0.3064076 2.1278305 65 52 47
-0.08898631 0.30509588 2.1187215 61 50 44
-0.086867586 0.30509588 2.1187215 63 52 48
-0.08474886 0.30509588 2.1187215 65 51 48
-0.082277924 0.3037954 2.1096904 62 47 44
-0.08016823 0.3037954 2.1096904 64 51 48
-0.07805855 0.3037954 2.1096904 66 53 49
-0.07569074 0.30276296 2.1025207 67 54 51
-0.07358823 0.30276296 2.1025207 61 48 44
-0.071485706 0.30276296 2.1025207 69 56 52
-0.06908968 0.30148223 2.0936267 65 53 49
-0.06699605 0.30148223 2.0936267 70 60 55
-0.064902425 0.30148223 2.0936267 77 67 63
-0.062808804 0.30148223 2.0936267 63 52 49
-0.060715176 0.30148223 2.0936267 60 49 45
-0.058621548 0.30148223 2.0936267 62 51 47
-0.056289807 0.30021232 2.0848076 64 53 49
-0.054204997 0.30021232 2.0848076 63 54 49
-0.05212019 0.30021232 2.0848076 67 56 52
-0.050035384 0.30021232 2.0848076 65 53 50
-0.047950577 0.30021232 2.0848076 62 51 48
-0.045711726 0.29920405 2.0778058 61 50 46
-0.043633923 0.29920405 2.0778058 61 50 47
-0.041556112 0.29920405 2.0778058 62 51 49
-0.03947831 0.29920405 2.0778058 62 52 50
-0.037400506 0.29920405 2.0778058 61 51 49
-0.035322696 0.29920405 2.0778058 65 54 52
-0.03310591 0.2979532 2.0691195 64 54 52
-0.031036792 0.2979532 2.0691195 63 52 51
-0.028967673 0.2979532 2.0691195 61 51 49
-0.026898552 0.2979532 2.0691195 63 53 51
-0.024829434 0.2979532 2.0691195 65 54 53
-0.022760315 0.2979532 2.0691195 65 55 52
-0.020691194 0.2979532 2.0691195 66 55 53
-0.018622074 0.2979532 2.0691195 63 52 51
-0.016552955 0.2979532 2.0691195 63 52 51
-0.0144838365 0.2979532 2.0691195 66 55 54
-0.012414717 0.2979532 2.0691195 66 54 53
-0.010345597 0.2979532 2.0691195 74 62 62
-0.008276477 0.2979532 2.0691195 67 54 53
-0.0062073586 0.2979532 2.0691195 70 55 55
-0.0041382387 0.2979532 2.0691195 70 56 55
-0.0020778058 0.29920405 2.0778058 69 55 53
0.0 0.30021232 2.0848076 72 59 56
0.0020848077 0.30021232 2.0848076 82 68 60
0.0041696155 0.30021232 2.0848076 84 67 60
0.00628088 0.30148223 2.0936267 107 87 80
0.008374507 0.30148223 2.0936267 118 97 86
0.010468134 0.30148223 2.0936267 129 106 92
0.01256176 0.30148223 2.0936267 115 93 82
0.014655387 0.30148223 2.0936267 116 92 82
0.016749013 0.30148223 2.0936267 108 88 83
0.018922685 0.30276296 2.1025207 124 110 102
0.021025207 0.30276296 2.1025207 88 72 61
0.023127727 0.30276296 2.1025207 95 74 68
0.025316285 0.3037954 2.1096904 114 94 88
0.027425976 0.3037954 2.1096904 87 65 57
0.029535666 0.3037954 2.1096904 92 72 67
0.031537812 0.30276296 2.1025207 131 113 104
0.034045286 0.3064076 2.1278305 109 91 88
0.03617312 0.3064076 2.1278305 115 94 91
0.038136985 0.30509588 2.1187215 121 101 96
0.04092138 0.310141 2.1537569 138 115 108
0.046516296 0.33491734 2.3258147 116 97 90
-0.116377406 0.3139994 2.1958 87 69 58
-0.111510105 0.3066528 2.1444252 85 68 58
-0.10936569 0.3066528 2.1444252 79 65 56
-0.10722126 0.3066528 2.1444252 72 57 49
-0.105076835 0.3066528 2.1444252 75 61 54
-0.102488354 0.3053299 2.135174 74 60 55
-0.10035318 0.3053299 2.135174 73 61 56
-0.0978802 0.30427974 2.1278305 63 50 46
-0.09575237 0.30427974 2.1278305 73 62 57
-0.09362454 0.30427974 2.1278305 68 57 50
-0.09110503 0.30297717 2.1187215 64 53 48
-0.08898631 0.30297717 2.1187215 62 50 46
-0.086867586 0.30297717 2.1187215 67 55 51
-0.084387615 0.30168572 2.1096904 62 49 45
-0.082277924 0.30168572 2.1096904 65 52 49
-0.07989579 0.30066046 2.1025207 66 54 51
-0.07779326 0.30066046 2.1025207 68 54 51
-0.07569074 0.30066046 2.1025207 64 53 49
-0.07358823 0.30066046 2.1025207 61 49 44
-0.07118331 0.29938862 2.0936267 70 58 53
-0.06908968 0.29938862 2.0936267 64 54 49
-0.06699605 0.29938862 2.0936267 69 59 55
-0.064902425 0.29938862 2.0936267 77 67 63
-0.062808804 0.29938862 2.0936267 60 49 45
-0.060715176 0.29938862 2.0936267 60 49 45
-0.058374614 0.2981275 2.0848076 61 50 46
-0.056289807 0.2981275 2.0848076 66 56 52
-0.054204997 0.2981275 2.0848076 63 53 48
-0.05212019 0.2981275 2.0848076 66 55 51
-0.050035384 0.2981275 2.0848076 64 52 49
-0.047789533 0.29712623 2.0778058 61 50 46
-0.045711726 0.29712623 2.0778058 61 49 46
-0.043633923 0.29712623 2.0778058 61 51 48
-0.041556112 0.29712623 2.0778058 61 50 47
-0.03947831 0.29712623 2.0778058 60 50 47
-0.03724415 0.2958841 2.0691195 60 50 48
-0.03517503 0.2958841 2.0691195 63 53 51
-0.03310591 0.2958841 2.0691195 65 55 53
-0.031036792 0.2958841 2.0691195 64 54 52
-0.028967673 0.2958841 2.0691195 62 52 50
-0.026898552 0.2958841 2.0691195 64 54 52
-0.024829434 0.2958841 2.0691195 64 53 51
-0.022760315 0.2958841 2.0691195 62 51 50
-0.020691194 0.2958841 2.0691195 64 53 50
-0.018622074 0.2958841 2.0691195 63 52 50
-0.016552955 0.2958841 2.0691195 61 50 49
-0.0144838365 0.2958841 2.0691195 61 50 50
-0.012414717 0.2958841 2.0691195 61 49 48
-0.010345597 0.2958841 2.0691195 70 58 57
-0.008276477 0.2958841 2.0691195 67 53 53
-0.0062073586 0.2958841 2.0691195 66 52 52
-0.0041382387 0.2958841 2.0691195 69 55 54
-0.0020691194 0.2958841 2.0691195 67 53 51
0.0 0.29712623 2.0778058 74 61 59
0.0020848077 0.2981275 2.0848076 83 70 66
0.0041696155 0.2981275 2.0848076 84 66 59
0.006254423 0.2981275 2.0848076 103 83 78
0.008339231 0.2981275 2.0848076 117 95 90
0.010424038 0.2981275 2.0848076 107 84 79
0.012508846 0.2981275 2.0848076 117 92 86
0.014593653 0.2981275 2.0848076 117 92 82
0.016749013 0.29938862 2.0936267 107 87 79
0.01884264 0.29938862 2.0936267 139 115 106
0.021025207 0.30066046 2.1025207 90 70 60
0.023029894 0.29938862 2.0936267 93 71 63
0.025230248 0.30066046 2.1025207 97 78 69
0.02733277 0.30066046 2.1025207 89 67 58
0.02943529 0.30066046 2.1025207 82 62 55
0.031645358 0.30168572 2.1096904 123 106 98
0.034045286 0.30427974 2.1278305 103 86 82
0.036018264 0.30297717 2.1187215 100 79 76
0.038136985 0.30297717 2.1187215 112 93 88
0.04042878 0.30427974 2.1278305 126 104 98
0.04430916 0.31681052 2.2154582 117 97 89
-0.12148363 0.31945696 2.249697 94 79 68
-0.114149116 0.30583346 2.1537569 87 70 61
-0.11102905 0.3031947 2.135174 83 66 58
-0.10936569 0.30450836 2.1444252 77 61 52
-0.10722126 0.30450836 2.1444252 73 57 50
-0.10553409 0.30583346 2.1537569 77 64 57
-0.102488354 0.3031947 2.135174 72 59 54
-0.10035318 0.3031947 2.135174 61 49 43
-0.0978802 0.30215192 2.1278305 76 65 60
-0.095342465 0.30085847 2.1187215 72 60 55
-0.09362454 0.30215192 2.1278305 69 56 51
-0.09110503 0.30085847 2.1187215 66 55 51
-0.08898631 0.30085847 2.1187215 65 53 50
-0.086867586 0.30085847 2.1187215 66 54 50
-0.084387615 0.29957604 2.1096904 65 52 49
-0.082277924 0.29957604 2.1096904 67 55 51
-0.07989579 0.29855797 2.1025207 67 55 51
-0.07779326 0.29855797 2.1025207 68 54 51
-0.07569074 0.29855797 2.1025207 64 53 50
-0.07358823 0.29855797 2.1025207 62 50 46
-0.07118331 0.29729497 2.0936267 70 59 54
-0.06908968 0.29729497 2.0936267 65 55 49
-0.06699605 0.29729497 2.0936267 68 58 53
-0.064902425 0.29729497 2.0936267 72 62 58
-0.06254423 0.29604268 2.0848076 59 48 43
-0.060459424 0.29604268 2.0848076 61 50 46
-0.058374614 0.29604268 2.0848076 64 53 48
-0.056289807 0.29604268 2.0848076 66 53 50
-0.054204997 0.29604268 2.0848076 65 52 49
-0.051945146 0.29504845 2.0778058 67 54 51
-0.04986734 0.29504845 2.0778058 63 50 47
-0.047789533 0.29504845 2.0778058 61 49 45
-0.045711726 0.29504845 2.0778058 61 49 46
-0.043633923 0.29504845 2.0778058 61 49 46
-0.041556112 0.29504845 2.0778058 61 49 46
-0.03931327 0.29381496 2.0691195 60 49 47
-0.037400506 0.29504845 2.0778058 60 49 47
-0.035322696 0.29504845 2.0778058 61 50 48
-0.03310591 0.29381496 2.0691195 64 53 52
-0.031036792 0.29381496 2.0691195 63 53 51
-0.028967673 0.29381496 2.0691195 61 51 49
-0.026898552 0.29381496 2.0691195 64 53 52
-0.024829434 0.29381496 2.0691195 65 54 53
-0.022760315 0.29381496 2.0691195 62 51 50
-0.020691194 0.29381496 2.0691195 63 50 48
-0.018622074 0.29381496 2.0691195 62 51 49
-0.016552955 0.29381496 2.0691195 61 49 48
-0.0144838365 0.29381496 2.0691195 61 50 49
-0.012414717 0.29381496 2.0691195 62 49 49
-0.010345597 0.29381496 2.0691195 61 49 48
-0.008276477 0.29381496 2.0691195 69 56 55
-0.0062073586 0.29381496 2.0691195 65 51 50
-0.0041382387 0.29381496 2.0691195 67 52 51
-0.0020691194 0.29381496 2.0691195 65 51 48
0.0 0.29381496 2.0691195 67 55 53
0.0020778058 0.29504845 2.0778058 82 69 66
0.0041696155 0.29604268 2.0848076 87 69 62
0.006254423 0.29604268 2.0848076 103 79 72
0.008339231 0.29604268 2.0848076 108 81 73
0.010424038 0.29604268 2.0848076 117 91 83
0.012508846 0.29604268 2.0848076 115 88 80
0.014593653 0.29604268 2.0848076 127 98 89
0.016749013 0.29729497 2.0936267 104 83 74
0.01884264 0.29729497 2.0936267 141 112 103
0.021025207 0.29855797 2.1025207 99 75 66
0.023127727 0.29855797 2.1025207 92 70 61
0.025230248 0.29855797 2.1025207 91 71 61
0.02733277 0.29855797 2.1025207 89 65 56
0.029535666 0.29957604 2.1096904 90 69 63
0.031537812 0.29855797 2.1025207 116 99 92
0.034045286 0.30215192 2.1278305 93 74 70
0.036018264 0.30085847 2.1187215 99 79 74
0.037974425 0.29957604 2.1096904 105 85 80
0.040255707 0.30085847 2.1187215 110 91 85
0.042888504 0.30450836 2.1444252 137 112 102
0.047459368 0.3209157 2.2599697 100 81 71
-0.12637573 0.32398143 2.2977407 98 84 72
-0.11630287 0.3036797 2.1537569 89 70 61
-0.11277502 0.30002412 2.1278305 84 68 60
-0.111510105 0.30236396 2.1444252 80 65 56
-0.10936569 0.30236396 2.1444252 71 58 48
-0.10722126 0.30236396 2.1444252 76 62 55
-0.10553409 0.3036797 2.1537569 74 62 55
-0.102488354 0.30105954 2.135174 75 63 56
-0.10000803 0.30002412 2.1278305 60 48 41
-0.0978802 0.30002412 2.1278305 77 66 60
-0.095342465 0.2987397 2.1187215 70 58 51
-0.09322375 0.2987397 2.1187215 71 57 53
-0.09110503 0.2987397 2.1187215 69 58 55
-0.08898631 0.2987397 2.1187215 72 60 57
-0.08649731 0.29746634 2.1096904 64 51 48
-0.084387615 0.29746634 2.1096904 68 55 52
-0.082277924 0.29746634 2.1096904 67 55 51
-0.07989579 0.2964554 2.1025207 68 56 53
-0.07779326 0.2964554 2.1025207 67 56 53
-0.07569074 0.2964554 2.1025207 64 53 50
-0.07327694 0.29520136 2.0936267 68 56 53
-0.07118331 0.29520136 2.0936267 75 64 60
-0.06908968 0.29520136 2.0936267 67 55 51
-0.06699605 0.29520136 2.0936267 71 58 55
-0.064902425 0.29520136 2.0936267 69 58 54
-0.062808804 0.29520136 2.0936267 62 50 46
-0.060459424 0.2939579 2.0848076 63 50 47
-0.058374614 0.2939579 2.0848076 65 53 49
-0.056289807 0.2939579 2.0848076 64 52 48
-0.054204997 0.2939579 2.0848076 66 54 50
-0.05212019 0.2939579 2.0848076 66 55 52
-0.04986734 0.2929706 2.0778058 61 50 46
-0.047789533 0.2929706 2.0778058 61 50 46
-0.045711726 0.2929706 2.0778058 60 49 45
-0.043633923 0.2929706 2.0778058 61 51 47
-0.041556112 0.2929706 2.0778058 61 51 48
-0.03947831 0.2929706 2.0778058 60 49 47
-0.03724415 0.29174584 2.0691195 59 48 47
-0.03517503 0.29174584 2.0691195 59 48 46
-0.03310591 0.29174584 2.0691195 62 51 50
-0.031036792 0.29174584 2.0691195 60 49 48
-0.028967673 0.29174584 2.0691195 60 49 47
-0.026898552 0.29174584 2.0691195 61 50 48
-0.024829434 0.29174584 2.0691195 63 52 51
-0.022760315 0.29174584 2.0691195 61 50 48
-0.020691194 0.29174584 2.0691195 63 51 50
-0.018622074 0.29174584 2.0691195 62 51 50
-0.016552955 0.29174584 2.0691195 62 50 49
-0.0144838365 0.29174584 2.0691195 61 50 49
-0.012414717 0.29174584 2.0691195 62 49 48
-0.010345597 0.29174584 2.0691195 61 48 47
-0.008276477 0.29174584 2.0691195 67 53 53
-0.0062073586 0.29174584 2.0691195 63 48 48
-0.0041382387 0.29174584 2.0691195 67 52 50
-0.0020691194 0.29174584 2.0691195 66 51 49
0.0 0.2929706 2.0778058 67 53 51
0.0020778058 0.2929706 2.0778058 76 64 60
0.0041556116 0.2929706 2.0778058 81 66 60
0.0062334174 0.2929706 2.0778058 89 67 61
0.008311223 0.2929706 2.0778058 109 84 78
0.010389028 0.2929706 2.0778058 121 94 86
0.012466835 0.2929706 2.0778058 118 92 83
0.014593653 0.2939579 2.0848076 123 95 87
0.016678462 0.2939579 2.0848076 111 85 75
0.018922685 0.2964554 2.1025207 109 83 71
0.020936267 0.29520136 2.0936267 114 86 78
0.023127727 0.2964554 2.1025207 90 67 54
0.025230248 0.2964554 2.1025207 91 68 55
0.02733277 0.2964554 2.1025207 90 67 56
0.029535666 0.29746634 2.1096904 92 73 65
0.031645358 0.29746634 2.1096904 104 89 82
0.033899542 0.2987397 2.1187215 89 69 60
0.036018264 0.2987397 2.1187215 94 73 65
0.037974425 0.29746634 2.1096904 96 74 65
0.04042878 0.30002412 2.1278305 106 85 76
0.04270348 0.30105954 2.135174 112 93 84
0.045585968 0.3060772 2.1707604 105 87 77
0.051167924 0.32793987 2.3258147 100 81 72
-0.12130719 0.30878192 2.2055852 90 72 65
-0.1152994 0.2989244 2.135174 88 70 62
-0.114149116 0.30152598 2.1537569 83 67 59
-0.111510105 0.3002195 2.1444252 77 62 54
-0.10851935 0.29789627 2.1278305 74 60 52
-0.106758706 0.2989244 2.135174 79 65 58
-0.10462353 0.2989244 2.135174 73 61 54
-0.102488354 0.2989244 2.135174 58 45 38
-0.10000803 0.29789627 2.1278305 77 65 59
-0.09746119 0.296621 2.1187215 76 65 58
-0.09575237 0.29789627 2.1278305 71 59 53
-0.09322375 0.296621 2.1187215 70 57 53
-0.09071669 0.29535666 2.1096904 68 54 51
-0.08898631 0.296621 2.1187215 76 64 61
-0.08649731 0.29535666 2.1096904 65 53 49
-0.084387615 0.29535666 2.1096904 69 57 54
-0.0819983 0.29435292 2.1025207 67 55 52
-0.07989579 0.29435292 2.1025207 70 58 55
-0.07779326 0.29435292 2.1025207 68 57 54
-0.07569074 0.29435292 2.1025207 64 53 49
-0.07327694 0.29310775 2.0936267 63 52 49
-0.07118331 0.29310775 2.0936267 82 72 68
-0.06908968 0.29310775 2.0936267 67 54 50
-0.06699605 0.29310775 2.0936267 70 58 54
-0.064902425 0.29310775 2.0936267 67 58 54
-0.06254423 0.29187307 2.0848076 64 51 48
-0.060459424 0.29187307 2.0848076 64 51 48
-0.058374614 0.29187307 2.0848076 66 53 50
-0.056289807 0.29187307 2.0848076 64 52 48
-0.054204997 0.29187307 2.0848076 66 54 50
-0.051945146 0.29089278 2.0778058 65 53 50
-0.04986734 0.29089278 2.0778058 61 48 46
-0.047789533 0.29089278 2.0778058 62 50 46
-0.045711726 0.29089278 2.0778058 63 52 49
-0.043633923 0.29089278 2.0778058 62 50 47
-0.041382387 0.28967673 2.0691195 61 49 46
-0.03947831 0.29089278 2.0778058 61 48 46
-0.03724415 0.28967673 2.0691195 60 49 47
-0.035322696 0.29089278 2.0778058 60 49 47
-0.03310591 0.28967673 2.0691195 59 48 46
-0.031036792 0.28967673 2.0691195 57 46 44
-0.028967673 0.28967673 2.0691195 59 48 47
-0.026898552 0.28967673 2.0691195 60 49 47
-0.024829434 0.28967673 2.0691195 61 50 48
-0.022760315 0.28967673 2.0691195 60 49 47
-0.020691194 0.28967673 2.0691195 61 50 48
-0.018622074 0.28967673 2.0691195 61 51 49
-0.016552955 0.28967673 2.0691195 60 48 47
-0.0144838365 0.28967673 2.0691195 63 54 52
-0.012414717 0.28967673 2.0691195 62 49 49
-0.010345597 0.28967673 2.0691195 60 48 47
-0.008276477 0.28967673 2.0691195 61 47 47
-0.0062073586 0.28967673 2.0691195 63 50 50
-0.0041382387 0.28967673 2.0691195 67 52 51
-0.0020691194 0.28967673 2.0691195 68 53 51
0.0 0.28967673 2.0691195 69 55 52
0.0020778058 0.29089278 2.0778058 73 60 56
0.0041696155 0.29187307 2.0848076 78 60 55
0.006254423 0.29187307 2.0848076 100 78 74
0.008339231 0.29187307 2.0848076 123 94 88
0.010424038 0.29187307 2.0848076 118 90 83
0.012508846 0.29187307 2.0848076 121 90 82
0.014593653 0.29187307 2.0848076 116 86 78
0.016749013 0.29310775 2.0936267 114 83 72
0.01884264 0.29310775 2.0936267 114 84 71
0.021025207 0.29435292 2.1025207 108 78 69
0.023029894 0.29310775 2.0936267 94 69 57
0.025230248 0.29435292 2.1025207 91 68 54
