ply
format ascii 1.0
element vertex 1069
property float32 x
property float32 y
property float32 z
property uchar red
property uchar green
property uchar blue
element face 0
property list uint8 int32 vertex_indices
end_header
0.030123759 -0.32232422 1.5061879 206 186 163
0.031629946 -0.32232422 1.5061879 207 187 164
0.033136137 -0.32232422 1.5061879 215 194 170
0.034642324 -0.32232422 1.5061879 217 196 173
0.03614851 -0.32232422 1.5061879 217 194 171
0.037654698 -0.32232422 1.5061879 221 197 172
0.039160885 -0.32232422 1.5061879 211 188 167
0.040667072 -0.32232422 1.5061879 209 188 165
0.042173263 -0.32232422 1.5061879 214 191 169
0.04367945 -0.32232422 1.5061879 209 189 166
0.045185637 -0.32232422 1.5061879 213 192 170
0.046691827 -0.32232422 1.5061879 220 199 176
0.048198014 -0.32232422 1.5061879 218 200 175
0.0497042 -0.32232422 1.5061879 206 185 164
0.05121039 -0.32232422 1.5061879 203 184 163
0.052716576 -0.32232422 1.5061879 213 189 168
0.054222763 -0.32232422 1.5061879 212 191 169
0.055728953 -0.32232422 1.5061879 202 182 162
0.05723514 -0.32232422 1.5061879 212 189 167
0.058741327 -0.32232422 1.5061879 209 184 165
0.0600283 -0.3211514 1.5007075 203 182 161
0.061529007 -0.3211514 1.5007075 205 183 162
0.063029714 -0.3211514 1.5007075 200 181 159
0.064530425 -0.3211514 1.5007075 208 187 166
0.06603113 -0.3211514 1.5007075 214 192 170
0.06753184 -0.3211514 1.5007075 214 193 169
0.06903255 -0.3211514 1.5007075 208 188 167
0.07053325 -0.3211514 1.5007075 201 181 159
0.071772814 -0.31998712 1.4952669 197 176 153
0.07326808 -0.31998712 1.4952669 196 172 151
0.07476334 -0.31998712 1.4952669 189 166 147
0.076258615 -0.31998712 1.4952669 164 142 125
0.07775388 -0.31998712 1.4952669 153 135 117
0.07924914 -0.31998712 1.4952669 156 137 118
0.080744416 -0.31998712 1.4952669 148 129 110
0.08253891 -0.3211514 1.5007075 140 117 100
0.08403962 -0.3211514 1.5007075 130 110 93
0.08585271 -0.32232422 1.5061879 129 110 93
0.0873589 -0.32232422 1.5061879 128 109 92
0.08854174 -0.3211514 1.5007075 135 115 97
0.09037127 -0.32232422 1.5061879 135 115 97
0.09187747 -0.32232422 1.5061879 133 113 96
0.09304387 -0.3211514 1.5007075 134 113 97
0.09488984 -0.32232422 1.5061879 130 110 94
0.09639603 -0.32232422 1.5061879 132 112 95
0.09754599 -0.3211514 1.5007075 131 112 95
0.0994084 -0.32232422 1.5061879 131 113 95
0.10091459 -0.32232422 1.5061879 132 113 96
0.102048114 -0.3211514 1.5007075 135 116 99
0.10354882 -0.3211514 1.5007075 135 115 98
0.10504952 -0.3211514 1.5007075 131 112 96
0.10655023 -0.3211514 1.5007075 130 112 96
0.10805094 -0.3211514 1.5007075 135 117 100
0.10955165 -0.3211514 1.5007075 134 117 99
0.11105235 -0.3211514 1.5007075 136 117 99
0.11296409 -0.32232422 1.5061879 135 117 99
0.11447028 -0.32232422 1.5061879 130 114 96
0.11555448 -0.3211514 1.5007075 134 115 97
0.117055185 -0.3211514 1.5007075 132 111 95
0.11898885 -0.32232422 1.5061879 126 108 93
0.120495036 -0.32232422 1.5061879 124 106 91
0.12200122 -0.32232422 1.5061879 127 108 93
0.12350741 -0.32232422 1.5061879 124 106 91
0.12501359 -0.32232422 1.5061879 121 103 89
0.12651978 -0.32232422 1.5061879 126 108 93
0.12802596 -0.32232422 1.5061879 124 107 91
0.12953216 -0.32232422 1.5061879 125 108 92
0.13103834 -0.32232422 1.5061879 129 111 94
0.13254455 -0.32232422 1.5061879 126 108 92
0.13405073 -0.32232422 1.5061879 124 106 90
0.13605377 -0.3235056 1.5117085 128 109 94
0.13756548 -0.3235056 1.5117085 133 112 96
0.1385693 -0.32232422 1.5061879 128 109 94
0.1405889 -0.3235056 1.5117085 133 111 96
0.14262334 -0.3246957 1.5172696 133 113 97
0.14361231 -0.3235056 1.5117085 129 110 95
0.14512402 -0.3235056 1.5117085 132 112 97
0.14663573 -0.3235056 1.5117085 131 109 94
0.14814743 -0.3235056 1.5117085 144 122 107
0.14965913 -0.3235056 1.5117085 148 128 113
0.15172696 -0.3246957 1.5172696 149 129 117
0.15324423 -0.3246957 1.5172696 151 134 120
0.15419427 -0.3235056 1.5117085 171 150 134
0.15570597 -0.3235056 1.5117085 179 159 140
0.15721768 -0.3235056 1.5117085 190 169 148
0.15872939 -0.3235056 1.5117085 184 164 144
0.1602411 -0.3235056 1.5117085 186 168 146
0.1617528 -0.3235056 1.5117085 198 176 156
0.16326451 -0.3235056 1.5117085 205 182 161
0.16477624 -0.3235056 1.5117085 197 175 155
0.16628793 -0.3235056 1.5117085 202 177 157
0.16779964 -0.3235056 1.5117085 207 183 163
0.16931136 -0.3235056 1.5117085 206 185 164
0.17082305 -0.3235056 1.5117085 202 180 160
0.17233476 -0.3235056 1.5117085 203 183 162
0.17384648 -0.3235056 1.5117085 205 182 161
0.17535819 -0.3235056 1.5117085 201 177 157
0.17686988 -0.3235056 1.5117085 174 153 137
0.1783816 -0.3235056 1.5117085 183 162 142
0.17989331 -0.3235056 1.5117085 195 172 147
0.18140501 -0.3235056 1.5117085 195 171 147
0.18291673 -0.3235056 1.5117085 196 172 150
0.18442844 -0.3235056 1.5117085 188 166 146
0.18594015 -0.3235056 1.5117085 194 170 151
0.18745185 -0.3235056 1.5117085 198 176 156
0.18896356 -0.3235056 1.5117085 200 177 159
0.19047527 -0.3235056 1.5117085 201 179 160
0.19198698 -0.3235056 1.5117085 201 178 157
0.19349869 -0.3235056 1.5117085 199 177 156
0.19429825 -0.32232422 1.5061879 197 175 155
0.19580443 -0.32232422 1.5061879 196 172 153
0.19659269 -0.3211514 1.5007075 196 173 153
0.19809338 -0.3211514 1.5007075 198 175 155
0.1988705 -0.31998712 1.4952669 188 167 147
0.20036577 -0.31998712 1.4952669 188 168 147
0.20113185 -0.31883124 1.4898655 189 168 147
0.20189242 -0.3176837 1.4845031 182 160 140
0.20337693 -0.3176837 1.4845031 180 160 141
0.20486143 -0.3176837 1.4845031 164 143 127
0.20634593 -0.3176837 1.4845031 179 155 136
0.20783044 -0.3176837 1.4845031 182 158 139
0.20931494 -0.3176837 1.4845031 185 160 142
0.21079946 -0.3176837 1.4845031 191 168 148
0.21228395 -0.3176837 1.4845031 189 165 145
-0.21060994 -0.31445232 1.462569 218 148 56
-0.20175447 -0.30333716 1.4108704 243 171 0
-0.19830851 -0.30025586 1.3965389 244 178 0
-0.19691198 -0.30025586 1.3965389 248 179 0
-0.1947461 -0.2990744 1.3910437 248 179 0
-0.19335507 -0.2990744 1.3910437 248 178 0
-0.19196402 -0.2990744 1.3910437 249 179 0
-0.19057298 -0.2990744 1.3910437 249 179 0
-0.18918194 -0.2990744 1.3910437 249 179 0
-0.18853274 -0.30025586 1.3965389 249 179 0
-0.1871362 -0.30025586 1.3965389 249 179 0
-0.18573967 -0.30025586 1.3965389 249 179 0
-0.18434313 -0.30025586 1.3965389 249 179 0
-0.1829466 -0.30025586 1.3965389 249 179 0
-0.18155006 -0.30025586 1.3965389 249 179 0
-0.18015352 -0.30025586 1.3965389 249 179 0
-0.17875697 -0.30025586 1.3965389 249 179 0
-0.17736043 -0.30025586 1.3965389 249 179 0
-0.1759639 -0.30025586 1.3965389 249 179 0
-0.17456736 -0.30025586 1.3965389 249 179 0
-0.17317082 -0.30025586 1.3965389 249 179 0
-0.17177428 -0.30025586 1.3965389 249 179 0
-0.17037775 -0.30025586 1.3965389 249 179 0
-0.16955529 -0.30127594 1.4012835 249 179 0
-0.16758466 -0.30025586 1.3965389 249 179 0
-0.16618812 -0.30025586 1.3965389 249 179 0
-0.16479158 -0.30025586 1.3965389 249 179 0
-0.16339505 -0.30025586 1.3965389 249 181 0
-0.16254888 -0.30127594 1.4012835 249 181 0
-0.1611476 -0.30127594 1.4012835 249 181 0
-0.15974632 -0.30127594 1.4012835 249 181 0
-0.15780888 -0.30025586 1.3965389 249 181 0
-0.15641235 -0.30025586 1.3965389 250 181 0
-0.15501581 -0.30025586 1.3965389 248 182 0
-0.15361927 -0.30025586 1.3965389 250 181 0
-0.15222274 -0.30025586 1.3965389 250 181 0
-0.1508262 -0.30025586 1.3965389 251 180 0
-0.14993733 -0.30127594 1.4012835 248 182 0
-0.14853606 -0.30127594 1.4012835 248 182 0
-0.14713477 -0.30127594 1.4012835 248 182 0
-0.14673053 -0.30333716 1.4108704 247 183 0
-0.14590193 -0.30455258 1.4165236 244 180 0
-0.1444854 -0.30455258 1.4165236 244 180 0
-0.14306888 -0.30455258 1.4165236 227 151 0
-0.1426321 -0.30665898 1.4263209 208 128 0
-0.14169577 -0.30772313 1.4312705 200 139 34
-0.1408347 -0.3089741 1.4370887 202 174 138
-0.13988501 -0.31005442 1.4421135 201 175 152
-0.14090629 -0.31557137 1.4677739 205 180 154
-0.1399365 -0.31669843 1.4730159 206 180 160
-0.1384635 -0.31669843 1.4730159 203 179 155
-0.13756366 -0.31802353 1.4791791 200 178 153
-0.13608448 -0.31802353 1.4791791 207 184 160
-0.13508978 -0.31916818 1.4845031 204 181 156
-0.13360529 -0.31916818 1.4845031 200 175 152
-0.13212077 -0.31916818 1.4845031 197 172 150
-0.13110816 -0.3203211 1.4898655 187 165 144
-0.1296183 -0.3203211 1.4898655 186 163 144
-0.12812844 -0.3203211 1.4898655 177 156 136
-0.12663858 -0.3203211 1.4898655 180 158 137
-0.1251487 -0.3203211 1.4898655 178 155 135
-0.12410715 -0.3214824 1.4952669 171 150 129
-0.12261189 -0.3214824 1.4952669 163 144 120
-0.12111662 -0.3214824 1.4952669 150 128 106
-0.11962135 -0.3214824 1.4952669 140 118 99
-0.118555896 -0.3226521 1.5007075 134 115 96
-0.11663082 -0.3214824 1.4952669 137 116 95
-0.11513555 -0.3214824 1.4952669 132 113 93
-0.113640286 -0.3214824 1.4952669 131 111 91
-0.11214502 -0.3214824 1.4952669 130 109 90
-0.11064975 -0.3214824 1.4952669 131 110 90
-0.109154485 -0.3214824 1.4952669 132 112 93
-0.10765922 -0.3214824 1.4952669 140 120 98
-0.10616395 -0.3214824 1.4952669 135 118 96
-0.104668684 -0.3214824 1.4952669 136 119 97
-0.10317342 -0.3214824 1.4952669 135 115 96
-0.10131086 -0.3203211 1.4898655 127 109 91
-0.099820994 -0.3203211 1.4898655 128 110 92
-0.09868761 -0.3214824 1.4952669 135 114 96
-0.097192355 -0.3214824 1.4952669 128 108 91
-0.09569708 -0.3214824 1.4952669 126 107 90
-0.09420181 -0.3214824 1.4952669 127 107 90
-0.09270655 -0.3214824 1.4952669 123 104 88
-0.090881795 -0.3203211 1.4898655 127 108 92
-0.08971602 -0.3214824 1.4952669 128 110 93
-0.088220745 -0.3214824 1.4952669 130 111 93
-0.08672548 -0.3214824 1.4952669 127 108 92
-0.08523022 -0.3214824 1.4952669 123 106 90
-0.083734944 -0.3214824 1.4952669 131 112 94
-0.08223968 -0.3214824 1.4952669 133 114 96
-0.08045273 -0.3203211 1.4898655 127 110 92
-0.07896288 -0.3203211 1.4898655 125 107 91
-0.07747301 -0.3203211 1.4898655 129 110 94
-0.07598314 -0.3203211 1.4898655 130 111 94
-0.07449328 -0.3203211 1.4898655 129 109 93
-0.07300341 -0.3203211 1.4898655 126 108 91
-0.07151355 -0.3203211 1.4898655 136 117 98
-0.07002368 -0.3203211 1.4898655 136 117 98
-0.068533815 -0.3203211 1.4898655 129 110 93
-0.06704395 -0.3203211 1.4898655 130 111 94
-0.06555408 -0.3203211 1.4898655 125 106 90
-0.06406422 -0.3203211 1.4898655 129 109 92
-0.06257435 -0.3203211 1.4898655 131 111 94
-0.061084487 -0.3203211 1.4898655 130 110 93
-0.05959462 -0.3203211 1.4898655 128 109 92
-0.058104757 -0.3203211 1.4898655 130 110 93
-0.05661489 -0.3203211 1.4898655 130 110 93
-0.055125028 -0.3203211 1.4898655 128 108 92
-0.053635158 -0.3203211 1.4898655 126 108 91
-0.052334342 -0.3214824 1.4952669 129 110 92
-0.050839074 -0.3214824 1.4952669 133 113 94
-0.049343806 -0.3214824 1.4952669 131 111 92
-0.04784854 -0.3214824 1.4952669 126 108 90
-0.046353277 -0.3214824 1.4952669 133 113 95
-0.04485801 -0.3214824 1.4952669 134 114 100
-0.04336274 -0.3214824 1.4952669 134 114 104
-0.041867472 -0.3214824 1.4952669 147 125 113
-0.040372208 -0.3214824 1.4952669 162 140 124
-0.03887694 -0.3214824 1.4952669 172 151 134
-0.03738167 -0.3214824 1.4952669 171 150 133
-0.035886407 -0.3214824 1.4952669 175 154 137
-0.03439114 -0.3214824 1.4952669 184 161 143
-0.032895874 -0.3214824 1.4952669 203 179 156
-0.031400606 -0.3214824 1.4952669 203 180 158
-0.029905338 -0.3214824 1.4952669 207 184 161
-0.028410072 -0.3214824 1.4952669 203 184 160
-0.026914805 -0.3214824 1.4952669 202 180 158
-0.025419537 -0.3214824 1.4952669 200 178 156
-0.02392427 -0.3214824 1.4952669 198 176 155
-0.022429004 -0.3214824 1.4952669 200 178 156
-0.020933736 -0.3214824 1.4952669 203 182 160
-0.01943847 -0.3214824 1.4952669 207 186 164
-0.017943203 -0.3214824 1.4952669 203 183 161
-0.016507782 -0.3226521 1.5007075 188 170 150
-0.015007075 -0.3226521 1.5007075 201 179 157
-0.013506368 -0.3226521 1.5007075 203 180 157
-0.01200566 -0.3226521 1.5007075 201 178 155
-0.010504953 -0.3226521 1.5007075 194 172 150
-0.009004245 -0.3226521 1.5007075 192 169 149
-0.0075035375 -0.3226521 1.5007075 205 183 159
-0.006024752 -0.32383043 1.5061879 206 184 159
-0.004518564 -0.32383043 1.5061879 205 182 158
-0.003012376 -0.32383043 1.5061879 193 171 150
-0.001506188 -0.32383043 1.5061879 206 186 163
0.0 -0.32383043 1.5061879 216 194 170
0.001506188 -0.32383043 1.5061879 217 191 170
0.003012376 -0.32383043 1.5061879 213 190 168
0.004518564 -0.32383043 1.5061879 208 185 164
0.006024752 -0.32383043 1.5061879 201 180 158
0.0075309398 -0.32383043 1.5061879 206 184 163
0.009037128 -0.32383043 1.5061879 208 185 164
0.010543316 -0.32383043 1.5061879 204 181 161
0.012093668 -0.32501733 1.5117085 205 186 163
0.013605377 -0.32501733 1.5117085 208 184 163
0.015117085 -0.32501733 1.5117085 189 167 147
0.016568068 -0.32383043 1.5061879 200 175 155
0.018074255 -0.32383043 1.5061879 202 177 157
0.019580442 -0.32383043 1.5061879 201 177 157
0.021086631 -0.32383043 1.5061879 205 180 160
0.022592818 -0.32383043 1.5061879 209 185 164
0.024099007 -0.32383043 1.5061879 208 184 162
0.025605194 -0.32383043 1.5061879 207 184 162
0.027111381 -0.32383043 1.5061879 207 186 163
0.02861757 -0.32383043 1.5061879 208 186 163
0.030123759 -0.32383043 1.5061879 202 182 160
0.031629946 -0.32383043 1.5061879 207 184 162
0.033136137 -0.32383043 1.5061879 212 192 168
0.034642324 -0.32383043 1.5061879 213 194 170
0.03601698 -0.3226521 1.5007075 209 191 167
0.03751769 -0.3226521 1.5007075 210 188 165
0.039018396 -0.3226521 1.5007075 208 185 162
0.040519103 -0.3226521 1.5007075 212 188 166
0.04201981 -0.3226521 1.5007075 211 188 165
0.043520518 -0.3226521 1.5007075 216 194 172
0.045021225 -0.3226521 1.5007075 210 190 166
0.046521936 -0.3226521 1.5007075 216 195 172
0.04802264 -0.3226521 1.5007075 221 199 176
0.049523346 -0.3226521 1.5007075 215 194 172
0.051024057 -0.3226521 1.5007075 207 186 164
0.05252476 -0.3226521 1.5007075 206 186 164
0.05402547 -0.3226521 1.5007075 207 187 165
0.055526175 -0.3226521 1.5007075 209 189 166
0.057026885 -0.3226521 1.5007075 214 194 171
0.058527593 -0.3226521 1.5007075 211 191 168
0.0600283 -0.3226521 1.5007075 215 193 171
0.061529007 -0.3226521 1.5007075 216 195 173
0.063029714 -0.3226521 1.5007075 207 187 165
0.064530425 -0.3226521 1.5007075 213 192 170
0.06603113 -0.3226521 1.5007075 212 190 169
0.06753184 -0.3226521 1.5007075 214 191 169
0.06903255 -0.3226521 1.5007075 207 187 164
0.07053325 -0.3226521 1.5007075 203 183 161
0.071772814 -0.3214824 1.4952669 201 179 157
0.07326808 -0.3214824 1.4952669 195 173 150
0.07476334 -0.3214824 1.4952669 178 158 139
0.076258615 -0.3214824 1.4952669 168 147 128
0.07775388 -0.3214824 1.4952669 158 138 120
0.07924914 -0.3214824 1.4952669 148 129 111
0.080744416 -0.3214824 1.4952669 143 124 106
0.08223968 -0.3214824 1.4952669 135 114 98
0.08403962 -0.3226521 1.5007075 129 109 92
0.08585271 -0.32383043 1.5061879 131 111 94
0.087041035 -0.3226521 1.5007075 130 111 93
0.08854174 -0.3226521 1.5007075 135 115 97
0.09004245 -0.3226521 1.5007075 135 114 97
0.09154316 -0.3226521 1.5007075 136 115 97
0.09304387 -0.3226521 1.5007075 133 113 96
0.094544575 -0.3226521 1.5007075 132 112 95
0.09604528 -0.3226521 1.5007075 135 114 97
0.09754599 -0.3226521 1.5007075 133 113 96
0.09904669 -0.3226521 1.5007075 136 116 98
0.1005474 -0.3226521 1.5007075 135 115 98
0.102048114 -0.3226521 1.5007075 136 115 98
0.10354882 -0.3226521 1.5007075 131 110 95
0.10504952 -0.3226521 1.5007075 130 111 95
0.10655023 -0.3226521 1.5007075 129 110 95
0.10805094 -0.3226521 1.5007075 129 111 95
0.10955165 -0.3226521 1.5007075 129 112 96
0.11105235 -0.3226521 1.5007075 130 112 95
0.11214502 -0.3214824 1.4952669 135 116 98
0.11405377 -0.3226521 1.5007075 133 115 97
0.11555448 -0.3226521 1.5007075 133 113 96
0.117055185 -0.3226521 1.5007075 127 107 92
0.118555896 -0.3226521 1.5007075 125 106 91
0.120495036 -0.32383043 1.5061879 128 109 93
0.1215573 -0.3226521 1.5007075 129 109 94
0.12305801 -0.3226521 1.5007075 125 105 91
0.124558724 -0.3226521 1.5007075 122 103 89
0.12651978 -0.32383043 1.5061879 122 103 89
0.12802596 -0.32383043 1.5061879 125 107 91
0.12906085 -0.3226521 1.5007075 127 109 93
0.13103834 -0.32383043 1.5061879 130 111 95
0.13254455 -0.32383043 1.5061879 132 112 96
0.13356297 -0.3226521 1.5007075 129 109 94
0.13555692 -0.32383043 1.5061879 134 114 97
0.1370631 -0.32383043 1.5061879 136 115 98
0.1385693 -0.32383043 1.5061879 132 112 96
0.14007547 -0.32383043 1.5061879 131 112 95
0.14158167 -0.32383043 1.5061879 132 112 96
0.14308785 -0.32383043 1.5061879 133 112 96
0.14512402 -0.32501733 1.5117085 136 115 98
0.14663573 -0.32501733 1.5117085 130 111 95
0.14814743 -0.32501733 1.5117085 154 133 115
0.14911261 -0.32383043 1.5061879 149 132 116
0.15117085 -0.32501733 1.5117085 154 136 123
0.15324423 -0.32621294 1.5172696 152 134 122
0.15419427 -0.32501733 1.5117085 162 145 128
0.15570597 -0.32501733 1.5117085 189 167 147
0.15664354 -0.32383043 1.5061879 195 172 151
0.15814973 -0.32383043 1.5061879 193 171 150
0.15965591 -0.32383043 1.5061879 193 170 150
0.16116211 -0.32383043 1.5061879 203 181 160
0.16266829 -0.32383043 1.5061879 202 180 160
0.16417448 -0.32383043 1.5061879 192 172 152
0.16568066 -0.32383043 1.5061879 181 159 142
0.16718686 -0.32383043 1.5061879 189 166 148
0.16869305 -0.32383043 1.5061879 205 182 161
0.17019923 -0.32383043 1.5061879 212 188 167
0.17170542 -0.32383043 1.5061879 204 183 162
0.1732116 -0.32383043 1.5061879 207 183 163
0.1747178 -0.32383043 1.5061879 209 186 165
0.17622398 -0.32383043 1.5061879 189 167 149
0.17773017 -0.32383043 1.5061879 171 150 133
0.17923635 -0.32383043 1.5061879 184 162 141
0.18074255 -0.32383043 1.5061879 190 168 146
0.18224873 -0.32383043 1.5061879 194 171 149
0.18375494 -0.32383043 1.5061879 193 170 150
0.18526112 -0.32383043 1.5061879 193 169 150
0.18676731 -0.32383043 1.5061879 199 176 157
0.18827349 -0.32383043 1.5061879 196 173 154
0.18977968 -0.32383043 1.5061879 205 182 161
0.19128586 -0.32383043 1.5061879 205 181 160
0.19279206 -0.32383043 1.5061879 195 174 154
0.19429825 -0.32383043 1.5061879 194 172 152
0.19509198 -0.3226521 1.5007075 190 169 149
0.19659269 -0.3226521 1.5007075 191 168 149
0.19737522 -0.3214824 1.4952669 192 170 150
0.1988705 -0.3214824 1.4952669 190 169 149
0.19964199 -0.3203211 1.4898655 193 169 150
0.20113185 -0.3203211 1.4898655 193 171 151
0.20189242 -0.31916818 1.4845031 187 164 144
0.20337693 -0.31916818 1.4845031 183 160 142
0.20560144 -0.3203211 1.4898655 182 158 140
0.20634593 -0.31916818 1.4845031 177 153 136
0.20783044 -0.31916818 1.4845031 181 156 138
0.20931494 -0.31916818 1.4845031 181 159 140
0.21079946 -0.31916818 1.4845031 190 166 146
0.21064128 -0.31669843 1.4730159 185 162 143
-0.20031029 -0.30046543 1.3910437 241 170 0
-0.1982506 -0.29945546 1.3863679 243 178 0
-0.1975282 -0.30046543 1.3910437 248 178 0
-0.19547787 -0.29945546 1.3863679 249 179 0
-0.19409151 -0.29945546 1.3863679 248 178 0
-0.19270514 -0.29945546 1.3863679 248 177 0
-0.19131877 -0.29945546 1.3863679 249 179 0
-0.1899324 -0.29945546 1.3863679 249 179 0
-0.18854603 -0.29945546 1.3863679 249 179 0
-0.1877909 -0.30046543 1.3910437 249 179 0
-0.18639986 -0.30046543 1.3910437 249 179 0
-0.18500881 -0.30046543 1.3910437 249 179 0
-0.18361777 -0.30046543 1.3910437 249 179 0
-0.18222672 -0.30046543 1.3910437 249 179 0
-0.18083568 -0.30046543 1.3910437 249 179 0
-0.17944463 -0.30046543 1.3910437 249 179 0
-0.17875697 -0.3016524 1.3965389 249 179 0
-0.17736043 -0.3016524 1.3965389 249 179 0
-0.1759639 -0.3016524 1.3965389 249 179 0
-0.17456736 -0.3016524 1.3965389 249 179 0
-0.17317082 -0.3016524 1.3965389 249 179 0
-0.17177428 -0.3016524 1.3965389 249 179 0
-0.17037775 -0.3016524 1.3965389 249 179 0
-0.1689812 -0.3016524 1.3965389 249 179 0
-0.16758466 -0.3016524 1.3965389 249 179 0
-0.16618812 -0.3016524 1.3965389 249 179 0
-0.16479158 -0.3016524 1.3965389 249 179 0
-0.16339505 -0.3016524 1.3965389 249 181 0
-0.16199851 -0.3016524 1.3965389 249 181 0
-0.16060197 -0.3016524 1.3965389 249 181 0
-0.15920542 -0.3016524 1.3965389 249 181 0
-0.15780888 -0.3016524 1.3965389 249 181 0
-0.15641235 -0.3016524 1.3965389 248 182 0
-0.15501581 -0.3016524 1.3965389 249 181 0
-0.15361927 -0.3016524 1.3965389 251 180 0
-0.15222274 -0.3016524 1.3965389 251 180 0
-0.1508262 -0.3016524 1.3965389 251 180 0
-0.14993733 -0.30267724 1.4012835 248 182 0
-0.14853606 -0.30267724 1.4012835 249 181 0
-0.14713477 -0.30267724 1.4012835 249 181 0
-0.14573349 -0.30267724 1.4012835 247 182 0
-0.14482425 -0.30370912 1.4060607 244 180 0
-0.14293092 -0.30267724 1.4012835 242 169 0
-0.14105043 -0.3016524 1.3965389 210 128 0
-0.14108704 -0.30474803 1.4108704 210 121 0
-0.14120576 -0.30808532 1.4263209 204 139 38
-0.14132711 -0.31149653 1.4421135 207 175 142
-0.14087012 -0.31369016 1.4522692 199 174 149
-0.14090629 -0.31703916 1.4677739 204 180 148
-0.13943852 -0.31703916 1.4677739 206 183 161
-0.13797075 -0.31703916 1.4677739 207 184 158
-0.13699047 -0.31817144 1.4730159 195 173 150
-0.13551746 -0.31817144 1.4730159 204 181 157
-0.1346053 -0.31950268 1.4791791 204 181 157
-0.13312612 -0.31950268 1.4791791 198 174 151
-0.13164695 -0.31950268 1.4791791 204 177 155
-0.13063627 -0.3206527 1.4845031 195 173 149
-0.12915178 -0.3206527 1.4845031 189 165 147
-0.12812844 -0.32181093 1.4898655 185 162 141
-0.12663858 -0.32181093 1.4898655 182 160 139
-0.1251487 -0.32181093 1.4898655 174 153 132
-0.123658836 -0.32181093 1.4898655 163 144 124
-0.12216897 -0.32181093 1.4898655 162 143 120
-0.12111662 -0.32297766 1.4952669 162 139 116
-0.11962135 -0.32297766 1.4952669 146 123 105
-0.11812609 -0.32297766 1.4952669 137 116 100
-0.11663082 -0.32297766 1.4952669 138 116 95
-0.11513555 -0.32297766 1.4952669 136 115 95
-0.113640286 -0.32297766 1.4952669 134 113 93
-0.11214502 -0.32297766 1.4952669 131 110 91
-0.110250056 -0.32181093 1.4898655 126 107 89
-0.108760186 -0.32181093 1.4898655 128 109 90
-0.10765922 -0.32297766 1.4952669 140 120 98
-0.10616395 -0.32297766 1.4952669 139 121 98
-0.10429059 -0.32181093 1.4898655 136 120 98
-0.10280072 -0.32181093 1.4898655 137 117 97
-0.10131086 -0.32181093 1.4898655 131 112 94
-0.10018288 -0.32297766 1.4952669 131 112 93
-0.09868761 -0.32297766 1.4952669 135 115 96
-0.097192355 -0.32297766 1.4952669 129 109 91
-0.09569708 -0.32297766 1.4952669 130 109 92
-0.09420181 -0.32297766 1.4952669 128 108 91
-0.092371665 -0.32181093 1.4898655 127 107 90
-0.09121128 -0.32297766 1.4952669 127 108 92
-0.08971602 -0.32297766 1.4952669 128 110 93
-0.088220745 -0.32297766 1.4952669 129 109 93
-0.08672548 -0.32297766 1.4952669 128 109 93
-0.08523022 -0.32297766 1.4952669 124 106 90
-0.08343247 -0.32181093 1.4898655 130 112 94
-0.0819426 -0.32181093 1.4898655 132 113 95
-0.08045273 -0.32181093 1.4898655 128 110 93
-0.07896288 -0.32181093 1.4898655 128 109 92
-0.07747301 -0.32181093 1.4898655 129 109 93
-0.07598314 -0.32181093 1.4898655 128 109 92
-0.07449328 -0.32181093 1.4898655 123 105 89
-0.07300341 -0.32181093 1.4898655 123 107 90
-0.07151355 -0.32181093 1.4898655 129 111 94
-0.07002368 -0.32181093 1.4898655 137 117 98
-0.068533815 -0.32181093 1.4898655 128 110 92
-0.06704395 -0.32181093 1.4898655 127 107 91
-0.06555408 -0.32181093 1.4898655 126 107 90
-0.06406422 -0.32181093 1.4898655 125 107 90
-0.06257435 -0.32181093 1.4898655 128 109 92
-0.061084487 -0.32181093 1.4898655 129 110 92
-0.05959462 -0.32181093 1.4898655 127 108 91
-0.058104757 -0.32181093 1.4898655 131 111 94
-0.05661489 -0.32181093 1.4898655 129 110 93
-0.055125028 -0.32181093 1.4898655 130 110 93
-0.053635158 -0.32181093 1.4898655 129 109 92
-0.052145295 -0.32181093 1.4898655 125 106 89
-0.05065543 -0.32181093 1.4898655 129 109 91
-0.04916556 -0.32181093 1.4898655 129 110 92
-0.0476757 -0.32181093 1.4898655 128 109 91
-0.046185832 -0.32181093 1.4898655 134 113 94
-0.044695966 -0.32181093 1.4898655 131 111 97
-0.0432061 -0.32181093 1.4898655 132 113 102
-0.041716237 -0.32181093 1.4898655 138 117 105
-0.040226366 -0.32181093 1.4898655 151 131 116
-0.038736504 -0.32181093 1.4898655 168 147 130
-0.03724664 -0.32181093 1.4898655 174 152 136
-0.035756774 -0.32181093 1.4898655 180 158 141
-0.034266908 -0.32181093 1.4898655 183 161 142
-0.03277704 -0.32181093 1.4898655 198 174 151
-0.031287175 -0.32181093 1.4898655 206 183 160
-0.02979731 -0.32181093 1.4898655 206 184 162
-0.028307445 -0.32181093 1.4898655 204 183 161
-0.026817579 -0.32181093 1.4898655 202 182 160
-0.025327714 -0.32181093 1.4898655 199 178 157
-0.02383785 -0.32181093 1.4898655 199 177 156
-0.022347983 -0.32181093 1.4898655 202 181 159
-0.020858118 -0.32181093 1.4898655 206 184 163
-0.019368252 -0.32181093 1.4898655 207 186 163
-0.017878387 -0.32181093 1.4898655 212 189 166
-0.016447937 -0.32297766 1.4952669 199 179 158
-0.014952669 -0.32297766 1.4952669 191 170 150
-0.013457403 -0.32297766 1.4952669 196 176 153
-0.011962135 -0.32297766 1.4952669 204 182 158
-0.010466868 -0.32297766 1.4952669 197 176 153
-0.008971602 -0.32297766 1.4952669 192 173 150
-0.0074763345 -0.32297766 1.4952669 199 178 154
-0.00600283 -0.32415283 1.5007075 196 176 153
-0.0045021223 -0.32415283 1.5007075 190 169 147
-0.003001415 -0.32415283 1.5007075 197 175 153
-0.0015007075 -0.32415283 1.5007075 213 189 166
0.0 -0.32415283 1.5007075 217 194 171
0.0015007075 -0.32415283 1.5007075 215 192 169
0.003012376 -0.32533658 1.5061879 213 189 167
0.004518564 -0.32533658 1.5061879 209 186 164
0.006024752 -0.32533658 1.5061879 209 187 165
0.0075309398 -0.32533658 1.5061879 210 189 166
0.009037128 -0.32533658 1.5061879 213 191 168
0.010543316 -0.32533658 1.5061879 210 189 166
0.012049504 -0.32533658 1.5061879 205 184 162
0.013555691 -0.32533658 1.5061879 207 184 162
0.0150618795 -0.32533658 1.5061879 206 183 161
0.016507782 -0.32415283 1.5007075 202 178 157
0.01800849 -0.32415283 1.5007075 188 165 146
0.019509198 -0.32415283 1.5007075 180 159 141
0.021009905 -0.32415283 1.5007075 207 184 163
0.022510612 -0.32415283 1.5007075 214 191 167
0.02401132 -0.32415283 1.5007075 212 189 167
0.025512028 -0.32415283 1.5007075 206 184 162
0.027012736 -0.32415283 1.5007075 203 180 159
0.028513443 -0.32415283 1.5007075 200 178 156
0.03001415 -0.32415283 1.5007075 200 175 155
0.031514857 -0.32415283 1.5007075 199 175 154
0.033015564 -0.32415283 1.5007075 213 189 166
0.034516275 -0.32415283 1.5007075 209 188 165
0.03601698 -0.32415283 1.5007075 200 180 158
0.03751769 -0.32415283 1.5007075 209 185 163
0.039018396 -0.32415283 1.5007075 204 180 159
0.040519103 -0.32415283 1.5007075 202 178 158
0.04201981 -0.32415283 1.5007075 206 182 161
0.043520518 -0.32415283 1.5007075 213 190 168
0.045021225 -0.32415283 1.5007075 211 189 166
0.046521936 -0.32415283 1.5007075 207 186 164
0.04802264 -0.32415283 1.5007075 210 189 166
0.049523346 -0.32415283 1.5007075 209 189 167
0.051024057 -0.32415283 1.5007075 215 195 172
0.05252476 -0.32415283 1.5007075 217 196 173
0.05402547 -0.32415283 1.5007075 203 184 162
0.055526175 -0.32415283 1.5007075 211 190 168
0.057026885 -0.32415283 1.5007075 218 197 173
0.058527593 -0.32415283 1.5007075 216 195 173
0.059810676 -0.32297766 1.4952669 208 188 166
0.061305944 -0.32297766 1.4952669 209 188 167
0.06280121 -0.32297766 1.4952669 210 190 168
0.06429648 -0.32297766 1.4952669 212 192 169
0.06579175 -0.32297766 1.4952669 211 190 168
0.06728701 -0.32297766 1.4952669 208 188 165
0.06878228 -0.32297766 1.4952669 202 182 159
0.07027754 -0.32297766 1.4952669 204 182 158
0.07151355 -0.32181093 1.4898655 198 176 155
0.07300341 -0.32181093 1.4898655 191 171 149
0.07449328 -0.32181093 1.4898655 174 155 138
0.07598314 -0.32181093 1.4898655 168 146 128
0.07747301 -0.32181093 1.4898655 164 142 123
0.07896288 -0.32181093 1.4898655 152 133 114
0.080744416 -0.32297766 1.4952669 136 118 102
0.08223968 -0.32297766 1.4952669 128 109 92
0.083734944 -0.32297766 1.4952669 129 110 92
0.084922336 -0.32181093 1.4898655 130 110 92
0.087041035 -0.32415283 1.5007075 134 113 94
0.08854174 -0.32415283 1.5007075 136 115 97
0.08971602 -0.32297766 1.4952669 133 112 95
0.09154316 -0.32415283 1.5007075 133 113 96
0.09304387 -0.32415283 1.5007075 137 115 98
0.09420181 -0.32297766 1.4952669 133 112 95
0.09604528 -0.32415283 1.5007075 131 112 95
0.09754599 -0.32415283 1.5007075 133 112 95
0.09868761 -0.32297766 1.4952669 139 116 98
0.1005474 -0.32415283 1.5007075 140 117 101
0.102048114 -0.32415283 1.5007075 140 117 101
0.10354882 -0.32415283 1.5007075 135 114 98
0.104668684 -0.32297766 1.4952669 134 114 97
0.10616395 -0.32297766 1.4952669 131 111 96
0.10805094 -0.32415283 1.5007075 127 109 94
0.10955165 -0.32415283 1.5007075 104 90 76
0.11064975 -0.32297766 1.4952669 126 108 92
0.11214502 -0.32297766 1.4952669 140 120 102
0.11405377 -0.32415283 1.5007075 135 116 98
0.11555448 -0.32415283 1.5007075 132 112 95
0.11663082 -0.32297766 1.4952669 129 108 93
0.118555896 -0.32415283 1.5007075 131 111 95
0.1200566 -0.32415283 1.5007075 129 110 94
0.1215573 -0.32415283 1.5007075 129 108 93
0.12305801 -0.32415283 1.5007075 129 108 93
0.12410715 -0.32297766 1.4952669 125 105 90
0.12605943 -0.32415283 1.5007075 123 105 90
0.12756014 -0.32415283 1.5007075 130 110 94
0.12906085 -0.32415283 1.5007075 132 111 95
0.13056156 -0.32415283 1.5007075 132 112 96
0.13206226 -0.32415283 1.5007075 130 110 94
0.13356297 -0.32415283 1.5007075 132 111 95
0.13555692 -0.32533658 1.5061879 136 115 98
0.1370631 -0.32533658 1.5061879 136 114 98
0.1380651 -0.32415283 1.5007075 132 112 96
0.14007547 -0.32533658 1.5061879 133 113 97
0.14158167 -0.32533658 1.5061879 131 111 95
0.14256722 -0.32415283 1.5007075 134 114 97
0.14459404 -0.32533658 1.5061879 139 117 100
0.14610024 -0.32533658 1.5061879 140 120 103
0.14760642 -0.32533658 1.5061879 153 135 116
0.14911261 -0.32533658 1.5061879 157 141 124
0.15061879 -0.32533658 1.5061879 163 146 130
0.15212499 -0.32533658 1.5061879 156 139 125
0.15363117 -0.32533658 1.5061879 155 139 123
0.15513736 -0.32533658 1.5061879 177 158 138
0.15664354 -0.32533658 1.5061879 195 172 151
0.1575743 -0.32415283 1.5007075 198 176 155
0.15907499 -0.32415283 1.5007075 201 179 157
0.1605757 -0.32415283 1.5007075 211 191 168
0.16207641 -0.32415283 1.5007075 209 188 166
0.16357712 -0.32415283 1.5007075 201 180 160
0.16507782 -0.32415283 1.5007075 190 168 150
0.16657853 -0.32415283 1.5007075 188 167 148
0.16807924 -0.32415283 1.5007075 205 181 161
0.16957994 -0.32415283 1.5007075 206 183 162
0.17108066 -0.32415283 1.5007075 194 173 153
0.17258136 -0.32415283 1.5007075 201 179 159
0.17408207 -0.32415283 1.5007075 205 183 162
0.17558278 -0.32415283 1.5007075 202 181 160
0.17708348 -0.32415283 1.5007075 190 169 148
0.1785842 -0.32415283 1.5007075 179 157 137
0.1800849 -0.32415283 1.5007075 177 157 137
0.1815856 -0.32415283 1.5007075 186 163 142
0.18308632 -0.32415283 1.5007075 191 167 147
0.18458702 -0.32415283 1.5007075 196 172 152
0.18608774 -0.32415283 1.5007075 190 169 149
0.18758844 -0.32415283 1.5007075 204 181 159
0.18908915 -0.32415283 1.5007075 205 181 160
0.19058986 -0.32415283 1.5007075 203 180 158
0.19209056 -0.32415283 1.5007075 195 173 153
0.19359127 -0.32415283 1.5007075 190 169 150
0.19438471 -0.32297766 1.4952669 198 175 155
0.19587997 -0.32297766 1.4952669 199 177 156
0.19666225 -0.32181093 1.4898655 197 173 154
0.19815211 -0.32181093 1.4898655 196 174 154
0.19892341 -0.3206527 1.4845031 195 173 153
0.20040792 -0.3206527 1.4845031 191 169 149
0.20189242 -0.3206527 1.4845031 187 165 145
0.20264754 -0.31950268 1.4791791 183 160 141
0.20634684 -0.32297766 1.4952669 183 160 141
0.2070913 -0.32181093 1.4898655 183 158 140
0.20622224 -0.31817144 1.4730159 182 158 139
0.21007104 -0.32181093 1.4898655 179 155 138
0.21079946 -0.3206527 1.4845031 186 161 143
0.20396389 -0.30808532 1.4263209 187 164 145
-0.19819354 -0.29866666 1.3763441 243 178 0
-0.19747621 -0.29966667 1.3809525 248 178 0
-0.19609524 -0.29966667 1.3809525 249 179 0
-0.1947143 -0.29966667 1.3809525 249 179 0
-0.19333334 -0.29966667 1.3809525 247 177 0
-0.19195239 -0.29966667 1.3809525 247 177 0
-0.19057144 -0.29966667 1.3809525 249 179 0
-0.18919049 -0.29966667 1.3809525 249 179 0
-0.18780954 -0.29966667 1.3809525 249 179 0
-0.18715967 -0.30084184 1.3863679 249 179 0
-0.1857733 -0.30084184 1.3863679 249 179 0
-0.18438694 -0.30084184 1.3863679 249 179 0
-0.18300056 -0.30084184 1.3863679 249 179 0
-0.18161419 -0.30084184 1.3863679 249 179 0
-0.18022783 -0.30084184 1.3863679 249 179 0
-0.17884146 -0.30084184 1.3863679 249 179 0
-0.17805359 -0.3018565 1.3910437 249 179 0
-0.17736043 -0.3030489 1.3965389 249 179 0
-0.1759639 -0.3030489 1.3965389 249 179 0
-0.17456736 -0.3030489 1.3965389 249 179 0
-0.17317082 -0.3030489 1.3965389 249 179 0
-0.17177428 -0.3030489 1.3965389 249 179 0
-0.17037775 -0.3030489 1.3965389 249 179 0
-0.1689812 -0.3030489 1.3965389 249 179 0
-0.16758466 -0.3030489 1.3965389 249 179 0
-0.16618812 -0.3030489 1.3965389 249 179 0
-0.16479158 -0.3030489 1.3965389 249 179 0
-0.16339505 -0.3030489 1.3965389 249 181 0
-0.16199851 -0.3030489 1.3965389 249 181 0
-0.16060197 -0.3030489 1.3965389 249 181 0
-0.15920542 -0.3030489 1.3965389 249 181 0
-0.15780888 -0.3030489 1.3965389 249 181 0
-0.15641235 -0.3030489 1.3965389 249 181 0
-0.15501581 -0.3030489 1.3965389 249 180 0
-0.15361927 -0.3030489 1.3965389 251 180 0
-0.15222274 -0.3030489 1.3965389 251 180 0
-0.1508262 -0.3030489 1.3965389 250 180 0
-0.14993733 -0.30407852 1.4012835 248 182 0
-0.14853606 -0.30407852 1.4012835 249 180 0
-0.14713477 -0.30407852 1.4012835 249 180 0
-0.14573349 -0.30407852 1.4012835 246 181 0
-0.14482425 -0.30511516 1.4060607 247 178 0
-0.14293092 -0.30407852 1.4012835 219 141 0
-0.14105043 -0.3030489 1.3965389 211 117 0
-0.14060606 -0.30511516 1.4060607 209 118 0
-0.14120576 -0.30951163 1.4263209 207 141 46
-0.14132711 -0.31293863 1.4421135 211 179 149
-0.14087012 -0.31514242 1.4522692 198 178 152
-0.14040662 -0.31737748 1.462569 206 182 149
-0.13943852 -0.31850693 1.4677739 206 183 160
-0.13797075 -0.31850693 1.4677739 208 183 159
-0.13650298 -0.31850693 1.4677739 187 166 143
-0.1350352 -0.31850693 1.4677739 196 174 150
-0.13404445 -0.31964445 1.4730159 197 175 152
-0.13257143 -0.31964445 1.4730159 200 177 153
-0.13109842 -0.31964445 1.4730159 203 178 155
-0.13016777 -0.32098186 1.4791791 198 176 153
-0.12868859 -0.32098186 1.4791791 194 170 150
-0.12766728 -0.32213718 1.4845031 190 166 145
-0.12618276 -0.32213718 1.4845031 180 158 137
-0.12469827 -0.32213718 1.4845031 170 151 131
-0.123658836 -0.3233008 1.4898655 167 147 127
-0.12216897 -0.3233008 1.4898655 164 144 123
-0.12067911 -0.3233008 1.4898655 162 142 120
-0.11876025 -0.32213718 1.4845031 150 129 108
-0.11727575 -0.32213718 1.4845031 141 121 102
-0.116209514 -0.3233008 1.4898655 140 117 96
-0.11471965 -0.3233008 1.4898655 136 115 95
-0.11282224 -0.32213718 1.4845031 135 113 94
-0.111337736 -0.32213718 1.4845031 133 111 91
-0.10985323 -0.32213718 1.4845031 133 112 93
-0.10836873 -0.32213718 1.4845031 138 117 97
-0.107270315 -0.3233008 1.4898655 144 124 102
-0.10539973 -0.32213718 1.4845031 142 124 101
-0.10391522 -0.32213718 1.4845031 143 126 102
-0.102430716 -0.32213718 1.4845031 143 123 101
-0.10094621 -0.32213718 1.4845031 133 114 96
-0.099820994 -0.3233008 1.4898655 130 112 93
-0.09797721 -0.32213718 1.4845031 132 113 94
-0.09649271 -0.32213718 1.4845031 129 110 92
-0.0950082 -0.32213718 1.4845031 130 109 92
-0.093188286 -0.32098186 1.4791791 125 106 89
-0.09203919 -0.32213718 1.4845031 125 104 88
-0.090881795 -0.3233008 1.4898655 123 105 89
-0.08907019 -0.32213718 1.4845031 130 111 94
-0.08758569 -0.32213718 1.4845031 133 113 96
-0.08610118 -0.32213718 1.4845031 136 115 97
-0.084616676 -0.32213718 1.4845031 131 111 95
-0.08313218 -0.32213718 1.4845031 130 111 94
-0.08164767 -0.32213718 1.4845031 135 115 97
-0.07987567 -0.32098186 1.4791791 138 118 99
-0.07839649 -0.32098186 1.4791791 135 116 97
-0.07719416 -0.32213718 1.4845031 131 111 94
-0.07570966 -0.32213718 1.4845031 128 109 92
-0.07422516 -0.32213718 1.4845031 127 108 92
-0.07274065 -0.32213718 1.4845031 128 110 93
-0.071256146 -0.32213718 1.4845031 136 117 99
-0.07002368 -0.3233008 1.4898655 137 118 99
-0.068533815 -0.3233008 1.4898655 132 112 95
-0.06704395 -0.3233008 1.4898655 120 101 87
-0.06555408 -0.3233008 1.4898655 125 106 89
-0.06406422 -0.3233008 1.4898655 126 106 91
-0.06257435 -0.3233008 1.4898655 129 109 92
-0.061084487 -0.3233008 1.4898655 129 108 92
-0.05959462 -0.3233008 1.4898655 128 109 92
-0.058104757 -0.3233008 1.4898655 128 109 92
-0.05661489 -0.3233008 1.4898655 128 109 92
-0.055125028 -0.3233008 1.4898655 130 110 93
-0.053635158 -0.3233008 1.4898655 131 112 94
-0.052145295 -0.3233008 1.4898655 128 109 91
-0.05065543 -0.3233008 1.4898655 129 109 91
-0.04916556 -0.3233008 1.4898655 131 111 93
-0.04784854 -0.32447293 1.4952669 129 109 91
-0.046353277 -0.32447293 1.4952669 129 110 91
-0.04485801 -0.32447293 1.4952669 130 110 93
-0.04336274 -0.32447293 1.4952669 130 111 95
-0.041867472 -0.32447293 1.4952669 133 113 98
-0.040372208 -0.32447293 1.4952669 141 123 108
-0.03887694 -0.32447293 1.4952669 157 138 122
-0.03738167 -0.32447293 1.4952669 172 150 133
-0.035886407 -0.32447293 1.4952669 176 153 136
-0.03439114 -0.32447293 1.4952669 178 156 138
-0.032895874 -0.32447293 1.4952669 185 162 141
-0.031400606 -0.32447293 1.4952669 196 174 151
-0.029905338 -0.32447293 1.4952669 204 182 159
-0.028410072 -0.32447293 1.4952669 205 185 162
-0.026914805 -0.32447293 1.4952669 206 185 162
-0.025419537 -0.32447293 1.4952669 206 186 163
-0.02392427 -0.32447293 1.4952669 206 184 162
-0.022429004 -0.32447293 1.4952669 205 185 162
-0.020933736 -0.32447293 1.4952669 206 184 162
-0.01943847 -0.32447293 1.4952669 203 181 159
-0.017878387 -0.3233008 1.4898655 210 189 165
-0.01638852 -0.3233008 1.4898655 206 183 162
-0.014898655 -0.3233008 1.4898655 207 186 162
-0.013408789 -0.3233008 1.4898655 212 189 164
-0.011918925 -0.3233008 1.4898655 202 181 157
-0.010429059 -0.3233008 1.4898655 195 174 152
-0.008939194 -0.3233008 1.4898655 196 177 153
-0.0074493275 -0.3233008 1.4898655 205 184 161
-0.0059810677 -0.32447293 1.4952669 201 179 156
-0.004485801 -0.32447293 1.4952669 201 179 156
-0.0029905338 -0.32447293 1.4952669 200 180 157
-0.0014952669 -0.32447293 1.4952669 214 191 170
0.0 -0.32447293 1.4952669 217 194 172
0.0014952669 -0.32447293 1.4952669 214 192 169
0.003001415 -0.32565352 1.5007075 215 194 172
0.0045021223 -0.32565352 1.5007075 205 186 164
0.00600283 -0.32565352 1.5007075 208 185 164
0.0075035375 -0.32565352 1.5007075 208 188 166
0.009004245 -0.32565352 1.5007075 214 194 171
0.010504953 -0.32565352 1.5007075 217 196 172
0.012049504 -0.32684278 1.5061879 206 184 163
0.013555691 -0.32684278 1.5061879 203 180 159
0.0150618795 -0.32684278 1.5061879 214 190 169
0.016507782 -0.32565352 1.5007075 203 178 158
0.01800849 -0.32565352 1.5007075 208 183 162
0.019509198 -0.32565352 1.5007075 210 187 164
0.021009905 -0.32565352 1.5007075 213 187 166
0.022510612 -0.32565352 1.5007075 210 187 165
0.02401132 -0.32565352 1.5007075 215 191 169
0.025512028 -0.32565352 1.5007075 210 187 165
0.027012736 -0.32565352 1.5007075 211 188 165
0.028513443 -0.32565352 1.5007075 204 182 161
0.03001415 -0.32565352 1.5007075 205 180 160
0.031514857 -0.32565352 1.5007075 190 166 147
0.033015564 -0.32565352 1.5007075 191 168 149
0.034516275 -0.32565352 1.5007075 205 181 161
0.035886407 -0.32447293 1.4952669 188 167 148
0.03738167 -0.32447293 1.4952669 212 186 165
0.03887694 -0.32447293 1.4952669 219 192 170
0.040372208 -0.32447293 1.4952669 207 184 162
0.041867472 -0.32447293 1.4952669 204 180 159
0.04336274 -0.32447293 1.4952669 207 184 162
0.04485801 -0.32447293 1.4952669 210 189 165
0.046353277 -0.32447293 1.4952669 208 185 164
0.04784854 -0.32447293 1.4952669 206 184 162
0.049343806 -0.32447293 1.4952669 211 188 167
0.050839074 -0.32447293 1.4952669 218 197 174
0.052334342 -0.32447293 1.4952669 219 199 176
0.05382961 -0.32447293 1.4952669 213 193 171
0.055324875 -0.32447293 1.4952669 217 193 171
0.056820143 -0.32447293 1.4952669 211 191 169
0.05831541 -0.32447293 1.4952669 213 195 171
0.05959462 -0.3233008 1.4898655 216 193 171
0.061084487 -0.3233008 1.4898655 212 191 169
0.06257435 -0.3233008 1.4898655 217 194 172
0.06406422 -0.3233008 1.4898655 214 193 169
0.06555408 -0.3233008 1.4898655 215 194 170
0.06704395 -0.3233008 1.4898655 214 191 168
0.068533815 -0.3233008 1.4898655 201 181 159
0.07002368 -0.3233008 1.4898655 204 182 158
0.071256146 -0.32213718 1.4845031 196 175 153
0.07274065 -0.32213718 1.4845031 186 165 142
0.07422516 -0.32213718 1.4845031 178 158 139
0.07570966 -0.32213718 1.4845031 167 146 127
0.07719416 -0.32213718 1.4845031 161 139 121
0.07867867 -0.32213718 1.4845031 149 130 112
0.08045273 -0.3233008 1.4898655 136 116 100
0.0819426 -0.3233008 1.4898655 130 110 92
0.08343247 -0.3233008 1.4898655 134 112 93
0.084922336 -0.3233008 1.4898655 129 110 91
0.087041035 -0.32565352 1.5007075 130 110 91
0.088220745 -0.32447293 1.4952669 127 107 92
0.08971602 -0.32447293 1.4952669 130 110 93
0.09121128 -0.32447293 1.4952669 130 111 94
0.09270655 -0.32447293 1.4952669 137 116 98
0.09420181 -0.32447293 1.4952669 139 116 99
0.09604528 -0.32565352 1.5007075 135 114 97
0.09754599 -0.32565352 1.5007075 134 112 96
0.09868761 -0.32447293 1.4952669 137 114 97
0.10018288 -0.32447293 1.4952669 135 115 97
0.10167815 -0.32447293 1.4952669 133 113 95
0.10317342 -0.32447293 1.4952669 137 115 98
0.104668684 -0.32447293 1.4952669 134 114 96
0.10616395 -0.32447293 1.4952669 132 112 95
0.10765922 -0.32447293 1.4952669 122 105 90
0.109154485 -0.32447293 1.4952669 115 99 84
0.11064975 -0.32447293 1.4952669 132 112 96
0.11214502 -0.32447293 1.4952669 135 114 97
0.113640286 -0.32447293 1.4952669 134 115 97
0.11513555 -0.32447293 1.4952669 133 113 97
0.11663082 -0.32447293 1.4952669 131 111 95
0.118555896 -0.32565352 1.5007075 134 114 96
0.11962135 -0.32447293 1.4952669 131 111 95
0.12111662 -0.32447293 1.4952669 128 109 93
0.12261189 -0.32447293 1.4952669 131 110 94
0.12410715 -0.32447293 1.4952669 128 107 92
0.12560242 -0.32447293 1.4952669 124 104 90
0.12709768 -0.32447293 1.4952669 134 112 96
0.12859295 -0.32447293 1.4952669 131 110 95
0.13008823 -0.32447293 1.4952669 121 102 88
0.13206226 -0.32565352 1.5007075 119 101 87
0.13356297 -0.32565352 1.5007075 127 108 93
0.13506368 -0.32565352 1.5007075 132 112 95
0.13656437 -0.32565352 1.5007075 136 115 98
0.1380651 -0.32565352 1.5007075 138 116 99
0.14007547 -0.32684278 1.5061879 138 115 99
0.14158167 -0.32684278 1.5061879 134 113 97
0.14256722 -0.32565352 1.5007075 134 113 97
0.14459404 -0.32684278 1.5061879 139 117 101
0.14610024 -0.32684278 1.5061879 146 125 108
0.14706933 -0.32565352 1.5007075 153 134 116
0.14857003 -0.32565352 1.5007075 160 142 125
0.15007076 -0.32565352 1.5007075 171 153 135
0.15212499 -0.32684278 1.5061879 180 161 144
0.15363117 -0.32684278 1.5061879 179 160 142
0.15457287 -0.32565352 1.5007075 169 152 134
0.15607359 -0.32565352 1.5007075 190 169 149
0.1575743 -0.32565352 1.5007075 198 176 155
0.15907499 -0.32565352 1.5007075 201 177 157
0.1605757 -0.32565352 1.5007075 210 189 166
0.16207641 -0.32565352 1.5007075 215 193 171
0.16357712 -0.32565352 1.5007075 206 186 165
0.16507782 -0.32565352 1.5007075 197 175 155
0.16657853 -0.32565352 1.5007075 197 175 155
0.16807924 -0.32565352 1.5007075 206 180 160
0.16957994 -0.32565352 1.5007075 200 175 157
0.17108066 -0.32565352 1.5007075 193 171 152
0.17258136 -0.32565352 1.5007075 205 180 160
0.17408207 -0.32565352 1.5007075 203 182 160
0.17558278 -0.32565352 1.5007075 201 181 160
0.17708348 -0.32565352 1.5007075 205 185 161
0.1785842 -0.32565352 1.5007075 203 181 158
0.1800849 -0.32565352 1.5007075 196 172 151
0.1815856 -0.32565352 1.5007075 184 163 142
0.18308632 -0.32565352 1.5007075 189 165 146
0.18458702 -0.32565352 1.5007075 188 166 145
0.18608774 -0.32565352 1.5007075 186 164 144
0.18758844 -0.32565352 1.5007075 197 175 152
0.18908915 -0.32565352 1.5007075 198 174 153
0.19058986 -0.32565352 1.5007075 194 172 151
0.19209056 -0.32565352 1.5007075 191 169 150
0.19288944 -0.32447293 1.4952669 197 175 155
0.19438471 -0.32447293 1.4952669 203 180 159
0.19517238 -0.3233008 1.4898655 196 175 155
0.19666225 -0.3233008 1.4898655 197 176 155
0.19743893 -0.32213718 1.4845031 192 171 150
0.19892341 -0.32213718 1.4845031 193 172 152
0.19968918 -0.32098186 1.4791791 187 165 146
0.20116836 -0.32098186 1.4791791 185 164 144
0.20180318 -0.31964445 1.4730159 186 164 144
0.20560144 -0.3233008 1.4898655 189 164 144
0.2070913 -0.3233008 1.4898655 183 160 141
0.20622224 -0.31964445 1.4730159 174 152 134
0.20931494 -0.32213718 1.4845031 170 150 132
0.20842388 -0.31850693 1.4677739 186 163 144
0.20256287 -0.30738562 1.4165236 185 160 142
-0.19819354 -0.300043 1.3763441 249 178 0
-0.19747621 -0.30104762 1.3809525 249 179 0
-0.19609524 -0.30104762 1.3809525 249 179 0
-0.1947143 -0.30104762 1.3809525 249 179 0
-0.19333334 -0.30104762 1.3809525 249 179 0
-0.19195239 -0.30104762 1.3809525 249 179 0
-0.19057144 -0.30104762 1.3809525 249 179 0
-0.18919049 -0.30104762 1.3809525 249 179 0
-0.18780954 -0.30104762 1.3809525 249 179 0
-0.18642859 -0.30104762 1.3809525 249 179 0
-0.18504764 -0.30104762 1.3809525 249 179 0
-0.18366669 -0.30104762 1.3809525 249 179 0
-0.18228573 -0.30104762 1.3809525 249 179 0
-0.18090478 -0.30104762 1.3809525 249 179 0
-0.17952383 -0.30104762 1.3809525 249 179 0
-0.17814288 -0.30104762 1.3809525 249 179 0
-0.1774551 -0.3022282 1.3863679 249 179 0
-0.17666255 -0.30324754 1.3910437 249 179 0
-0.1752715 -0.30324754 1.3910437 249 179 0
-0.17388046 -0.30324754 1.3910437 249 179 0
-0.1724894 -0.30324754 1.3910437 249 179 0
-0.17109837 -0.30324754 1.3910437 249 179 0
-0.16970733 -0.30324754 1.3910437 249 179 0
-0.1689812 -0.30444548 1.3965389 249 180 0
-0.16692524 -0.30324754 1.3910437 249 181 0
-0.1655342 -0.30324754 1.3910437 249 181 0
-0.16414316 -0.30324754 1.3910437 249 181 0
-0.1627521 -0.30324754 1.3910437 249 181 0
-0.16199851 -0.30444548 1.3965389 249 180 0
-0.16060197 -0.30444548 1.3965389 251 180 0
-0.15920542 -0.30444548 1.3965389 251 180 0
-0.15780888 -0.30444548 1.3965389 250 180 0
-0.15641235 -0.30444548 1.3965389 249 181 0
-0.15501581 -0.30444548 1.3965389 249 181 0
-0.15361927 -0.30444548 1.3965389 249 181 0
-0.15222274 -0.30444548 1.3965389 251 180 0
-0.1508262 -0.30444548 1.3965389 251 180 0
-0.14993733 -0.3054798 1.4012835 249 181 0
-0.14853606 -0.3054798 1.4012835 246 181 0
-0.14713477 -0.3054798 1.4012835 247 179 0
-0.14573349 -0.3054798 1.4012835 245 181 0
-0.14482425 -0.30652124 1.4060607 239 164 0
-0.14293092 -0.3054798 1.4012835 211 122 0
-0.14105043 -0.30444548 1.3965389 206 113 0
-0.14060606 -0.30652124 1.4060607 208 118 0
-0.14120576 -0.31093797 1.4263209 205 141 56
-0.14132711 -0.31438074 1.4421135 208 181 153
-0.14087012 -0.3165947 1.4522692 204 184 161
-0.13991049 -0.3177134 1.4574009 208 185 154
-0.13894406 -0.31884003 1.462569 209 186 161
-0.1374815 -0.31884003 1.462569 207 182 156
-0.13650298 -0.3199747 1.4677739 194 171 148
-0.1350352 -0.3199747 1.4677739 189 166 144
-0.13356742 -0.3199747 1.4677739 195 173 149
-0.13209966 -0.3199747 1.4677739 195 170 148
-0.13063188 -0.3199747 1.4677739 197 171 149
-0.1296254 -0.32111746 1.4730159 196 174 150
-0.12815239 -0.32111746 1.4730159 191 168 149
-0.12720941 -0.32246107 1.4791791 187 164 143
-0.12573023 -0.32246107 1.4791791 177 157 135
-0.124251045 -0.32246107 1.4791791 170 151 131
-0.12321376 -0.32362166 1.4845031 165 144 125
-0.121729255 -0.32362166 1.4845031 164 142 124
-0.12067911 -0.3247907 1.4898655 156 139 117
-0.11876025 -0.32362166 1.4845031 148 129 107
-0.11727575 -0.32362166 1.4845031 142 120 101
-0.11579125 -0.32362166 1.4845031 136 116 96
-0.11430674 -0.32362166 1.4845031 132 112 93
-0.11282224 -0.32362166 1.4845031 136 115 96
-0.111337736 -0.32362166 1.4845031 138 114 95
-0.10985323 -0.32362166 1.4845031 139 118 97
-0.10798008 -0.32246107 1.4791791 143 122 101
-0.1065009 -0.32246107 1.4791791 141 122 101
-0.10539973 -0.32362166 1.4845031 141 123 101
-0.10391522 -0.32362166 1.4845031 146 128 105
-0.102063365 -0.32246107 1.4791791 146 125 104
-0.10058418 -0.32246107 1.4791791 135 115 96
-0.099461704 -0.32362166 1.4845031 131 112 93
-0.09797721 -0.32362166 1.4845031 131 113 94
-0.09649271 -0.32362166 1.4845031 133 113 94
-0.0950082 -0.32362166 1.4845031 132 111 93
