ply
format ascii 1.0
element vertex 1077
property float32 x
property float32 y
property float32 z
property uchar red
property uchar green
property uchar blue
element face 0
property list uint8 int32 vertex_indices
end_header
0.18210426 -0.30730093 1.6259309 174 115 97
0.1837302 -0.30730093 1.6259309 163 109 93
0.18535613 -0.30730093 1.6259309 169 136 120
0.18698205 -0.30730093 1.6259309 217 193 165
0.18860799 -0.30730093 1.6259309 216 191 163
0.19023392 -0.30730093 1.6259309 212 185 161
0.19261919 -0.30851716 1.632366 208 184 161
0.19425154 -0.30851716 1.632366 205 183 162
0.19588391 -0.30851716 1.632366 215 189 168
0.19751628 -0.30851716 1.632366 197 173 154
0.19914865 -0.30851716 1.632366 203 180 160
0.200781 -0.30851716 1.632366 204 180 160
0.20241338 -0.30851716 1.632366 207 183 163
0.20404574 -0.30851716 1.632366 218 192 170
0.20567812 -0.30851716 1.632366 212 191 169
0.20813422 -0.30974305 1.6388521 215 191 170
0.20977308 -0.30974305 1.6388521 213 195 172
0.21141192 -0.30974305 1.6388521 209 189 167
0.21305078 -0.30974305 1.6388521 210 189 168
0.21468963 -0.30974305 1.6388521 215 192 171
0.21632847 -0.30974305 1.6388521 216 196 175
0.21796733 -0.30974305 1.6388521 215 194 172
0.22033578 -0.31077212 1.6442969 210 190 168
0.22198007 -0.31077212 1.6442969 205 181 159
0.22362438 -0.31077212 1.6442969 192 171 147
0.22452274 -0.30974305 1.6388521 201 182 154
0.22616158 -0.30974305 1.6388521 195 173 149
0.22780044 -0.30974305 1.6388521 187 163 144
0.2294393 -0.30974305 1.6388521 204 180 160
0.23184586 -0.31077212 1.6442969 202 179 159
0.23271699 -0.30974305 1.6388521 215 194 173
0.23513447 -0.31077212 1.6442969 216 198 177
-0.23245402 -0.30671018 1.614264 182 162 141
-0.23083976 -0.30671018 1.614264 183 163 142
-0.2292255 -0.30671018 1.614264 185 165 145
-0.22761121 -0.30671018 1.614264 190 172 148
-0.22599696 -0.30671018 1.614264 190 170 147
-0.22438268 -0.30671018 1.614264 191 173 150
-0.22276843 -0.30671018 1.614264 194 171 143
-0.22202314 -0.3079153 1.6206069 189 171 150
-0.22040254 -0.3079153 1.6206069 189 168 149
-0.21878193 -0.3079153 1.6206069 186 166 146
-0.21716133 -0.3079153 1.6206069 187 171 149
-0.2155407 -0.3079153 1.6206069 191 170 147
-0.2139201 -0.3079153 1.6206069 190 169 149
-0.21299694 -0.30892688 1.6259309 194 168 140
-0.21137102 -0.30892688 1.6259309 186 162 137
-0.20974508 -0.30892688 1.6259309 182 163 142
-0.20811915 -0.30892688 1.6259309 184 166 143
-0.20649323 -0.30892688 1.6259309 182 165 143
-0.20486729 -0.30892688 1.6259309 184 166 147
-0.20324136 -0.30892688 1.6259309 183 164 140
-0.20161544 -0.30892688 1.6259309 187 165 143
-0.1999895 -0.30892688 1.6259309 183 163 142
-0.19836357 -0.30892688 1.6259309 178 158 139
-0.19673765 -0.30892688 1.6259309 187 165 146
-0.1951117 -0.30892688 1.6259309 185 167 141
-0.19348578 -0.30892688 1.6259309 190 167 145
-0.19185984 -0.30892688 1.6259309 192 171 148
-0.19023392 -0.30892688 1.6259309 187 166 143
-0.18860799 -0.30892688 1.6259309 182 162 144
-0.18698205 -0.30892688 1.6259309 180 160 139
-0.18535613 -0.30892688 1.6259309 182 162 139
-0.1837302 -0.30892688 1.6259309 187 166 143
-0.18150796 -0.3079153 1.6206069 187 165 145
-0.18047833 -0.30892688 1.6259309 182 161 144
-0.17885241 -0.30892688 1.6259309 191 168 149
-0.17664614 -0.3079153 1.6206069 189 168 147
-0.17502554 -0.3079153 1.6206069 191 170 149
-0.1739746 -0.30892688 1.6259309 191 168 148
-0.17234868 -0.30892688 1.6259309 179 159 139
-0.17016372 -0.3079153 1.6206069 181 161 134
-0.16909681 -0.30892688 1.6259309 184 164 143
-0.16747089 -0.30892688 1.6259309 185 160 131
-0.16584496 -0.30892688 1.6259309 183 161 141
-0.16421902 -0.30892688 1.6259309 182 160 140
-0.1625931 -0.30892688 1.6259309 196 173 151
-0.16096716 -0.30892688 1.6259309 196 175 152
-0.15934123 -0.30892688 1.6259309 190 169 149
-0.1577153 -0.30892688 1.6259309 193 171 152
-0.15557826 -0.3079153 1.6206069 191 170 149
-0.15395765 -0.3079153 1.6206069 178 158 139
-0.15283751 -0.30892688 1.6259309 186 166 147
-0.15121157 -0.30892688 1.6259309 193 173 153
-0.14909583 -0.3079153 1.6206069 197 177 156
-0.14747523 -0.3079153 1.6206069 198 179 157
-0.1458546 -0.3079153 1.6206069 190 171 150
-0.144234 -0.3079153 1.6206069 186 166 146
-0.1426134 -0.3079153 1.6206069 187 165 143
-0.14099279 -0.3079153 1.6206069 176 157 135
-0.13882671 -0.30671018 1.614264 167 147 127
-0.13721246 -0.30671018 1.614264 165 145 128
-0.13613099 -0.3079153 1.6206069 162 142 126
-0.13398391 -0.30671018 1.614264 155 134 117
-0.13236964 -0.30671018 1.614264 147 130 113
-0.13075538 -0.30671018 1.614264 133 116 101
-0.12863766 -0.3055144 1.6079706 125 108 94
-0.12661831 -0.30452505 1.6027634 115 99 86
-0.12453162 -0.30334625 1.5965592 97 82 71
-0.12246102 -0.30217654 1.5904028 91 75 68
-0.120022126 -0.30005533 1.5792385 84 70 62
-0.117991105 -0.2989108 1.5732148 93 82 73
-0.11597551 -0.29777497 1.5672367 94 82 74
-0.11397519 -0.29664776 1.561304 99 88 81
-0.11206038 -0.2957149 1.5563942 79 68 61
-0.11008856 -0.29460317 1.5505431 72 61 54
-0.108131506 -0.2934998 1.5447358 86 76 69
-0.10658677 -0.2934998 1.5447358 103 90 84
-0.10504203 -0.2934998 1.5447358 107 93 87
-0.10311112 -0.29240465 1.5389719 83 71 63
-0.10157214 -0.29240465 1.5389719 69 60 53
-0.0996613 -0.29131767 1.5332508 74 62 59
-0.09812805 -0.29131767 1.5332508 76 64 61
-0.09623704 -0.29023868 1.527572 75 62 59
-0.09470946 -0.29023868 1.527572 76 63 60
-0.09283805 -0.2891677 1.5219352 79 65 61
-0.09103618 -0.28828123 1.5172696 78 65 61
-0.089518905 -0.28828123 1.5172696 79 66 63
-0.08800164 -0.28828123 1.5172696 78 65 63
-0.086484365 -0.28828123 1.5172696 72 58 55
-0.08465568 -0.28722462 1.5117085 81 68 65
-0.083143964 -0.28722462 1.5117085 86 73 70
-0.08163226 -0.28722462 1.5117085 84 70 67
-0.07982796 -0.2861757 1.5061879 87 74 71
-0.07803679 -0.28513443 1.5007075 84 71 67
-0.07653608 -0.28513443 1.5007075 84 72 68
-0.07503538 -0.28513443 1.5007075 86 73 68
-0.07353467 -0.28513443 1.5007075 87 75 69
-0.071772814 -0.2841007 1.4952669 93 80 76
-0.07027754 -0.2841007 1.4952669 94 81 79
-0.06878228 -0.2841007 1.4952669 90 77 74
-0.06704395 -0.28307447 1.4898655 89 77 75
-0.06555408 -0.28307447 1.4898655 91 77 76
-0.06406422 -0.28307447 1.4898655 91 78 75
-0.062349133 -0.28205562 1.4845031 88 74 72
-0.060864627 -0.28205562 1.4845031 88 75 76
-0.059380125 -0.28205562 1.4845031 93 80 81
-0.057895623 -0.28205562 1.4845031 101 88 90
-0.05641112 -0.28205562 1.4845031 96 84 86
-0.054926615 -0.28205562 1.4845031 97 86 87
-0.053442113 -0.28205562 1.4845031 96 85 86
-0.05195761 -0.28205562 1.4845031 101 87 86
-0.05029209 -0.28104404 1.4791791 104 90 91
-0.04881291 -0.28104404 1.4791791 99 85 86
-0.047136508 -0.279873 1.4730159 102 88 90
-0.046019595 -0.28205562 1.4845031 100 87 90
-0.044535097 -0.28205562 1.4845031 103 89 90
-0.04305059 -0.28205562 1.4845031 105 92 92
-0.04156609 -0.28205562 1.4845031 105 92 94
-0.040081587 -0.28205562 1.4845031 105 92 94
-0.03859708 -0.28205562 1.4845031 105 92 93
-0.03711258 -0.28205562 1.4845031 107 94 95
-0.035628073 -0.28205562 1.4845031 106 93 94
-0.034143575 -0.28205562 1.4845031 105 92 93
-0.03277704 -0.28307447 1.4898655 102 89 92
-0.031287175 -0.28307447 1.4898655 103 90 93
-0.02979731 -0.28307447 1.4898655 101 88 90
-0.028307445 -0.28307447 1.4898655 104 90 93
-0.026817579 -0.28307447 1.4898655 105 90 91
-0.025327714 -0.28307447 1.4898655 103 90 91
-0.02383785 -0.28307447 1.4898655 104 90 90
-0.022429004 -0.2841007 1.4952669 105 91 93
-0.020933736 -0.2841007 1.4952669 107 93 93
-0.019509198 -0.28513443 1.5007075 108 93 95
-0.01800849 -0.28513443 1.5007075 107 93 94
-0.016507782 -0.28513443 1.5007075 105 91 93
-0.0150618795 -0.2861757 1.5061879 106 92 94
-0.013605377 -0.28722462 1.5117085 109 94 96
-0.012093668 -0.28722462 1.5117085 107 92 94
-0.010504953 -0.28513443 1.5007075 106 93 93
-0.008971602 -0.2841007 1.4952669 111 99 95
-0.0076948595 -0.29240465 1.5389719 117 104 97
-0.006361611 -0.30217654 1.5904028 165 145 132
-0.0048970976 -0.31014955 1.632366 189 166 148
-0.0032885938 -0.3124164 1.6442969 124 110 98
-0.0016508785 -0.3136669 1.6508784 149 131 119
0.0 -0.3124164 1.6442969 212 186 169
0.0016442969 -0.3124164 1.6442969 183 161 148
0.0032885938 -0.3124164 1.6442969 200 175 158
0.004932891 -0.3124164 1.6442969 206 186 164
0.0065771877 -0.3124164 1.6442969 203 182 160
0.008221484 -0.3124164 1.6442969 203 181 159
0.009865782 -0.3124164 1.6442969 211 190 169
0.011510079 -0.3124164 1.6442969 208 185 167
0.013154375 -0.3124164 1.6442969 197 176 156
0.014798672 -0.3124164 1.6442969 201 179 159
0.016442968 -0.3124164 1.6442969 209 188 166
0.018087264 -0.3124164 1.6442969 215 193 170
0.019731564 -0.3124164 1.6442969 208 187 165
0.021375861 -0.3124164 1.6442969 213 192 169
0.023020158 -0.3124164 1.6442969 206 186 164
0.024664454 -0.3124164 1.6442969 213 193 170
0.02630875 -0.3124164 1.6442969 220 199 176
0.027953047 -0.3124164 1.6442969 213 192 170
0.029499339 -0.3113819 1.6388521 199 179 159
0.031138191 -0.3113819 1.6388521 198 175 157
0.03277704 -0.3113819 1.6388521 199 179 159
0.034415893 -0.3113819 1.6388521 215 192 171
0.03605475 -0.3113819 1.6388521 214 191 171
0.0376936 -0.3113819 1.6388521 211 190 169
0.03933245 -0.3113819 1.6388521 212 191 169
0.0409713 -0.3113819 1.6388521 216 195 172
0.042610154 -0.3113819 1.6388521 197 178 158
0.04407388 -0.31014955 1.632366 203 183 162
0.045706246 -0.31014955 1.632366 216 194 171
0.047338612 -0.31014955 1.632366 177 160 142
0.04897098 -0.31014955 1.632366 189 171 150
0.050603345 -0.31014955 1.632366 219 197 175
0.05223571 -0.31014955 1.632366 212 188 167
0.054082118 -0.3113819 1.6388521 195 173 152
0.05572097 -0.3113819 1.6388521 204 184 159
0.057359826 -0.3113819 1.6388521 200 181 157
0.058998678 -0.3113819 1.6388521 203 183 159
0.060637526 -0.3113819 1.6388521 204 182 158
0.062276382 -0.3113819 1.6388521 211 191 165
0.063662276 -0.31014955 1.632366 211 188 163
0.06529464 -0.31014955 1.632366 201 179 155
0.066927 -0.31014955 1.632366 203 181 159
0.06883179 -0.3113819 1.6388521 206 186 169
0.07047064 -0.3113819 1.6388521 216 198 172
0.0721095 -0.3113819 1.6388521 198 180 159
0.07374834 -0.3113819 1.6388521 181 166 147
0.07563765 -0.3124164 1.6442969 165 145 128
0.07702605 -0.3113819 1.6388521 163 144 127
0.07835356 -0.31014955 1.632366 168 149 132
0.08089305 -0.3136669 1.6508784 172 153 135
0.08282017 -0.31471664 1.6564034 176 157 141
0.0841948 -0.3136669 1.6508784 161 142 127
0.085503444 -0.3124164 1.6442969 147 130 116
0.087147735 -0.3124164 1.6442969 137 120 109
0.08849802 -0.3113819 1.6388521 120 104 97
0.089426205 -0.30892688 1.6259309 106 93 91
0.09039879 -0.30671018 1.614264 100 88 86
0.09100387 -0.30334625 1.5965592 103 90 91
0.091947906 -0.30120865 1.5853087 96 84 87
0.09353321 -0.30120865 1.5853087 97 85 86
0.09439288 -0.2989108 1.5732148 96 84 86
0.0959661 -0.2989108 1.5732148 95 84 85
0.09716867 -0.29777497 1.5672367 97 85 87
0.09805284 -0.2957149 1.5563942 95 85 87
0.09812805 -0.29131767 1.5332508 101 91 92
0.09892579 -0.2891677 1.5219352 112 100 100
0.09868761 -0.2841007 1.4952669 124 111 112
0.098340854 -0.27887705 1.4677739 138 123 124
0.099454686 -0.27788812 1.462569 145 130 132
0.10091726 -0.27788812 1.462569 153 137 140
0.10165884 -0.27593115 1.4522692 155 139 141
0.10311112 -0.27593115 1.4522692 156 140 142
0.10493287 -0.2769062 1.4574009 156 139 142
0.10639027 -0.2769062 1.4574009 154 138 140
0.10784767 -0.2769062 1.4574009 155 139 140
0.10892019 -0.27593115 1.4522692 145 129 130
0.11037246 -0.27593115 1.4522692 142 127 127
0.11182473 -0.27593115 1.4522692 149 134 135
0.113277 -0.27593115 1.4522692 149 134 136
0.11472926 -0.27593115 1.4522692 149 134 136
0.11659207 -0.2769062 1.4574009 152 135 137
0.11846808 -0.27788812 1.462569 146 130 133
0.119930655 -0.27788812 1.462569 147 130 133
0.121393226 -0.27788812 1.462569 147 131 133
0.1228558 -0.27788812 1.462569 149 131 135
0.12431837 -0.27788812 1.462569 148 131 135
0.12578094 -0.27788812 1.462569 149 132 136
0.1272435 -0.27788812 1.462569 143 125 130
0.12870607 -0.27788812 1.462569 139 123 127
0.13063188 -0.27887705 1.4677739 136 119 125
0.13209966 -0.27887705 1.4677739 133 116 121
0.13356742 -0.27887705 1.4677739 135 119 123
0.1350352 -0.27887705 1.4677739 143 126 131
0.13699047 -0.279873 1.4730159 140 123 127
0.1384635 -0.279873 1.4730159 143 125 129
0.1399365 -0.279873 1.4730159 144 126 130
0.14140953 -0.279873 1.4730159 145 127 130
0.14348038 -0.28104404 1.4791791 142 124 128
0.14495955 -0.28104404 1.4791791 130 114 116
0.1469658 -0.28205562 1.4845031 106 91 93
0.14952669 -0.2841007 1.4952669 100 85 86
0.15157145 -0.28513443 1.5007075 99 84 84
0.15251723 -0.2841007 1.4952669 103 86 84
0.15513736 -0.2861757 1.5061879 107 90 88
0.15721768 -0.28722462 1.5117085 124 106 101
0.16099133 -0.29131767 1.5332508 167 135 124
0.16676077 -0.2989108 1.5732148 187 152 137
0.17149568 -0.30452505 1.6027634 108 63 57
0.17434052 -0.30671018 1.614264 125 67 54
0.17664614 -0.3079153 1.6206069 138 78 62
0.17885241 -0.30892688 1.6259309 148 88 70
0.17988735 -0.3079153 1.6206069 168 104 87
0.18150796 -0.3079153 1.6206069 172 112 96
0.18312858 -0.3079153 1.6206069 177 116 100
0.18474919 -0.3079153 1.6206069 162 124 110
0.18636979 -0.3079153 1.6206069 208 184 158
0.18860799 -0.30892688 1.6259309 197 174 151
0.19023392 -0.30892688 1.6259309 206 180 156
0.19185984 -0.30892688 1.6259309 207 182 161
0.19425154 -0.31014955 1.632366 207 181 161
0.19588391 -0.31014955 1.632366 197 171 153
0.19751628 -0.31014955 1.632366 205 177 157
0.19914865 -0.31014955 1.632366 188 164 147
0.200781 -0.31014955 1.632366 201 178 158
0.20241338 -0.31014955 1.632366 205 184 163
0.20404574 -0.31014955 1.632366 208 188 167
0.20567812 -0.31014955 1.632366 211 191 169
0.20731047 -0.31014955 1.632366 211 187 166
0.20894285 -0.31014955 1.632366 216 195 174
0.21141192 -0.3113819 1.6388521 220 197 176
0.21305078 -0.3113819 1.6388521 213 192 171
0.21468963 -0.3113819 1.6388521 207 186 165
0.21632847 -0.3113819 1.6388521 212 192 170
0.21796733 -0.3113819 1.6388521 216 192 172
0.22033578 -0.3124164 1.6442969 213 192 170
0.22124504 -0.3113819 1.6388521 214 190 167
0.22288388 -0.3113819 1.6388521 221 196 172
0.22452274 -0.3113819 1.6388521 220 195 169
0.22616158 -0.3113819 1.6388521 215 191 165
0.22780044 -0.3113819 1.6388521 217 193 168
0.2294393 -0.3113819 1.6388521 210 187 165
0.23184586 -0.3124164 1.6442969 216 192 171
0.23271699 -0.3113819 1.6388521 220 199 176
0.23435585 -0.3113819 1.6388521 216 195 173
-0.23154776 -0.30712238 1.6079706 183 163 143
-0.22993979 -0.30712238 1.6079706 185 164 143
-0.22833182 -0.30712238 1.6079706 182 162 143
-0.22672385 -0.30712238 1.6079706 183 164 142
-0.2251159 -0.30712238 1.6079706 189 171 148
-0.22350793 -0.30712238 1.6079706 191 170 148
-0.22189994 -0.30712238 1.6079706 191 170 143
-0.22029197 -0.30712238 1.6079706 188 170 148
-0.218684 -0.30712238 1.6079706 182 163 143
-0.21707603 -0.30712238 1.6079706 186 167 146
-0.21546806 -0.30712238 1.6079706 190 171 148
-0.2138601 -0.30712238 1.6079706 189 167 144
-0.21308285 -0.30832443 1.614264 192 169 147
-0.21146858 -0.30832443 1.614264 187 164 140
-0.20985432 -0.30832443 1.614264 177 158 136
-0.20824005 -0.30832443 1.614264 178 159 136
-0.20662579 -0.30832443 1.614264 181 160 138
-0.20501153 -0.30832443 1.614264 185 165 143
-0.20339726 -0.30832443 1.614264 184 163 144
-0.201783 -0.30832443 1.614264 186 166 143
-0.20016873 -0.30832443 1.614264 183 163 141
-0.19855447 -0.30832443 1.614264 186 163 141
-0.19694021 -0.30832443 1.614264 185 162 140
-0.19532594 -0.30832443 1.614264 179 159 138
-0.19371168 -0.30832443 1.614264 178 159 133
-0.19209741 -0.30832443 1.614264 181 160 138
-0.19048315 -0.30832443 1.614264 185 162 140
-0.1888689 -0.30832443 1.614264 185 165 141
-0.18725462 -0.30832443 1.614264 186 165 148
-0.18564036 -0.30832443 1.614264 180 160 140
-0.18402609 -0.30832443 1.614264 184 165 142
-0.18312858 -0.30953592 1.6206069 186 164 141
-0.18150796 -0.30953592 1.6206069 187 166 139
-0.1791833 -0.30832443 1.614264 188 165 141
-0.17826675 -0.30953592 1.6206069 189 164 141
-0.17664614 -0.30953592 1.6206069 188 167 143
-0.17502554 -0.30953592 1.6206069 184 163 143
-0.17340493 -0.30953592 1.6206069 187 165 145
-0.17178433 -0.30953592 1.6206069 186 165 143
-0.17016372 -0.30953592 1.6206069 184 161 136
-0.16854312 -0.30953592 1.6206069 184 162 142
-0.16692251 -0.30953592 1.6206069 183 162 136
-0.1653019 -0.30953592 1.6206069 187 164 144
-0.16368128 -0.30953592 1.6206069 189 166 146
-0.16206068 -0.30953592 1.6206069 189 168 147
-0.16044007 -0.30953592 1.6206069 193 172 150
-0.15881947 -0.30953592 1.6206069 194 175 152
-0.15719886 -0.30953592 1.6206069 189 173 152
-0.15557826 -0.30953592 1.6206069 184 165 145
-0.15395765 -0.30953592 1.6206069 181 162 142
-0.15174082 -0.30832443 1.614264 188 167 146
-0.15071644 -0.30953592 1.6206069 193 172 152
-0.14909583 -0.30953592 1.6206069 199 176 156
-0.14689803 -0.30832443 1.614264 197 177 155
-0.14528377 -0.30832443 1.614264 194 173 153
-0.1436695 -0.30832443 1.614264 192 171 150
-0.14205524 -0.30832443 1.614264 182 163 142
-0.13989344 -0.30712238 1.6079706 178 159 136
-0.13828547 -0.30712238 1.6079706 175 153 132
-0.1366775 -0.30712238 1.6079706 165 144 126
-0.13506953 -0.30712238 1.6079706 154 133 117
-0.13346156 -0.30712238 1.6079706 148 129 112
-0.13236964 -0.30832443 1.614264 132 115 99
-0.13075538 -0.30832443 1.614264 122 106 92
-0.12863766 -0.30712238 1.6079706 124 108 93
-0.12612817 -0.30494282 1.5965592 112 98 83
-0.12453162 -0.30494282 1.5965592 98 81 72
-0.12246102 -0.30376694 1.5904028 89 73 67
-0.120022126 -0.30163455 1.5792385 83 71 62
-0.11754275 -0.2993422 1.5672367 86 77 68
-0.11553649 -0.29820904 1.561304 93 84 77
-0.11361677 -0.2972713 1.5563942 95 85 79
-0.11206038 -0.2972713 1.5563942 78 66 60
-0.11008856 -0.29615372 1.5505431 75 65 60
-0.108131506 -0.2950445 1.5447358 92 82 76
-0.10658677 -0.2950445 1.5447358 93 80 73
-0.10504203 -0.2950445 1.5447358 94 79 72
-0.10311112 -0.29394364 1.5389719 94 83 74
-0.10157214 -0.29394364 1.5389719 71 60 52
-0.0996613 -0.29285088 1.5332508 78 68 62
-0.09776461 -0.29176626 1.527572 91 79 73
-0.09623704 -0.29176626 1.527572 77 65 60
-0.09435999 -0.29068965 1.5219352 74 62 56
-0.09283805 -0.29068965 1.5219352 72 59 53
-0.09103618 -0.2897985 1.5172696 78 65 60
-0.089518905 -0.2897985 1.5172696 76 64 58
-0.087679096 -0.2887363 1.5117085 77 66 62
-0.08585271 -0.28768188 1.5061879 82 70 65
-0.08465568 -0.2887363 1.5117085 72 60 53
-0.08284033 -0.28768188 1.5061879 79 67 64
-0.081334144 -0.28768188 1.5061879 85 73 70
-0.079537496 -0.28663513 1.5007075 91 79 76
-0.07803679 -0.28663513 1.5007075 92 80 77
-0.07653608 -0.28663513 1.5007075 82 69 65
-0.07476334 -0.28559598 1.4952669 84 69 64
-0.07300341 -0.28456432 1.4898655 86 73 68
-0.07151355 -0.28456432 1.4898655 87 75 72
-0.07002368 -0.28456432 1.4898655 92 80 78
-0.06878228 -0.28559598 1.4952669 87 72 71
-0.06704395 -0.28456432 1.4898655 89 77 76
-0.06555408 -0.28456432 1.4898655 88 74 74
-0.06406422 -0.28456432 1.4898655 91 78 77
-0.062349133 -0.2835401 1.4845031 99 86 84
-0.060864627 -0.2835401 1.4845031 93 80 78
-0.059380125 -0.2835401 1.4845031 97 83 83
-0.057895623 -0.2835401 1.4845031 98 84 84
-0.056208808 -0.2825232 1.4791791 95 82 81
-0.05472963 -0.2825232 1.4791791 99 87 86
-0.05325045 -0.2825232 1.4791791 95 83 83
-0.051771272 -0.2825232 1.4791791 97 84 85
-0.05029209 -0.2825232 1.4791791 95 82 83
-0.04881291 -0.2825232 1.4791791 94 81 84
-0.047136508 -0.28134605 1.4730159 97 82 85
-0.045854554 -0.2825232 1.4791791 99 87 88
-0.044375375 -0.2825232 1.4791791 99 87 88
-0.042896196 -0.2825232 1.4791791 97 85 86
-0.04156609 -0.2835401 1.4845031 98 86 87
-0.040081587 -0.2835401 1.4845031 100 88 89
-0.03859708 -0.2835401 1.4845031 104 91 92
-0.03711258 -0.2835401 1.4845031 106 92 93
-0.035628073 -0.2835401 1.4845031 104 91 92
-0.034143575 -0.2835401 1.4845031 106 92 93
-0.03277704 -0.28456432 1.4898655 105 93 93
-0.031287175 -0.28456432 1.4898655 105 94 94
-0.02979731 -0.28456432 1.4898655 106 95 95
-0.02820556 -0.2835401 1.4845031 105 94 94
-0.026817579 -0.28456432 1.4898655 107 94 95
-0.025327714 -0.28456432 1.4898655 105 93 93
-0.02383785 -0.28456432 1.4898655 105 92 93
-0.022429004 -0.28559598 1.4952669 103 91 93
-0.020933736 -0.28559598 1.4952669 111 98 100
-0.01943847 -0.28559598 1.4952669 110 96 98
-0.017943203 -0.28559598 1.4952669 107 94 96
-0.016507782 -0.28663513 1.5007075 107 93 95
-0.0150618795 -0.28768188 1.5061879 106 92 94
-0.013555691 -0.28768188 1.5061879 108 94 95
-0.012093668 -0.2887363 1.5117085 109 94 96
-0.010543316 -0.28768188 1.5061879 108 94 95
-0.008939194 -0.28456432 1.4898655 109 96 94
-0.0075035375 -0.28663513 1.5007075 110 99 94
-0.006178943 -0.2950445 1.5447358 122 109 103
-0.0047896774 -0.30494282 1.5965592 197 173 160
-0.0032518618 -0.3105528 1.6259309 194 168 151
-0.0016442969 -0.3140607 1.6442969 174 151 136
0.0 -0.31302077 1.6388521 158 138 126
0.0016388522 -0.31302077 1.6388521 188 165 152
0.0032777044 -0.31302077 1.6388521 192 171 155
0.004916556 -0.31302077 1.6388521 204 183 161
0.0065554087 -0.31302077 1.6388521 188 168 147
0.00819426 -0.31302077 1.6388521 199 176 155
0.009833112 -0.31302077 1.6388521 208 185 166
0.011471964 -0.31302077 1.6388521 210 190 171
0.013110817 -0.31302077 1.6388521 212 188 167
0.0147496695 -0.31302077 1.6388521 206 184 163
0.01638852 -0.31302077 1.6388521 185 164 146
0.018027375 -0.31302077 1.6388521 201 179 158
0.019666225 -0.31302077 1.6388521 210 190 167
0.021305077 -0.31302077 1.6388521 210 190 167
0.022943929 -0.31302077 1.6388521 216 195 172
0.024582783 -0.31302077 1.6388521 219 197 173
0.026221635 -0.31302077 1.6388521 221 200 178
0.027860485 -0.31302077 1.6388521 211 190 168
0.029382588 -0.31178188 1.632366 210 190 168
0.031014953 -0.31178188 1.632366 219 197 175
0.03264732 -0.31178188 1.632366 214 193 172
0.034279685 -0.31178188 1.632366 204 183 164
0.03577048 -0.3105528 1.6259309 205 185 164
0.037544418 -0.31178188 1.632366 218 196 175
0.03917678 -0.31178188 1.632366 216 197 174
0.0409713 -0.31302077 1.6388521 215 195 172
0.042441513 -0.31178188 1.632366 209 187 165
0.04407388 -0.31178188 1.632366 195 174 154
0.045706246 -0.31178188 1.632366 202 182 162
0.047151998 -0.3105528 1.6259309 216 194 170
0.04897098 -0.31178188 1.632366 211 193 170
0.050603345 -0.31178188 1.632366 198 179 158
0.05223571 -0.31178188 1.632366 211 186 165
0.053868078 -0.31178188 1.632366 189 168 149
0.055500444 -0.31178188 1.632366 204 181 159
0.05713281 -0.31178188 1.632366 202 181 158
0.058998678 -0.31302077 1.6388521 204 182 160
0.06039754 -0.31178188 1.632366 208 188 163
0.062029906 -0.31178188 1.632366 207 187 163
0.063662276 -0.31178188 1.632366 216 194 169
0.06529464 -0.31178188 1.632366 199 178 156
0.066927 -0.31178188 1.632366 201 178 157
0.06855937 -0.31178188 1.632366 193 173 155
0.07047064 -0.31302077 1.6388521 200 182 160
0.0721095 -0.31302077 1.6388521 192 176 154
0.07399336 -0.3140607 1.6442969 193 177 156
0.07563765 -0.3140607 1.6442969 191 169 148
0.07728195 -0.3140607 1.6442969 175 154 136
0.07835356 -0.31178188 1.632366 171 151 133
0.08089305 -0.31531778 1.6508784 159 142 124
0.082543924 -0.31531778 1.6508784 153 135 121
0.08385914 -0.3140607 1.6442969 141 122 109
0.08522031 -0.31302077 1.6388521 133 114 104
0.08617434 -0.3105528 1.6259309 127 110 102
0.08814776 -0.31178188 1.632366 117 103 95
0.089426205 -0.3105528 1.6259309 106 92 90
0.09004635 -0.30712238 1.6079706 101 89 87
0.09100387 -0.30494282 1.5965592 99 87 87
0.091947906 -0.30279395 1.5853087 99 86 87
0.09317507 -0.30163455 1.5792385 98 86 87
0.09439288 -0.300484 1.5732148 97 85 87
0.09523954 -0.29820904 1.561304 99 86 88
0.09649645 -0.2972713 1.5563942 99 86 87
0.0965948 -0.29285088 1.5332508 102 92 94
0.09569708 -0.28559598 1.4952669 119 107 108
0.09649271 -0.2835401 1.4845031 138 123 124
0.096873075 -0.2803448 1.4677739 145 127 130
0.09764586 -0.2783636 1.4574009 142 127 129
0.0987543 -0.27738342 1.4522692 145 130 133
0.10020658 -0.27738342 1.4522692 152 136 137
0.102018066 -0.2783636 1.4574009 151 136 137
0.10311112 -0.27738342 1.4522692 149 134 135
0.10493287 -0.2783636 1.4574009 152 135 138
0.106015645 -0.27738342 1.4522692 152 135 136
0.10784767 -0.2783636 1.4574009 145 131 132
0.10892019 -0.27738342 1.4522692 144 129 130
0.11037246 -0.27738342 1.4522692 144 129 131
0.11182473 -0.27738342 1.4522692 143 128 129
0.113277 -0.27738342 1.4522692 142 127 128
0.11472926 -0.27738342 1.4522692 143 128 129
0.11700553 -0.27935067 1.462569 144 128 130
0.11846808 -0.27935067 1.462569 142 128 129
0.119930655 -0.27935067 1.462569 143 127 128
0.121393226 -0.27935067 1.462569 144 128 129
0.1228558 -0.27935067 1.462569 145 128 131
0.12431837 -0.27935067 1.462569 141 125 129
0.12578094 -0.27935067 1.462569 143 125 130
0.1272435 -0.27935067 1.462569 142 124 129
0.12870607 -0.27935067 1.462569 140 125 129
0.13016865 -0.27935067 1.462569 138 122 128
0.13163121 -0.27935067 1.462569 139 122 127
0.13356742 -0.2803448 1.4677739 137 123 127
0.1350352 -0.2803448 1.4677739 137 122 126
0.13650298 -0.2803448 1.4677739 138 121 125
0.1384635 -0.28134605 1.4730159 139 122 126
0.1399365 -0.28134605 1.4730159 142 124 128
0.14140953 -0.28134605 1.4730159 142 125 128
0.14288254 -0.28134605 1.4730159 140 121 123
0.14495955 -0.2825232 1.4791791 127 111 113
0.1469658 -0.2835401 1.4845031 109 95 96
0.14952669 -0.28559598 1.4952669 96 83 83
0.15157145 -0.28663513 1.5007075 99 84 83
0.15307216 -0.28663513 1.5007075 102 86 85
0.15513736 -0.28768188 1.5061879 108 91 88
0.15721768 -0.2887363 1.5117085 133 113 106
0.16099133 -0.29285088 1.5332508 170 142 130
0.16612709 -0.2993422 1.5672367 182 160 140
0.17083183 -0.30494282 1.5965592 99 58 51
0.17434052 -0.30832443 1.614264 121 65 54
0.17595477 -0.30832443 1.614264 135 75 62
0.17826675 -0.30953592 1.6206069 148 85 69
0.17988735 -0.30953592 1.6206069 157 97 80
0.18210426 -0.3105528 1.6259309 168 106 90
0.1837302 -0.3105528 1.6259309 177 115 97
0.18474919 -0.30953592 1.6206069 164 124 111
0.18564036 -0.30832443 1.614264 211 184 159
0.18725462 -0.30832443 1.614264 210 184 159
0.1888689 -0.30832443 1.614264 201 176 156
0.19123161 -0.30953592 1.6206069 204 182 161
0.19348578 -0.3105528 1.6259309 187 165 147
0.1951117 -0.3105528 1.6259309 188 164 146
0.19673765 -0.3105528 1.6259309 199 174 156
0.19836357 -0.3105528 1.6259309 196 172 154
0.1999895 -0.3105528 1.6259309 200 175 156
0.20161544 -0.3105528 1.6259309 210 186 165
0.20324136 -0.3105528 1.6259309 201 176 158
0.20486729 -0.3105528 1.6259309 213 186 167
0.20731047 -0.31178188 1.632366 218 192 172
0.20894285 -0.31178188 1.632366 219 196 175
0.21057521 -0.31178188 1.632366 220 199 178
0.21220757 -0.31178188 1.632366 218 195 173
0.21383993 -0.31178188 1.632366 215 194 172
0.21547231 -0.31178188 1.632366 215 193 171
0.21710467 -0.31178188 1.632366 216 194 172
0.21960619 -0.31302077 1.6388521 211 190 168
0.2203694 -0.31178188 1.632366 215 190 169
0.22200178 -0.31178188 1.632366 216 192 171
0.22363414 -0.31178188 1.632366 218 194 173
0.2252665 -0.31178188 1.632366 220 196 175
0.22689886 -0.31178188 1.632366 211 189 168
0.22853124 -0.31178188 1.632366 214 191 170
0.2301636 -0.31178188 1.632366 216 191 170
0.23179597 -0.31178188 1.632366 218 196 173
0.23342833 -0.31178188 1.632366 210 187 166
-0.23079793 -0.3077306 1.6027634 183 161 143
-0.22919518 -0.3077306 1.6027634 184 164 146
-0.22759241 -0.3077306 1.6027634 190 168 145
-0.22598964 -0.3077306 1.6027634 186 168 146
-0.22438687 -0.3077306 1.6027634 190 169 151
-0.22278412 -0.3077306 1.6027634 192 170 151
-0.22118135 -0.3077306 1.6027634 188 167 144
-0.21957858 -0.3077306 1.6027634 189 166 147
-0.218684 -0.30873033 1.6079706 190 166 146
-0.21707603 -0.30873033 1.6079706 185 164 143
-0.21546806 -0.30873033 1.6079706 191 172 149
-0.2138601 -0.30873033 1.6079706 192 169 146
-0.21225213 -0.30873033 1.6079706 188 166 145
-0.21064416 -0.30873033 1.6079706 193 169 143
-0.20985432 -0.3099387 1.614264 185 165 142
-0.20824005 -0.3099387 1.614264 183 165 140
-0.20662579 -0.3099387 1.614264 188 167 143
-0.20501153 -0.3099387 1.614264 185 165 143
-0.20339726 -0.3099387 1.614264 189 167 147
-0.201783 -0.3099387 1.614264 191 170 149
-0.20016873 -0.3099387 1.614264 187 166 145
-0.19855447 -0.3099387 1.614264 188 166 144
-0.19694021 -0.3099387 1.614264 186 166 144
-0.19532594 -0.3099387 1.614264 184 164 142
-0.19371168 -0.3099387 1.614264 181 160 137
-0.19209741 -0.3099387 1.614264 182 159 141
-0.19048315 -0.3099387 1.614264 184 162 142
-0.1888689 -0.3099387 1.614264 183 160 137
-0.18725462 -0.3099387 1.614264 184 163 146
-0.18564036 -0.3099387 1.614264 186 165 143
-0.18402609 -0.3099387 1.614264 181 160 139
-0.18241183 -0.3099387 1.614264 170 149 129
-0.18079758 -0.3099387 1.614264 176 156 132
-0.1791833 -0.3099387 1.614264 187 165 141
-0.17756905 -0.3099387 1.614264 182 161 137
-0.17595477 -0.3099387 1.614264 184 162 140
-0.17434052 -0.3099387 1.614264 193 170 146
-0.17272624 -0.3099387 1.614264 184 164 142
-0.17111199 -0.3099387 1.614264 190 165 145
-0.16949773 -0.3099387 1.614264 187 166 145
-0.16788346 -0.3099387 1.614264 186 163 143
-0.1662692 -0.3099387 1.614264 185 163 145
-0.16465493 -0.3099387 1.614264 185 163 143
-0.16304067 -0.3099387 1.614264 186 164 143
-0.16142641 -0.3099387 1.614264 191 168 147
-0.15981214 -0.3099387 1.614264 189 167 146
-0.15819788 -0.3099387 1.614264 188 167 145
-0.1565836 -0.3099387 1.614264 189 167 146
-0.15436517 -0.30873033 1.6079706 190 168 147
-0.1527572 -0.30873033 1.6079706 192 169 148
-0.15114923 -0.30873033 1.6079706 190 169 148
-0.14954126 -0.30873033 1.6079706 187 166 145
-0.14793329 -0.30873033 1.6079706 187 165 145
-0.14632532 -0.30873033 1.6079706 196 176 153
-0.14471735 -0.30873033 1.6079706 194 172 153
-0.1431094 -0.30873033 1.6079706 191 169 148
-0.14150141 -0.30873033 1.6079706 183 163 142
-0.13989344 -0.30873033 1.6079706 176 157 135
-0.13828547 -0.30873033 1.6079706 167 148 128
-0.1366775 -0.30873033 1.6079706 162 142 125
-0.13506953 -0.30873033 1.6079706 147 129 113
-0.13346156 -0.30873033 1.6079706 137 119 103
-0.1314266 -0.3077306 1.6027634 127 107 91
-0.13024563 -0.30873033 1.6079706 126 108 91
-0.12822106 -0.3077306 1.6027634 124 110 97
-0.12612817 -0.30653936 1.5965592 113 99 88
-0.12453162 -0.30653936 1.5965592 94 81 76
-0.12246102 -0.30535737 1.5904028 91 77 73
-0.120022126 -0.3032138 1.5792385 85 72 69
-0.11754275 -0.30090943 1.5672367 81 68 65
-0.11553649 -0.29977036 1.561304 79 67 62
-0.11361677 -0.2988277 1.5563942 79 67 60
-0.11206038 -0.2988277 1.5563942 76 64 58
-0.11008856 -0.29770428 1.5505431 78 66 59
-0.10853802 -0.29770428 1.5505431 97 85 78
-0.10658677 -0.29658926 1.5447358 96 85 77
-0.10504203 -0.29658926 1.5447358 97 84 78
-0.10311112 -0.2954826 1.5389719 92 83 76
-0.10157214 -0.2954826 1.5389719 76 66 57
-0.10003317 -0.2954826 1.5389719 81 69 62
-0.09812805 -0.29438415 1.5332508 99 85 79
-0.0965948 -0.29438415 1.5332508 82 69 63
-0.09470946 -0.29329383 1.527572 91 77 72
-0.09283805 -0.29221156 1.5219352 77 64 57
-0.09103618 -0.29131576 1.5172696 75 62 54
-0.089518905 -0.29131576 1.5172696 81 69 60
-0.08800164 -0.29131576 1.5172696 95 82 75
-0.08616738 -0.29024804 1.5117085 101 89 82
-0.08465568 -0.29024804 1.5117085 92 80 72
-0.08284033 -0.2891881 1.5061879 75 63 59
-0.081334144 -0.2891881 1.5061879 77 65 61
-0.07982796 -0.2891881 1.5061879 89 77 74
-0.07803679 -0.28813583 1.5007075 95 83 81
-0.07653608 -0.28813583 1.5007075 86 74 70
-0.07476334 -0.28709126 1.4952669 83 71 66
-0.07300341 -0.2860542 1.4898655 81 68 64
-0.07151355 -0.2860542 1.4898655 85 72 70
-0.07002368 -0.2860542 1.4898655 85 75 72
-0.068533815 -0.2860542 1.4898655 87 75 72
-0.06656306 -0.2840024 1.4791791 88 76 73
-0.06508388 -0.2840024 1.4791791 89 77 74
-0.06383364 -0.28502458 1.4845031 90 77 75
-0.062125523 -0.2840024 1.4791791 93 81 79
-0.060393654 -0.28281906 1.4730159 94 80 77
-0.058920637 -0.28281906 1.4730159 88 76 74
-0.05744762 -0.28281906 1.4730159 91 78 77
-0.056208808 -0.2840024 1.4791791 91 78 78
-0.054501586 -0.28281906 1.4730159 91 78 76
-0.05325045 -0.2840024 1.4791791 98 85 82
-0.05155556 -0.28281906 1.4730159 97 83 83
-0.050082542 -0.28281906 1.4730159 92 79 80
-0.04881291 -0.2840024 1.4791791 96 83 86
-0.047136508 -0.28281906 1.4730159 93 81 85
-0.04550099 -0.28181258 1.4677739 101 88 90
-0.04403322 -0.28181258 1.4677739 101 88 90
-0.042565446 -0.28181258 1.4677739 102 89 90
-0.04109767 -0.28181258 1.4677739 103 91 91
-0.039629895 -0.28181258 1.4677739 108 96 96
-0.03816212 -0.28181258 1.4677739 111 99 100
-0.036694348 -0.28181258 1.4677739 117 105 105
-0.035226572 -0.28181258 1.4677739 122 109 110
-0.033879366 -0.28281906 1.4730159 130 116 116
-0.03240635 -0.28281906 1.4730159 126 112 113
-0.030933334 -0.28281906 1.4730159 126 113 114
-0.029460318 -0.28281906 1.4730159 131 117 118
-0.027987303 -0.28281906 1.4730159 130 116 117
-0.026625225 -0.2840024 1.4791791 130 115 116
-0.025146045 -0.2840024 1.4791791 127 113 113
-0.02375205 -0.28502458 1.4845031 124 109 111
-0.022347983 -0.2860542 1.4898655 119 105 106
-0.020858118 -0.2860542 1.4898655 116 103 104
-0.019368252 -0.2860542 1.4898655 121 105 107
-0.017943203 -0.28709126 1.4952669 118 103 105
-0.016568068 -0.2891881 1.5061879 110 96 98
-0.0150618795 -0.2891881 1.5061879 108 95 96
-0.013555691 -0.2891881 1.5061879 107 94 96
-0.012093668 -0.29024804 1.5117085 108 95 96
-0.010543316 -0.2891881 1.5061879 108 94 96
-0.008971602 -0.28709126 1.4952669 107 94 95
-0.0074225157 -0.28502458 1.4845031 108 96 96
-0.006046834 -0.29024804 1.5117085 120 106 106
-0.00470171 -0.30090943 1.5672367 170 151 149
-0.0032159411 -0.30873033 1.6079706 189 169 154
-0.0016388522 -0.3146596 1.6388521 210 185 165
0.0 -0.3146596 1.6388521 201 179 159
0.0016388522 -0.3146596 1.6388521 194 174 155
0.0032777044 -0.3146596 1.6388521 211 188 167
0.004916556 -0.3146596 1.6388521 210 187 163
0.0065554087 -0.3146596 1.6388521 183 161 140
0.00819426 -0.3146596 1.6388521 188 165 144
0.009833112 -0.3146596 1.6388521 202 180 159
0.011471964 -0.3146596 1.6388521 203 181 162
0.013110817 -0.3146596 1.6388521 205 182 162
0.0147496695 -0.3146596 1.6388521 207 184 163
0.01638852 -0.3146596 1.6388521 210 187 166
0.017956026 -0.31341425 1.632366 212 187 166
0.01958839 -0.31341425 1.632366 210 189 167
0.021220757 -0.31341425 1.632366 207 187 166
0.022943929 -0.3146596 1.6388521 213 192 169
0.024582783 -0.3146596 1.6388521 216 195 173
0.026117856 -0.31341425 1.632366 215 194 173
0.027750222 -0.31341425 1.632366 208 185 165
0.029382588 -0.31341425 1.632366 212 189 169
0.031014953 -0.31341425 1.632366 217 193 172
0.03264732 -0.31341425 1.632366 220 196 174
0.034279685 -0.31341425 1.632366 206 186 165
0.03577048 -0.31217873 1.6259309 202 183 163
0.037396412 -0.31217873 1.6259309 208 187 167
0.03902234 -0.31217873 1.6259309 214 193 170
0.040648274 -0.31217873 1.6259309 209 189 167
0.04213578 -0.3111565 1.6206069 212 189 168
0.043900136 -0.31217873 1.6259309 213 191 169
0.04537699 -0.3111565 1.6206069 215 195 171
0.0469976 -0.3111565 1.6206069 219 200 175
0.048777927 -0.31217873 1.6259309 222 204 180
0.05040386 -0.31217873 1.6259309 210 190 169
0.05223571 -0.31341425 1.632366 209 185 164
0.05365572 -0.31217873 1.6259309 188 167 148
0.055500444 -0.31341425 1.632366 208 185 162
0.056907583 -0.31217873 1.6259309 208 186 163
0.058533512 -0.31217873 1.6259309 214 193 168
0.06015944 -0.31217873 1.6259309 214 193 169
0.061785374 -0.31217873 1.6259309 206 186 162
0.0634113 -0.31217873 1.6259309 197 176 154
0.065037236 -0.31217873 1.6259309 193 172 151
0.066927 -0.31341425 1.632366 195 174 153
0.06855937 -0.31341425 1.632366 193 174 154
0.069915034 -0.31217873 1.6259309 190 172 151
0.0718241 -0.31341425 1.632366 184 167 147
0.073456466 -0.31341425 1.632366 177 160 142
0.075088836 -0.31341425 1.632366 172 154 137
0.07641876 -0.31217873 1.6259309 155 136 121
0.07892626 -0.31570503 1.6442969 147 129 115
0.08089305 -0.31696865 1.6508784 132 116 103
0.082543924 -0.31696865 1.6508784 133 114 98
0.08385914 -0.31570503 1.6442969 126 109 94
0.08584568 -0.31696865 1.6508784 126 111 95
0.087147735 -0.31570503 1.6442969 121 107 93
0.08879203 -0.31570503 1.6442969 116 101 94
0.08978013 -0.31341425 1.632366 102 88 88
0.09075398 -0.3111565 1.6206069 105 92 94
0.09165433 -0.30873033 1.6079706 99 86 90
0.092243366 -0.30535737 1.5904028 99 85 90
0.09317507 -0.3032138 1.5792385 99 87 89
0.093678236 -0.29977036 1.561304 98 86 86
0.09458313 -0.29770428 1.5505431 98 86 84
0.09435999 -0.29221156 1.5219352 104 94 93
0.09386153 -0.2860542 1.4898655 119 107 109
0.0950082 -0.28502458 1.4845031 138 125 126
0.09506699 -0.28081325 1.462569 143 130 131
0.09584977 -0.27883568 1.4522692 142 127 130
0.097302034 -0.27883568 1.4522692 144 129 131
0.0987543 -0.27883568 1.4522692 147 131 134
0.10020658 -0.27883568 1.4522692 148 132 134
0.10165884 -0.27883568 1.4522692 144 128 131
0.10311112 -0.27883568 1.4522692 142 127 129
0.104563385 -0.27883568 1.4522692 143 128 130
0.106015645 -0.27883568 1.4522692 144 127 129
0.10746792 -0.27883568 1.4522692 142 127 128
0.10892019 -0.27883568 1.4522692 145 129 131
0.11037246 -0.27883568 1.4522692 145 130 131
0.11182473 -0.27883568 1.4522692 144 128 130
0.113277 -0.27883568 1.4522692 143 127 129
0.11472926 -0.27883568 1.4522692 138 123 124
0.11659207 -0.27982098 1.4574009 136 122 123
0.11846808 -0.28081325 1.462569 140 124 126
0.119930655 -0.28081325 1.462569 142 127 127
0.121393226 -0.28081325 1.462569 143 126 127
0.1228558 -0.28081325 1.462569 143 127 128
0.12431837 -0.28081325 1.462569 139 124 127
0.12578094 -0.28081325 1.462569 141 125 129
0.1272435 -0.28081325 1.462569 139 124 128
0.12870607 -0.28081325 1.462569 142 123 129
0.13016865 -0.28081325 1.462569 141 123 128
0.13163121 -0.28081325 1.462569 137 120 123
0.13356742 -0.28181258 1.4677739 136 121 124
0.1350352 -0.28181258 1.4677739 138 123 126
0.13650298 -0.28181258 1.4677739 139 122 127
0.1384635 -0.28281906 1.4730159 137 122 127
0.1399365 -0.28281906 1.4730159 138 123 127
0.1420012 -0.2840024 1.4791791 139 122 126
0.14348038 -0.2840024 1.4791791 134 118 118
0.1454813 -0.28502458 1.4845031 127 110 110
0.14803141 -0.28709126 1.4952669 112 97 97
0.15007076 -0.28813583 1.5007075 99 84 83
0.15212499 -0.2891881 1.5061879 97 81 80
0.15363117 -0.2891881 1.5061879 101 86 83
0.15570597 -0.29024804 1.5117085 106 90 86
0.15828127 -0.29221156 1.5219352 137 117 109
0.16219725 -0.29658926 1.5447358 173 145 132
0.16739929 -0.3032138 1.5792385 197 160 148
0.17205286 -0.30873033 1.6079706 94 51 45
0.17502554 -0.3111565 1.6206069 113 61 52
0.17664614 -0.3111565 1.6206069 127 70 60
0.17885241 -0.31217873 1.6259309 145 82 67
0.18119262 -0.31341425 1.632366 147 89 72
0.18150796 -0.3111565 1.6206069 158 97 84
0.18312858 -0.3111565 1.6206069 163 105 90
0.18402609 -0.3099387 1.614264 162 121 107
0.18636979 -0.3111565 1.6206069 215 187 161
0.1879904 -0.3111565 1.6206069 220 192 168
0.189611 -0.3111565 1.6206069 219 192 170
0.19123161 -0.3111565 1.6206069 219 196 172
0.19285221 -0.3111565 1.6206069 214 191 169
0.19447282 -0.3111565 1.6206069 205 185 163
0.19609343 -0.3111565 1.6206069 210 187 166
0.19771403 -0.3111565 1.6206069 212 189 167
0.19933465 -0.3111565 1.6206069 182 160 143
0.20095526 -0.3111565 1.6206069 199 174 155
0.20257586 -0.3111565 1.6206069 195 170 152
0.20419647 -0.3111565 1.6206069 183 160 143
0.20649323 -0.31217873 1.6259309 206 184 164
0.20811915 -0.31217873 1.6259309 216 192 171
0.20974508 -0.31217873 1.6259309 216 193 172
0.21220757 -0.31341425 1.632366 212 189 168
0.21299694 -0.31217873 1.6259309 216 194 172
0.21462288 -0.31217873 1.6259309 216 194 172
0.21710467 -0.31341425 1.632366 214 192 171
0.21787474 -0.31217873 1.6259309 211 187 166
0.21950068 -0.31217873 1.6259309 214 189 169
0.22200178 -0.31341425 1.632366 217 192 174
0.22363414 -0.31341425 1.632366 224 200 182
0.2252665 -0.31341425 1.632366 218 195 177
0.22689886 -0.31341425 1.632366 212 192 172
0.22853124 -0.31341425 1.632366 206 184 165
0.2301636 -0.31341425 1.632366 201 180 160
0.23179597 -0.31341425 1.632366 213 191 169
0.23342833 -0.31341425 1.632366 218 194 171
-0.22990453 -0.30813593 1.5965592 180 157 132
-0.22830796 -0.30813593 1.5965592 177 158 139
-0.22671139 -0.30813593 1.5965592 183 160 139
-0.22511484 -0.30813593 1.5965592 183 161 143
-0.22351828 -0.30813593 1.5965592 186 164 146
-0.22192173 -0.30813593 1.5965592 183 161 143
-0.22032517 -0.30813593 1.5965592 184 164 143
-0.2187286 -0.30813593 1.5965592 187 165 144
-0.21797583 -0.30933335 1.6027634 189 166 146
-0.21637306 -0.30933335 1.6027634 187 167 146
-0.21477029 -0.30933335 1.6027634 190 171 149
-0.21316755 -0.30933335 1.6027634 190 170 146
-0.21156478 -0.30933335 1.6027634 187 167 144
-0.20996201 -0.30933335 1.6027634 190 166 142
-0.20835924 -0.30933335 1.6027634 186 167 143
-0.20675649 -0.30933335 1.6027634 185 165 142
-0.20515372 -0.30933335 1.6027634 183 163 142
-0.20355095 -0.30933335 1.6027634 191 168 148
-0.2026043 -0.31033832 1.6079706 189 168 148
-0.20099632 -0.31033832 1.6079706 192 171 150
-0.19938836 -0.31033832 1.6079706 191 170 148
-0.19778039 -0.31033832 1.6079706 190 171 147
-0.19617242 -0.31033832 1.6079706 184 166 143
-0.19456443 -0.31033832 1.6079706 185 165 143
-0.19295646 -0.31033832 1.6079706 185 166 140
-0.1913485 -0.31033832 1.6079706 191 168 149
-0.18974052 -0.31033832 1.6079706 182 162 141
-0.18813255 -0.31033832 1.6079706 178 157 134
-0.18652458 -0.31033832 1.6079706 179 157 140
-0.18491663 -0.31033832 1.6079706 180 159 138
-0.18330866 -0.31033832 1.6079706 182 159 137
-0.18170068 -0.31033832 1.6079706 187 161 140
-0.1800927 -0.31033832 1.6079706 183 161 139
-0.17848474 -0.31033832 1.6079706 181 159 140
-0.17687677 -0.31033832 1.6079706 187 167 146
-0.1752688 -0.31033832 1.6079706 194 171 148
-0.17366083 -0.31033832 1.6079706 194 170 148
-0.17205286 -0.31033832 1.6079706 187 167 146
-0.17044489 -0.31033832 1.6079706 187 166 144
-0.16883692 -0.31033832 1.6079706 187 165 143
-0.16722894 -0.31033832 1.6079706 186 163 141
-0.16562097 -0.31033832 1.6079706 182 159 141
-0.164013 -0.31033832 1.6079706 181 159 140
-0.16240503 -0.31033832 1.6079706 174 155 135
-0.16079706 -0.31033832 1.6079706 184 159 140
-0.15918909 -0.31033832 1.6079706 190 167 146
-0.15758112 -0.31033832 1.6079706 192 171 149
-0.15597315 -0.31033832 1.6079706 191 168 147
-0.15436517 -0.31033832 1.6079706 194 170 148
-0.1527572 -0.31033832 1.6079706 193 172 150
-0.15114923 -0.31033832 1.6079706 194 170 148
-0.14954126 -0.31033832 1.6079706 193 171 149
-0.14793329 -0.31033832 1.6079706 188 167 145
-0.14632532 -0.31033832 1.6079706 191 172 148
-0.14424871 -0.30933335 1.6027634 188 167 147
-0.14264596 -0.30933335 1.6027634 190 169 147
-0.14104319 -0.30933335 1.6027634 188 167 145
-0.13944042 -0.30933335 1.6027634 174 153 133
-0.13783765 -0.30933335 1.6027634 165 146 127
-0.1362349 -0.30933335 1.6027634 157 138 121
-0.13463213 -0.30933335 1.6027634 141 124 109
-0.13302936 -0.30933335 1.6027634 129 111 98
-0.1314266 -0.30933335 1.6027634 125 108 92
-0.12982383 -0.30933335 1.6027634 130 111 94
-0.12772474 -0.30813593 1.5965592 120 105 93
-0.12612817 -0.30813593 1.5965592 109 97 86
-0.12453162 -0.30813593 1.5965592 93 81 77
-0.12246102 -0.30694777 1.5904028 88 75 72
-0.119564325 -0.30363047 1.5732148 86 74 70
-0.11754275 -0.30247667 1.5672367 80 67 65
-0.11553649 -0.30133167 1.561304 76 65 60
-0.11361677 -0.3003841 1.5563942 77 66 59
-0.1116391 -0.29925483 1.5505431 76 63 56
-0.11050399 -0.3003841 1.5563942 76 64 56
-0.10853802 -0.29925483 1.5505431 89 78 69
-0.10658677 -0.298134 1.5447358 104 93 85
-0.10504203 -0.298134 1.5447358 102 92 87
-0.1034973 -0.298134 1.5447358 89 79 74
-0.10119455 -0.29591742 1.5332508 75 65 58
-0.09929218 -0.2948214 1.527572 77 65 57
-0.097403854 -0.29373348 1.5219352 99 86 79
-0.09623704 -0.2948214 1.527572 93 81 74
-0.09470946 -0.2948214 1.527572 96 83 77
-0.09283805 -0.29373348 1.5219352 80 66 60
-0.09131612 -0.29373348 1.5219352 73 60 53
-0.089518905 -0.29283303 1.5172696 89 78 71
-0.087679096 -0.29175973 1.5117085 101 91 84
-0.08616738 -0.29175973 1.5117085 96 85 78
-0.08465568 -0.29175973 1.5117085 106 94 89
-0.08284033 -0.29069427 1.5061879 90 78 73
-0.081334144 -0.29069427 1.5061879 78 65 59
-0.079537496 -0.28963652 1.5007075 78 66 60
-0.07803679 -0.28963652 1.5007075 80 69 64
-0.076258615 -0.28858653 1.4952669 82 70 66
-0.07476334 -0.28858653 1.4952669 85 72 68
-0.07326808 -0.28858653 1.4952669 85 72 69
-0.07151355 -0.28754404 1.4898655 85 72 68
-0.06952142 -0.28548157 1.4791791 80 69 64
-0.06775873 -0.28429207 1.4730159 82 69 65
-0.066285715 -0.28429207 1.4730159 85 74 71
-0.06508388 -0.28548157 1.4791791 85 74 71
-0.06333968 -0.28429207 1.4730159 87 76 71
-0.061866667 -0.28429207 1.4730159 93 81 79
-0.060393654 -0.28429207 1.4730159 88 76 73
-0.058920637 -0.28429207 1.4730159 88 75 74
-0.05744762 -0.28429207 1.4730159 92 80 79
-0.055974606 -0.28429207 1.4730159 89 75 75
-0.054501586 -0.28429207 1.4730159 96 83 82
-0.053028572 -0.28429207 1.4730159 94 83 82
-0.051372085 -0.28328037 1.4677739 96 82 83
-0.050082542 -0.28429207 1.4730159 93 80 82
-0.04881291 -0.28548157 1.4791791 97 85 86
-0.046968766 -0.28328037 1.4677739 98 86 88
-0.04550099 -0.28328037 1.4677739 103 88 89
-0.043877073 -0.28227583 1.462569 102 91 91
-0.0424145 -0.28227583 1.462569 107 96 96
-0.04095193 -0.28227583 1.462569 127 115 114
-0.039489366 -0.28227583 1.462569 141 125 126
-0.038026795 -0.28227583 1.462569 151 134 135
-0.036694348 -0.28328037 1.4677739 151 136 137
-0.035101656 -0.28227583 1.462569 150 133 134
-0.0337588 -0.28328037 1.4677739 152 136 137
-0.03229103 -0.28328037 1.4677739 153 135 137
-0.030823251 -0.28328037 1.4677739 151 134 136
-0.029355478 -0.28328037 1.4677739 148 132 133
-0.027987303 -0.28429207 1.4730159 148 133 134
-0.026514286 -0.28429207 1.4730159 145 132 133
-0.025041271 -0.28429207 1.4730159 149 134 135
-0.02375205 -0.2865091 1.4845031 147 132 133
-0.022187687 -0.28548157 1.4791791 143 129 130
-0.020708507 -0.28548157 1.4791791 143 126 128
-0.019229328 -0.28548157 1.4791791 136 121 123
-0.017814036 -0.2865091 1.4845031 134 120 121
-0.01638852 -0.28754404 1.4898655 131 116 117
-0.014952669 -0.28858653 1.4952669 118 104 105
-0.013457403 -0.28858653 1.4952669 111 98 99
-0.011962135 -0.28858653 1.4952669 108 95 97
-0.010504953 -0.28963652 1.5007075 107 94 96
-0.008971602 -0.28858653 1.4952669 107 94 95
-0.0074493275 -0.28754404 1.4898655 107 96 97
-0.0059810677 -0.28858653 1.4952669 113 100 101
-0.004582716 -0.2948214 1.527572 118 104 106
-0.0031464295 -0.30363047 1.5732148 178 159 148
-0.001614264 -0.31155294 1.614264 196 176 157
0.0 -0.31504664 1.632366 209 186 165
0.0016388522 -0.31629845 1.6388521 211 188 168
0.0032777044 -0.31629845 1.6388521 210 188 166
0.004916556 -0.31629845 1.6388521 206 186 163
0.0065554087 -0.31629845 1.6388521 195 176 153
0.00816183 -0.31504664 1.632366 198 177 157
0.009794195 -0.31504664 1.632366 205 186 165
0.0114265615 -0.31504664 1.632366 206 185 164
0.013058928 -0.31504664 1.632366 211 188 166
0.014691294 -0.31504664 1.632366 212 188 167
0.01632366 -0.31504664 1.632366 204 182 161
0.018027375 -0.31629845 1.6388521 213 191 169
0.019666225 -0.31629845 1.6388521 222 201 177
0.021220757 -0.31504664 1.632366 205 185 164
0.022853123 -0.31504664 1.632366 196 176 156
0.02448549 -0.31504664 1.632366 205 184 163
0.026117856 -0.31504664 1.632366 216 195 172
0.027750222 -0.31504664 1.632366 210 189 167
0.029266756 -0.31380466 1.6259309 202 180 161
0.030892687 -0.31380466 1.6259309 215 192 172
0.032518618 -0.31380466 1.6259309 223 201 178
0.03414455 -0.31380466 1.6259309 212 194 172
0.03577048 -0.31380466 1.6259309 213 190 170
0.03727396 -0.31277713 1.6206069 209 187 166
0.038894564 -0.31277713 1.6206069 218 194 173
0.04051517 -0.31277713 1.6206069 196 175 155
0.04213578 -0.31277713 1.6206069 213 192 169
0.043756384 -0.31277713 1.6206069 217 197 173
0.04537699 -0.31277713 1.6206069 219 201 176
0.0469976 -0.31277713 1.6206069 220 202 178
0.048618205 -0.31277713 1.6206069 219 200 176
0.050238814 -0.31277713 1.6206069 208 189 167
0.05185942 -0.31277713 1.6206069 207 186 164
0.05365572 -0.31380466 1.6259309 206 184 163
0.055100635 -0.31277713 1.6206069 208 187 164
0.05672124 -0.31277713 1.6206069 208 185 163
0.058533512 -0.31380466 1.6259309 203 182 160
