ply
format ascii 1.0
element vertex 1087
property float32 x
property float32 y
property float32 z
property uchar red
property uchar green
property uchar blue
element face 0
property list uint8 int32 vertex_indices
end_header
0.07379006 -0.2591651 1.7997576 38 30 35
0.07558982 -0.2591651 1.7997576 38 32 33
0.07738958 -0.2591651 1.7997576 38 31 34
0.07918933 -0.2591651 1.7997576 38 31 34
0.08098909 -0.2591651 1.7997576 39 31 34
0.082488894 -0.25822607 1.7932367 36 30 31
0.08428213 -0.25822607 1.7932367 39 32 33
0.086075366 -0.25822607 1.7932367 39 33 33
0.0878686 -0.25822607 1.7932367 44 37 38
0.08927369 -0.2571082 1.7854738 47 39 41
0.09105916 -0.2571082 1.7854738 48 41 42
0.092844635 -0.2571082 1.7854738 48 41 42
0.094630115 -0.2571082 1.7854738 48 41 41
0.09606902 -0.25618404 1.779056 50 42 43
0.09749761 -0.2552665 1.7726839 51 41 43
0.09891602 -0.25435546 1.7663574 51 41 42
0.09694571 -0.24491547 1.7008018 51 44 40
0.09505342 -0.23599471 1.6388521 110 101 94
0.093833774 -0.229018 1.5904028 86 73 64
0.09439288 -0.22654292 1.5732148 101 78 66
0.09560143 -0.22568208 1.5672367 140 101 85
0.09716867 -0.22568208 1.5672367 154 109 87
0.098362155 -0.22482778 1.561304 177 123 98
0.09960923 -0.22412077 1.5563942 193 135 110
0.10116563 -0.22412077 1.5563942 203 141 116
0.10233585 -0.2232782 1.5505431 208 143 120
0.10388638 -0.2232782 1.5505431 211 145 121
0.10543693 -0.2232782 1.5505431 213 146 122
0.10698747 -0.2232782 1.5505431 215 146 122
0.108131506 -0.22244196 1.5447358 216 146 122
0.10967624 -0.22244196 1.5447358 215 145 121
0.1116391 -0.2232782 1.5505431 216 147 122
0.113189645 -0.2232782 1.5505431 221 149 123
0.114740185 -0.2232782 1.5505431 220 149 124
0.11629073 -0.2232782 1.5505431 222 150 123
0.117399916 -0.22244196 1.5447358 218 147 121
0.11894466 -0.22244196 1.5447358 217 146 120
0.120489396 -0.22244196 1.5447358 217 145 119
0.122034125 -0.22244196 1.5447358 218 146 119
0.12404344 -0.2232782 1.5505431 215 144 112
0.12559399 -0.2232782 1.5505431 213 140 110
0.12714453 -0.2232782 1.5505431 216 141 113
0.12918073 -0.22412077 1.5563942 207 141 113
0.13073713 -0.22412077 1.5563942 197 136 116
0.13229351 -0.22412077 1.5563942 195 133 119
0.1338499 -0.22412077 1.5563942 158 109 98
0.1354063 -0.22412077 1.5563942 102 68 57
0.13739474 -0.22482778 1.561304 93 57 46
0.14001611 -0.22654292 1.5732148 82 55 45
0.14213146 -0.22741036 1.5792385 70 49 41
0.1437107 -0.22741036 1.5792385 117 95 91
0.15887602 -0.24867553 1.7269133 153 131 123
0.1712381 -0.26514286 1.8412699 201 184 166
0.17990616 -0.2756009 1.9138954 210 193 172
0.18182005 -0.2756009 1.9138954 213 192 172
0.18232387 -0.2734858 1.899207 216 193 173
0.18493272 -0.2745393 1.9065229 220 194 175
0.18612228 -0.2734858 1.899207 214 192 171
0.1880215 -0.2734858 1.899207 217 191 171
0.1899207 -0.2734858 1.899207 220 196 175
0.1918199 -0.2734858 1.899207 220 196 174
0.19446534 -0.2745393 1.9065229 209 189 167
0.19637185 -0.2745393 1.9065229 212 189 169
0.1967625 -0.27244037 1.891947 209 186 166
0.19865443 -0.27244037 1.891947 208 184 165
0.20054638 -0.27244037 1.891947 199 176 156
0.20243834 -0.27244037 1.891947 208 185 164
0.20511435 -0.2734858 1.899207 209 186 165
0.20622224 -0.27244037 1.891947 213 187 167
0.20811416 -0.27244037 1.891947 209 185 165
0.21081199 -0.2734858 1.899207 212 189 169
0.21189807 -0.27244037 1.891947 214 189 169
0.21379001 -0.27244037 1.891947 212 187 167
0.21568196 -0.27244037 1.891947 217 190 171
0.21757391 -0.27244037 1.891947 212 189 169
0.2186301 -0.2714029 1.8847424 213 190 171
0.22051486 -0.2714029 1.8847424 208 185 166
0.22239959 -0.2714029 1.8847424 210 187 167
0.22428435 -0.2714029 1.8847424 203 181 161
0.22616908 -0.2714029 1.8847424 212 187 168
0.22805384 -0.2714029 1.8847424 209 185 165
0.22906627 -0.27037328 1.8775923 215 189 168
0.23094386 -0.27037328 1.8775923 212 186 165
0.23282143 -0.27037328 1.8775923 205 180 159
0.23469904 -0.27037328 1.8775923 205 180 160
0.23657663 -0.27037328 1.8775923 208 185 163
0.23845422 -0.27037328 1.8775923 205 180 161
0.24033181 -0.27037328 1.8775923 208 184 165
0.2422094 -0.27037328 1.8775923 208 184 165
0.24408701 -0.27037328 1.8775923 209 185 168
0.24484996 -0.26914805 1.8690836 211 188 169
0.24671903 -0.26914805 1.8690836 213 190 173
0.24858811 -0.26914805 1.8690836 214 189 172
0.25045723 -0.26914805 1.8690836 211 188 172
0.25232628 -0.26914805 1.8690836 212 189 172
0.25419536 -0.26914805 1.8690836 214 190 173
0.25606444 -0.26914805 1.8690836 215 191 174
0.25696313 -0.26813543 1.8620517 220 194 177
0.25882518 -0.26813543 1.8620517 209 186 169
0.26068726 -0.26813543 1.8620517 209 186 170
0.26254928 -0.26813543 1.8620517 213 190 172
0.26441136 -0.26813543 1.8620517 209 188 171
0.2662734 -0.26813543 1.8620517 212 189 172
-0.26914805 -0.27101713 1.8690836 137 107 80
-0.26727897 -0.27101713 1.8690836 125 100 72
-0.26441136 -0.2699975 1.8620517 133 107 77
-0.26254928 -0.2699975 1.8620517 132 107 77
-0.26068726 -0.2699975 1.8620517 133 108 78
-0.25882518 -0.2699975 1.8620517 136 111 80
-0.25696313 -0.2699975 1.8620517 135 109 78
-0.25510108 -0.2699975 1.8620517 130 105 75
-0.25323904 -0.2699975 1.8620517 128 104 75
-0.251377 -0.2699975 1.8620517 136 109 80
-0.24951494 -0.2699975 1.8620517 131 107 78
-0.24765287 -0.2699975 1.8620517 135 110 81
-0.24486957 -0.2689855 1.8550725 131 106 78
-0.2430145 -0.2689855 1.8550725 130 105 77
-0.24115942 -0.2689855 1.8550725 132 107 79
-0.23930435 -0.2689855 1.8550725 132 105 77
-0.23744927 -0.2689855 1.8550725 131 105 77
-0.23559421 -0.2689855 1.8550725 127 103 75
-0.23373914 -0.2689855 1.8550725 131 106 77
-0.23188406 -0.2689855 1.8550725 130 103 75
-0.23002899 -0.2689855 1.8550725 127 102 72
-0.22817393 -0.2689855 1.8550725 122 98 69
-0.22631885 -0.2689855 1.8550725 125 100 72
-0.22446378 -0.2689855 1.8550725 124 102 76
-0.2226087 -0.2689855 1.8550725 128 108 89
-0.22075363 -0.2689855 1.8550725 155 134 113
-0.21889856 -0.2689855 1.8550725 165 145 121
-0.21704349 -0.2689855 1.8550725 171 150 128
-0.21518841 -0.2689855 1.8550725 170 150 129
-0.21333334 -0.2689855 1.8550725 170 150 129
-0.21147828 -0.2689855 1.8550725 173 152 131
-0.2096232 -0.2689855 1.8550725 174 153 133
-0.20776813 -0.2689855 1.8550725 172 153 133
-0.20591304 -0.2689855 1.8550725 166 148 130
-0.20405796 -0.2689855 1.8550725 168 149 130
-0.2022029 -0.2689855 1.8550725 171 152 133
-0.20034783 -0.2689855 1.8550725 169 150 130
-0.19849275 -0.2689855 1.8550725 165 148 129
-0.19663768 -0.2689855 1.8550725 165 149 129
-0.19478261 -0.2689855 1.8550725 169 150 132
-0.19292754 -0.2689855 1.8550725 169 149 132
-0.19179133 -0.2699975 1.8620517 168 150 131
-0.18992928 -0.2699975 1.8620517 169 151 130
-0.18736231 -0.2689855 1.8550725 171 152 130
-0.18620516 -0.2699975 1.8620517 166 147 126
-0.18434313 -0.2699975 1.8620517 158 141 117
-0.1817971 -0.2689855 1.8550725 159 139 116
-0.17994203 -0.2689855 1.8550725 154 134 111
-0.17875695 -0.2699975 1.8620517 151 132 110
-0.17689492 -0.2699975 1.8620517 151 131 111
-0.17437682 -0.2689855 1.8550725 147 128 107
-0.17252174 -0.2689855 1.8550725 144 125 105
-0.17130876 -0.2699975 1.8620517 145 127 107
-0.1694467 -0.2699975 1.8620517 146 129 110
-0.16695653 -0.2689855 1.8550725 147 130 111
-0.16510145 -0.2689855 1.8550725 144 125 105
-0.16324638 -0.2689855 1.8550725 138 120 100
-0.16139132 -0.2689855 1.8550725 137 118 98
-0.15894051 -0.2679811 1.8481455 137 119 99
-0.15709236 -0.2679811 1.8481455 138 120 100
-0.15582609 -0.2689855 1.8550725 135 117 98
-0.15339607 -0.2679811 1.8481455 136 116 97
-0.15154792 -0.2679811 1.8481455 137 117 99
-0.14969978 -0.2679811 1.8481455 141 122 103
-0.14785165 -0.2679811 1.8481455 142 123 104
-0.14546031 -0.26698413 1.8412699 137 119 100
-0.14308673 -0.26599458 1.8344454 133 115 98
-0.14021291 -0.26403728 1.8209468 139 119 101
-0.13628599 -0.26001933 1.7932367 129 113 97
-0.13144477 -0.25412655 1.7525969 97 85 80
-0.12779158 -0.25040242 1.7269133 87 76 73
-0.12553903 -0.24935837 1.7197129 86 74 72
-0.12381933 -0.24935837 1.7197129 82 69 67
-0.12209961 -0.24935837 1.7197129 78 67 64
-0.120379895 -0.24935837 1.7197129 76 66 62
-0.11776 -0.24746667 1.7066667 76 65 62
-0.11653555 -0.24849492 1.7137581 73 63 60
-0.11482179 -0.24849492 1.7137581 71 62 60
-0.11264 -0.24746667 1.7066667 74 64 62
-0.110552125 -0.24661627 1.7008018 70 61 58
-0.108404286 -0.24560347 1.693817 70 60 58
-0.10671047 -0.24560347 1.693817 67 58 55
-0.10465848 -0.2447658 1.68804 68 60 57
-0.10297044 -0.2447658 1.68804 67 59 57
-0.1012824 -0.2447658 1.68804 69 61 60
-0.09959436 -0.2447658 1.68804 67 59 59
-0.09790632 -0.2447658 1.68804 61 54 54
-0.09582609 -0.24376813 1.6811595 64 56 57
-0.094144925 -0.24376813 1.6811595 63 56 56
-0.09246378 -0.24376813 1.6811595 63 57 55
-0.09115416 -0.2447658 1.68804 61 53 51
-0.08879982 -0.2429429 1.6754683 59 51 47
-0.085503444 -0.23842305 1.6442969 66 60 56
-0.0820065 -0.23315573 1.6079706 132 129 117
-0.07926543 -0.22986975 1.5853087 148 145 131
-0.07792974 -0.23060842 1.5904028 145 138 127
-0.07609482 -0.22986975 1.5853087 132 125 115
-0.07450951 -0.22986975 1.5853087 109 100 89
-0.072924204 -0.22986975 1.5853087 61 47 40
-0.07106573 -0.22898959 1.5792385 62 39 28
-0.0694865 -0.22898959 1.5792385 111 74 52
-0.06790726 -0.22898959 1.5792385 127 83 55
-0.06632802 -0.22898959 1.5792385 136 88 58
-0.06450181 -0.22811614 1.5732148 144 93 61
-0.06245216 -0.22638907 1.561304 151 99 68
-0.060890853 -0.22638907 1.561304 156 101 74
-0.05932955 -0.22638907 1.561304 159 103 77
-0.057768244 -0.22638907 1.561304 159 103 76
-0.05603019 -0.22567715 1.5563942 157 102 76
-0.054473795 -0.22567715 1.5563942 157 101 76
-0.052917406 -0.22567715 1.5563942 157 101 75
-0.05136101 -0.22567715 1.5563942 157 101 76
-0.04961738 -0.22482875 1.5505431 156 102 77
-0.048066832 -0.22482875 1.5505431 159 102 73
-0.04651629 -0.22482875 1.5505431 158 101 71
-0.044965748 -0.22482875 1.5505431 154 99 70
-0.043415207 -0.22482875 1.5505431 157 100 71
-0.041864663 -0.22482875 1.5505431 152 99 71
-0.040314123 -0.22482875 1.5505431 153 100 72
-0.038763575 -0.22482875 1.5505431 156 102 75
-0.037213035 -0.22482875 1.5505431 156 104 78
-0.03566249 -0.22482875 1.5505431 157 105 81
-0.034111947 -0.22482875 1.5505431 159 107 82
-0.032561406 -0.22482875 1.5505431 162 110 84
-0.03101086 -0.22482875 1.5505431 165 112 85
-0.029460318 -0.22482875 1.5505431 164 110 83
-0.027909774 -0.22482875 1.5505431 161 109 86
-0.026359232 -0.22482875 1.5505431 160 107 84
-0.02480869 -0.22482875 1.5505431 155 102 80
-0.023345914 -0.22567715 1.5563942 152 96 74
-0.021707604 -0.22482875 1.5505431 140 88 71
-0.020233126 -0.22567715 1.5563942 126 81 66
-0.018676732 -0.22567715 1.5563942 116 76 63
-0.017239602 -0.22724931 1.5672367 95 60 48
-0.015792385 -0.22898959 1.5792385 93 76 66
-0.014633378 -0.23575997 1.6259309 115 101 93
-0.013653333 -0.24746667 1.7066667 90 76 69
-0.012746627 -0.26403728 1.8209468 78 63 55
-0.0111723095 -0.2699975 1.8620517 84 70 62
-0.009345418 -0.27101713 1.8690836 94 82 71
-0.007448207 -0.2699975 1.8620517 97 85 73
-0.0055861548 -0.2699975 1.8620517 100 86 74
-0.0037381672 -0.27101713 1.8690836 104 91 79
-0.0018690836 -0.27101713 1.8690836 103 90 81
0.0 -0.27101713 1.8690836 103 91 80
0.0018690836 -0.27101713 1.8690836 106 94 82
0.0037241036 -0.2699975 1.8620517 94 82 70
0.005607251 -0.27101713 1.8690836 96 84 73
0.0074763345 -0.27101713 1.8690836 96 84 73
0.009310259 -0.2699975 1.8620517 95 83 73
0.0111723095 -0.2699975 1.8620517 95 84 73
0.013034361 -0.2699975 1.8620517 93 82 71
0.014896414 -0.2699975 1.8620517 93 82 72
0.016821753 -0.27101713 1.8690836 87 74 66
0.018620517 -0.2699975 1.8620517 75 60 52
0.020405797 -0.2689855 1.8550725 74 58 51
0.022344619 -0.2699975 1.8620517 71 56 49
0.024206672 -0.2699975 1.8620517 70 56 49
0.025971016 -0.2689855 1.8550725 70 56 48
0.027826088 -0.2689855 1.8550725 71 56 50
0.029570328 -0.2679811 1.8481455 75 60 53
0.031536233 -0.2689855 1.8550725 76 62 54
0.033266615 -0.2679811 1.8481455 75 62 54
0.035114765 -0.2679811 1.8481455 75 63 55
0.03696291 -0.2679811 1.8481455 73 61 54
0.038811054 -0.2679811 1.8481455 72 59 53
0.040659204 -0.2679811 1.8481455 72 60 54
0.042507347 -0.2679811 1.8481455 71 58 52
0.044355493 -0.2679811 1.8481455 69 57 53
0.046203636 -0.2679811 1.8481455 69 58 51
0.047873016 -0.26698413 1.8412699 68 57 52
0.049714286 -0.26698413 1.8412699 62 52 49
0.05136447 -0.26599458 1.8344454 61 53 49
0.053198915 -0.26599458 1.8344454 60 51 48
0.05503336 -0.26599458 1.8344454 54 46 44
0.056657806 -0.26501232 1.8276712 53 43 43
0.058014166 -0.2628767 1.8129426 52 43 42
0.059827108 -0.2628767 1.8129426 46 35 37
0.06164005 -0.2628767 1.8129426 45 33 35
0.06322142 -0.2619173 1.8063262 44 32 35
0.06502774 -0.2619173 1.8063262 43 35 35
0.06683407 -0.2619173 1.8063262 44 37 38
0.068640396 -0.2619173 1.8063262 48 39 40
0.070446715 -0.2619173 1.8063262 39 33 36
0.0719903 -0.26096484 1.7997576 37 30 31
0.07379006 -0.26096484 1.7997576 38 31 35
0.07558982 -0.26096484 1.7997576 38 31 35
0.07738958 -0.26096484 1.7997576 38 31 35
0.07918933 -0.26096484 1.7997576 37 31 34
0.08098909 -0.26096484 1.7997576 37 32 35
0.082488894 -0.26001933 1.7932367 37 31 34
0.08428213 -0.26001933 1.7932367 38 32 35
0.086075366 -0.26001933 1.7932367 40 33 36
0.0878686 -0.26001933 1.7932367 44 37 40
0.08927369 -0.2588937 1.7854738 46 39 41
0.09105916 -0.2588937 1.7854738 49 41 44
0.092844635 -0.2588937 1.7854738 50 41 44
0.094630115 -0.2588937 1.7854738 50 42 44
0.09606902 -0.2579631 1.779056 49 41 43
0.09784807 -0.2579631 1.779056 50 42 43
0.09962714 -0.2579631 1.779056 50 42 42
0.099125795 -0.2521621 1.739049 50 43 39
0.096783996 -0.24195999 1.6686896 76 67 60
0.093833774 -0.23060842 1.5904028 104 92 83
0.09439288 -0.22811614 1.5732148 109 87 70
0.09560143 -0.22724931 1.5672367 145 104 85
0.09680085 -0.22638907 1.561304 169 119 95
0.09805284 -0.22567715 1.5563942 194 134 109
0.09923476 -0.22482875 1.5505431 203 139 114
0.1007853 -0.22482875 1.5505431 205 141 114
0.10233585 -0.22482875 1.5505431 210 146 119
0.10388638 -0.22482875 1.5505431 212 146 121
0.10543693 -0.22482875 1.5505431 214 148 123
0.10698747 -0.22482875 1.5505431 214 149 123
0.108131506 -0.2239867 1.5447358 217 148 122
0.10967624 -0.2239867 1.5447358 217 149 123
0.11122098 -0.2239867 1.5447358 219 151 123
0.11276571 -0.2239867 1.5447358 222 150 124
0.11431045 -0.2239867 1.5447358 220 149 124
0.11585519 -0.2239867 1.5447358 220 149 123
0.117399916 -0.2239867 1.5447358 220 150 125
0.11894466 -0.2239867 1.5447358 218 148 123
0.120489396 -0.2239867 1.5447358 216 146 121
0.122034125 -0.2239867 1.5447358 216 144 119
0.12404344 -0.22482875 1.5505431 215 143 116
0.12559399 -0.22482875 1.5505431 216 144 116
0.12714453 -0.22482875 1.5505431 211 142 117
0.12869507 -0.22482875 1.5505431 209 142 117
0.13024563 -0.22482875 1.5505431 208 140 118
0.13179615 -0.22482875 1.5505431 201 136 116
0.1333467 -0.22482875 1.5505431 198 139 116
0.1354063 -0.22567715 1.5563942 197 138 115
0.13739474 -0.22638907 1.561304 148 104 92
0.13948406 -0.22724931 1.5672367 86 59 45
0.14158933 -0.22811614 1.5732148 63 43 32
0.1437107 -0.22898959 1.5792385 96 75 66
0.15466668 -0.24376813 1.6811595 128 110 100
0.16798833 -0.2619173 1.8063262 189 170 159
0.17921315 -0.27644584 1.9065229 212 192 174
0.18111968 -0.27644584 1.9065229 216 192 172
0.18373396 -0.27751485 1.9138954 212 190 171
0.18493272 -0.27644584 1.9065229 214 191 171
0.18612228 -0.27538502 1.899207 214 190 170
0.1880215 -0.27538502 1.899207 210 189 170
0.1899207 -0.27538502 1.899207 219 195 176
0.1918199 -0.27538502 1.899207 216 195 174
0.19297859 -0.2743323 1.891947 208 188 166
0.19487055 -0.2743323 1.891947 215 193 171
0.19601321 -0.27328765 1.8847424 217 196 172
0.19789796 -0.27328765 1.8847424 210 187 166
0.1997827 -0.27328765 1.8847424 198 176 158
0.20243834 -0.2743323 1.891947 205 185 164
0.20433028 -0.2743323 1.891947 209 185 165
0.20622224 -0.2743323 1.891947 210 184 165
0.20732166 -0.27328765 1.8847424 210 187 167
0.2092064 -0.27328765 1.8847424 214 189 169
0.21109115 -0.27328765 1.8847424 213 190 168
0.21297589 -0.27328765 1.8847424 207 184 165
0.21486063 -0.27328765 1.8847424 210 187 168
0.21674538 -0.27328765 1.8847424 216 191 172
0.2186301 -0.27328765 1.8847424 213 191 171
0.2196783 -0.2722509 1.8775923 211 188 169
0.22155589 -0.2722509 1.8775923 218 194 173
0.22343348 -0.2722509 1.8775923 209 183 165
0.22531109 -0.2722509 1.8775923 209 186 166
0.22718868 -0.2722509 1.8775923 212 188 167
0.22906627 -0.2722509 1.8775923 208 184 164
0.23094386 -0.2722509 1.8775923 212 187 166
0.23176637 -0.27101713 1.8690836 203 178 157
0.23363546 -0.27101713 1.8690836 208 183 162
0.23550454 -0.27101713 1.8690836 204 179 159
0.23737362 -0.27101713 1.8690836 207 181 161
0.2392427 -0.27101713 1.8690836 208 183 163
0.24111179 -0.27101713 1.8690836 208 184 164
0.24298088 -0.27101713 1.8690836 207 182 163
0.24484996 -0.27101713 1.8690836 207 184 165
0.24671903 -0.27101713 1.8690836 208 185 165
0.24765287 -0.2699975 1.8620517 209 186 169
0.24951494 -0.2699975 1.8620517 213 190 172
0.251377 -0.2699975 1.8620517 214 190 171
0.25323904 -0.2699975 1.8620517 218 191 174
0.25510108 -0.2699975 1.8620517 211 187 170
0.25696313 -0.2699975 1.8620517 200 176 161
0.25882518 -0.2699975 1.8620517 201 179 162
0.25971013 -0.2689855 1.8550725 214 191 174
0.2615652 -0.2689855 1.8550725 214 190 174
0.26342028 -0.2689855 1.8550725 213 189 173
0.26527536 -0.2689855 1.8550725 208 185 169
-0.26813543 -0.27185956 1.8620517 127 100 73
-0.2662734 -0.27185956 1.8620517 130 104 75
-0.26441136 -0.27185956 1.8620517 136 111 80
-0.26254928 -0.27185956 1.8620517 135 109 79
-0.26068726 -0.27185956 1.8620517 134 109 79
-0.25882518 -0.27185956 1.8620517 135 110 79
-0.25696313 -0.27185956 1.8620517 134 107 77
-0.25510108 -0.27185956 1.8620517 127 102 74
-0.25228986 -0.2708406 1.8550725 133 108 78
-0.2504348 -0.2708406 1.8550725 131 107 78
-0.24857971 -0.2708406 1.8550725 141 113 83
-0.24672464 -0.2708406 1.8550725 136 109 81
-0.24486957 -0.2708406 1.8550725 132 107 78
-0.2430145 -0.2708406 1.8550725 128 104 76
-0.24115942 -0.2708406 1.8550725 130 105 77
-0.23930435 -0.2708406 1.8550725 129 104 76
-0.23744927 -0.2708406 1.8550725 127 102 75
-0.23559421 -0.2708406 1.8550725 129 103 75
-0.23373914 -0.2708406 1.8550725 127 101 74
-0.23188406 -0.2708406 1.8550725 126 101 73
-0.23002899 -0.2708406 1.8550725 123 98 70
-0.22817393 -0.2708406 1.8550725 125 99 70
-0.22631885 -0.2708406 1.8550725 118 95 66
-0.22446378 -0.2708406 1.8550725 126 102 77
-0.2226087 -0.2708406 1.8550725 143 118 98
-0.21992931 -0.26982924 1.8481455 168 147 126
-0.21808116 -0.26982924 1.8481455 169 151 130
-0.21623302 -0.26982924 1.8481455 167 151 128
-0.21438487 -0.26982924 1.8481455 168 149 128
-0.21253672 -0.26982924 1.8481455 169 149 129
-0.21068858 -0.26982924 1.8481455 173 152 132
-0.20884044 -0.26982924 1.8481455 173 152 133
-0.20776813 -0.2708406 1.8550725 170 151 130
-0.20591304 -0.2708406 1.8550725 168 149 130
-0.203296 -0.26982924 1.8481455 168 149 132
-0.20144786 -0.26982924 1.8481455 169 151 132
-0.19959971 -0.26982924 1.8481455 168 150 131
-0.19775157 -0.26982924 1.8481455 167 148 128
-0.19590342 -0.26982924 1.8481455 165 147 128
-0.19405529 -0.26982924 1.8481455 169 150 131
-0.19292754 -0.2708406 1.8550725 171 152 132
-0.19035898 -0.26982924 1.8481455 174 153 132
-0.18921739 -0.2708406 1.8550725 169 149 128
-0.18736231 -0.2708406 1.8550725 168 148 126
-0.18550725 -0.2708406 1.8550725 163 143 122
-0.18365218 -0.2708406 1.8550725 158 139 116
-0.1817971 -0.2708406 1.8550725 152 134 113
-0.17994203 -0.2708406 1.8550725 146 128 107
-0.17875695 -0.27185956 1.8620517 149 130 108
-0.17623189 -0.2708406 1.8550725 147 129 109
-0.17437682 -0.2708406 1.8550725 144 128 107
-0.17252174 -0.2708406 1.8550725 141 124 104
-0.17002939 -0.26982924 1.8481455 144 126 106
-0.16818124 -0.26982924 1.8481455 148 129 109
-0.16695653 -0.2708406 1.8550725 147 129 108
-0.16510145 -0.2708406 1.8550725 141 123 103
-0.16263682 -0.26982924 1.8481455 145 124 105
-0.16078866 -0.26982924 1.8481455 136 118 100
-0.15894051 -0.26982924 1.8481455 139 120 99
-0.15709236 -0.26982924 1.8481455 136 117 98
-0.15466668 -0.2688254 1.8412699 132 115 96
-0.15339607 -0.26982924 1.8481455 133 114 93
-0.15154792 -0.26982924 1.8481455 144 123 104
-0.14969978 -0.26982924 1.8481455 134 117 98
-0.14785165 -0.26982924 1.8481455 133 116 98
-0.14492118 -0.267829 1.8344454 137 119 100
-0.14308673 -0.267829 1.8344454 133 116 99
-0.14021291 -0.26585823 1.8209468 137 118 100
-0.13628599 -0.26181257 1.7932367 134 116 99
-0.13144477 -0.25587913 1.7525969 99 86 80
-0.12823904 -0.25301215 1.7329599 88 76 74
-0.12510434 -0.25020868 1.7137581 86 74 72
-0.12381933 -0.25107807 1.7197129 83 71 68
-0.12209961 -0.25107807 1.7197129 79 68 65
-0.119963065 -0.25020868 1.7137581 78 67 64
-0.11824931 -0.25020868 1.7137581 77 68 65
-0.11653555 -0.25020868 1.7137581 74 64 62
-0.11482179 -0.25020868 1.7137581 74 65 63
-0.11264 -0.24917334 1.7066667 71 61 59
-0.110552125 -0.24831708 1.7008018 70 60 57
-0.108404286 -0.24729729 1.693817 67 58 55
-0.10634652 -0.24645384 1.68804 68 60 56
-0.10465848 -0.24645384 1.68804 64 56 54
-0.10297044 -0.24645384 1.68804 65 58 55
-0.1012824 -0.24645384 1.68804 64 56 55
-0.09959436 -0.24645384 1.68804 63 56 56
-0.097507246 -0.24544927 1.6811595 70 62 63
-0.09582609 -0.24544927 1.6811595 63 55 56
-0.094144925 -0.24544927 1.6811595 61 53 52
-0.09246378 -0.24544927 1.6811595 62 55 54
-0.09078261 -0.24544927 1.6811595 63 54 52
-0.08879982 -0.24461837 1.6754683 61 53 50
-0.085503444 -0.24006735 1.6442969 63 58 54
-0.0820065 -0.2347637 1.6079706 138 134 120
-0.07926543 -0.23145506 1.5853087 146 139 125
-0.07792974 -0.23219882 1.5904028 136 121 108
-0.07609482 -0.23145506 1.5853087 100 88 78
-0.07450951 -0.23145506 1.5853087 50 36 31
-0.072924204 -0.23145506 1.5853087 45 35 28
-0.07106573 -0.23056883 1.5792385 57 40 30
-0.0694865 -0.23056883 1.5792385 120 85 63
-0.06790726 -0.23056883 1.5792385 136 92 62
-0.06632802 -0.23056883 1.5792385 151 99 66
-0.06450181 -0.22968936 1.5732148 156 103 67
-0.06245216 -0.22795038 1.561304 161 106 72
-0.060890853 -0.22795038 1.561304 162 106 76
-0.05932955 -0.22795038 1.561304 163 107 78
-0.057768244 -0.22795038 1.561304 162 105 77
-0.05603019 -0.22723354 1.5563942 160 104 76
-0.054473795 -0.22723354 1.5563942 161 103 77
-0.052917406 -0.22723354 1.5563942 160 103 77
-0.05136101 -0.22723354 1.5563942 162 102 77
-0.04961738 -0.22637929 1.5505431 160 102 79
-0.048066832 -0.22637929 1.5505431 160 102 73
-0.04651629 -0.22637929 1.5505431 159 102 74
-0.044965748 -0.22637929 1.5505431 159 102 75
-0.043252602 -0.22553141 1.5447358 160 102 75
-0.041707866 -0.22553141 1.5447358 163 107 80
-0.040163133 -0.22553141 1.5447358 166 110 84
-0.038618393 -0.22553141 1.5447358 169 113 87
-0.037073657 -0.22553141 1.5447358 174 117 92
-0.035528924 -0.22553141 1.5447358 176 119 95
-0.033984188 -0.22553141 1.5447358 178 120 95
-0.03243945 -0.22553141 1.5447358 179 122 97
-0.030894715 -0.22553141 1.5447358 182 123 99
-0.029349979 -0.22553141 1.5447358 181 123 99
-0.027805245 -0.22553141 1.5447358 179 124 98
-0.026260508 -0.22553141 1.5447358 178 121 97
-0.02480869 -0.22637929 1.5505431 177 119 95
-0.023258146 -0.22637929 1.5505431 174 116 92
-0.021707604 -0.22637929 1.5505431 166 108 89
-0.020233126 -0.22723354 1.5563942 151 101 84
-0.018606517 -0.22637929 1.5505431 127 85 72
-0.017120337 -0.22723354 1.5563942 109 74 63
-0.015853086 -0.23145506 1.5853087 104 84 75
-0.014967742 -0.24281004 1.6630825 109 95 87
-0.014070599 -0.25678846 1.758825 78 63 54
-0.012793698 -0.26684 1.8276712 87 72 63
-0.011130435 -0.2708406 1.8550725 89 74 65
-0.009345418 -0.2728862 1.8690836 98 85 74
-0.007448207 -0.27185956 1.8620517 98 87 75
-0.0055861548 -0.27185956 1.8620517 100 87 73
-0.0037241036 -0.27185956 1.8620517 105 92 78
-0.0018620518 -0.27185956 1.8620517 108 94 85
0.0 -0.2728862 1.8690836 106 93 83
0.0018620518 -0.27185956 1.8620517 105 93 83
0.0037241036 -0.27185956 1.8620517 104 91 81
0.0055861548 -0.27185956 1.8620517 100 89 78
0.007448207 -0.27185956 1.8620517 99 88 77
0.009310259 -0.27185956 1.8620517 98 86 76
0.0111723095 -0.27185956 1.8620517 97 84 74
0.013034361 -0.27185956 1.8620517 97 86 75
0.014896414 -0.27185956 1.8620517 94 82 73
0.016695652 -0.2708406 1.8550725 81 69 61
0.018550724 -0.2708406 1.8550725 76 60 53
0.020405797 -0.2708406 1.8550725 74 58 51
0.022344619 -0.27185956 1.8620517 73 58 52
0.024206672 -0.27185956 1.8620517 73 60 51
0.025971016 -0.2708406 1.8550725 73 59 51
0.027826088 -0.2708406 1.8550725 72 58 51
0.029570328 -0.26982924 1.8481455 75 62 55
0.031418473 -0.26982924 1.8481455 76 63 56
0.033266615 -0.26982924 1.8481455 76 64 55
0.034984127 -0.2688254 1.8412699 76 63 55
0.03696291 -0.26982924 1.8481455 75 63 55
0.038811054 -0.26982924 1.8481455 73 61 53
0.040659204 -0.26982924 1.8481455 74 62 54
0.042349204 -0.2688254 1.8412699 73 61 53
0.044355493 -0.26982924 1.8481455 70 58 52
0.046031747 -0.2688254 1.8412699 69 57 48
0.047873016 -0.2688254 1.8412699 68 57 50
0.049530026 -0.267829 1.8344454 65 53 48
0.05136447 -0.267829 1.8344454 62 50 44
0.053198915 -0.267829 1.8344454 61 52 47
0.054830134 -0.26684 1.8276712 60 51 47
0.056657806 -0.26684 1.8276712 57 48 47
0.058014166 -0.26468962 1.8129426 56 46 46
0.059827108 -0.26468962 1.8129426 49 39 40
0.06164005 -0.26468962 1.8129426 46 36 35
0.06322142 -0.26372364 1.8063262 44 33 34
0.06502774 -0.26372364 1.8063262 41 33 34
0.06683407 -0.26372364 1.8063262 47 40 39
0.068640396 -0.26372364 1.8063262 44 37 38
0.070446715 -0.26372364 1.8063262 36 32 33
0.0719903 -0.26276463 1.7997576 38 31 34
0.07379006 -0.26276463 1.7997576 37 30 34
0.07558982 -0.26276463 1.7997576 38 31 34
0.07738958 -0.26276463 1.7997576 38 32 35
0.07918933 -0.26276463 1.7997576 38 31 35
0.08098909 -0.26276463 1.7997576 37 31 34
0.082488894 -0.26181257 1.7932367 36 30 33
0.08428213 -0.26181257 1.7932367 37 32 34
0.086075366 -0.26181257 1.7932367 40 33 36
0.08748822 -0.26067916 1.7854738 43 37 39
0.08927369 -0.26067916 1.7854738 47 40 43
0.09105916 -0.26067916 1.7854738 49 41 44
0.092844635 -0.26067916 1.7854738 50 42 44
0.094630115 -0.26067916 1.7854738 50 42 45
0.09641559 -0.26067916 1.7854738 49 42 44
0.09784807 -0.25974217 1.779056 50 43 43
0.09962714 -0.25974217 1.779056 50 42 43
0.10025302 -0.25678846 1.758825 51 44 41
0.09864651 -0.24831708 1.7008018 53 45 37
0.094563045 -0.23400347 1.6027634 83 75 67
0.0940342 -0.22881655 1.5672367 127 100 83
0.09523954 -0.22795038 1.561304 157 111 91
0.09649645 -0.22723354 1.5563942 182 126 103
0.09768421 -0.22637929 1.5505431 197 138 112
0.09886309 -0.22553141 1.5447358 201 140 115
0.10040783 -0.22553141 1.5447358 205 142 115
0.10233585 -0.22637929 1.5505431 211 145 118
0.1034973 -0.22553141 1.5447358 212 147 120
0.10504203 -0.22553141 1.5447358 215 147 122
0.10658677 -0.22553141 1.5447358 215 147 122
0.108131506 -0.22553141 1.5447358 215 147 122
0.10967624 -0.22553141 1.5447358 218 149 123
0.11122098 -0.22553141 1.5447358 218 150 124
0.11276571 -0.22553141 1.5447358 220 150 125
0.11431045 -0.22553141 1.5447358 220 150 124
0.11585519 -0.22553141 1.5447358 219 150 124
0.117399916 -0.22553141 1.5447358 220 150 126
0.11894466 -0.22553141 1.5447358 218 149 124
0.12003981 -0.2246899 1.5389719 219 148 121
0.12157878 -0.2246899 1.5389719 217 145 118
0.12357886 -0.22553141 1.5447358 214 143 117
0.12559399 -0.22637929 1.5505431 216 144 116
0.12714453 -0.22637929 1.5505431 214 143 118
0.12918073 -0.22723354 1.5563942 211 142 117
0.13073713 -0.22723354 1.5563942 207 139 115
0.13229351 -0.22723354 1.5563942 210 138 117
0.1338499 -0.22723354 1.5563942 206 138 116
0.1354063 -0.22723354 1.5563942 198 138 114
0.1369627 -0.22723354 1.5563942 197 138 117
0.1385191 -0.22723354 1.5563942 176 126 110
0.1410513 -0.22881655 1.5672367 73 45 36
0.14316253 -0.22968936 1.5732148 85 61 53
0.15188082 -0.24102825 1.6508784 117 98 90
0.16485961 -0.25881183 1.7726839 185 162 149
0.17921315 -0.27835232 1.9065229 208 187 170
0.18111968 -0.27835232 1.9065229 213 193 172
0.18373396 -0.27942872 1.9138954 217 196 176
0.18493272 -0.27835232 1.9065229 212 191 171
0.18612228 -0.2772842 1.899207 217 193 173
0.1880215 -0.2772842 1.899207 211 188 170
0.18919471 -0.2762243 1.891947 217 193 175
0.19108665 -0.2762243 1.891947 217 194 174
0.19297859 -0.2762243 1.891947 215 194 172
0.19339201 -0.27412847 1.8775923 214 191 169
0.19526961 -0.27412847 1.8775923 220 195 173
0.1971472 -0.27412847 1.8775923 208 184 162
0.19902478 -0.27412847 1.8775923 205 185 164
0.20166743 -0.27517238 1.8847424 205 182 161
0.20355217 -0.27517238 1.8847424 209 185 164
0.20543692 -0.27517238 1.8847424 210 185 165
0.20653516 -0.27412847 1.8775923 210 189 168
0.20746827 -0.2728862 1.8690836 205 182 163
0.21029034 -0.27412847 1.8775923 208 185 165
0.21216793 -0.27412847 1.8775923 214 190 170
0.21404554 -0.27412847 1.8775923 210 184 165
0.21592312 -0.27412847 1.8775923 209 184 166
0.2178007 -0.27412847 1.8775923 210 187 168
0.2196783 -0.27412847 1.8775923 207 184 166
0.22155589 -0.27412847 1.8775923 214 190 169
0.22242096 -0.2728862 1.8690836 211 188 168
0.22429004 -0.2728862 1.8690836 208 184 164
0.22615913 -0.2728862 1.8690836 211 188 167
0.2280282 -0.2728862 1.8690836 212 186 166
0.22989729 -0.2728862 1.8690836 209 186 165
0.23176637 -0.2728862 1.8690836 202 178 158
0.23275647 -0.27185956 1.8620517 203 181 159
0.23461851 -0.27185956 1.8620517 206 183 161
0.23648058 -0.27185956 1.8620517 203 178 159
0.23834263 -0.27185956 1.8620517 205 180 162
0.24020466 -0.27185956 1.8620517 207 182 165
0.24206673 -0.27185956 1.8620517 211 186 168
0.24392878 -0.27185956 1.8620517 206 183 165
0.24579084 -0.27185956 1.8620517 207 181 165
0.24765287 -0.27185956 1.8620517 211 188 168
0.24951494 -0.27185956 1.8620517 214 190 171
0.251377 -0.27185956 1.8620517 210 189 170
0.25228986 -0.2708406 1.8550725 213 190 172
0.25414494 -0.2708406 1.8550725 216 191 174
0.256 -0.2708406 1.8550725 205 180 165
0.25785506 -0.2708406 1.8550725 209 187 169
0.25971013 -0.2708406 1.8550725 213 190 174
0.2615652 -0.2708406 1.8550725 212 189 173
0.26342028 -0.2708406 1.8550725 215 189 173
0.26527536 -0.2708406 1.8550725 206 183 168
-0.26713043 -0.27269566 1.8550725 130 103 74
-0.26527536 -0.27269566 1.8550725 133 105 76
-0.26342028 -0.27269566 1.8550725 132 106 76
-0.2615652 -0.27269566 1.8550725 132 106 76
-0.25971013 -0.27269566 1.8550725 126 102 72
-0.25785506 -0.27269566 1.8550725 128 104 74
-0.256 -0.27269566 1.8550725 142 113 82
-0.25414494 -0.27269566 1.8550725 131 105 76
-0.25228986 -0.27269566 1.8550725 135 108 79
-0.24949963 -0.2716774 1.8481455 132 105 78
-0.24765149 -0.2716774 1.8481455 135 108 80
-0.24580334 -0.2716774 1.8481455 138 111 82
-0.2439552 -0.2716774 1.8481455 140 113 83
-0.24210705 -0.2716774 1.8481455 133 107 79
-0.24025892 -0.2716774 1.8481455 131 106 78
-0.23841077 -0.2716774 1.8481455 134 108 79
-0.23656262 -0.2716774 1.8481455 131 105 77
-0.23471448 -0.2716774 1.8481455 124 100 72
-0.23286633 -0.2716774 1.8481455 125 101 74
-0.23101819 -0.2716774 1.8481455 125 101 73
-0.22917004 -0.2716774 1.8481455 121 97 69
-0.2273219 -0.2716774 1.8481455 119 96 68
-0.22547376 -0.2716774 1.8481455 119 96 70
-0.22362562 -0.2716774 1.8481455 119 96 73
-0.22177747 -0.2716774 1.8481455 119 101 83
-0.21992931 -0.2716774 1.8481455 148 128 110
-0.21808116 -0.2716774 1.8481455 167 147 131
-0.21623302 -0.2716774 1.8481455 166 148 126
-0.2135873 -0.27066666 1.8412699 168 148 129
-0.21174604 -0.27066666 1.8412699 169 150 129
-0.20990478 -0.27066666 1.8412699 172 151 131
-0.2080635 -0.27066666 1.8412699 170 151 130
-0.2069923 -0.2716774 1.8481455 169 150 130
-0.20438094 -0.27066666 1.8412699 170 152 133
-0.203296 -0.2716774 1.8481455 169 151 133
-0.20144786 -0.2716774 1.8481455 168 149 131
-0.19885714 -0.27066666 1.8412699 167 149 129
-0.19775157 -0.2716774 1.8481455 167 150 129
-0.19590342 -0.2716774 1.8481455 162 145 125
-0.19333333 -0.27066666 1.8412699 147 131 113
-0.19220713 -0.2716774 1.8481455 163 144 125
-0.19035898 -0.2716774 1.8481455 166 148 128
-0.18851084 -0.2716774 1.8481455 163 145 125
-0.18666269 -0.2716774 1.8481455 163 144 123
-0.18481454 -0.2716774 1.8481455 157 137 117
-0.18365218 -0.27269566 1.8550725 154 135 115
-0.18111825 -0.2716774 1.8481455 145 127 107
-0.17927012 -0.2716774 1.8481455 141 122 103
-0.17742197 -0.2716774 1.8481455 149 128 106
-0.17623189 -0.27269566 1.8550725 148 129 108
-0.17372568 -0.2716774 1.8481455 148 128 107
-0.17187753 -0.2716774 1.8481455 142 124 104
-0.17002939 -0.2716774 1.8481455 148 130 109
-0.16755556 -0.27066666 1.8412699 149 129 109
-0.1663331 -0.2716774 1.8481455 147 128 109
-0.16448495 -0.2716774 1.8481455 140 122 103
-0.16263682 -0.2716774 1.8481455 139 120 102
-0.16019048 -0.27066666 1.8412699 135 119 100
-0.15834922 -0.27066666 1.8412699 136 117 99
-0.15650794 -0.27066666 1.8412699 133 114 96
-0.15466668 -0.27066666 1.8412699 133 114 96
-0.1528254 -0.27066666 1.8412699 131 112 91
-0.15098414 -0.27066666 1.8412699 132 114 95
-0.14914285 -0.27066666 1.8412699 137 116 98
-0.14730158 -0.27066666 1.8412699 131 115 99
-0.14438602 -0.26866767 1.8276712 132 115 98
-0.14255835 -0.26866767 1.8276712 132 116 98
-0.14021291 -0.26767915 1.8209468 134 116 99
-0.13628599 -0.2636058 1.7932367 132 114 97
-0.13191186 -0.25854728 1.758825 104 92 84
-0.12823904 -0.2547451 1.7329599 89 78 75
-0.12553903 -0.25279778 1.7197129 84 73 72
-0.123390585 -0.25192243 1.7137581 81 70 67
-0.12209961 -0.25279778 1.7197129 80 68 65
-0.120379895 -0.25279778 1.7197129 78 68 65
-0.11824931 -0.25192243 1.7137581 73 63 61
-0.116053335 -0.25088 1.7066667 72 62 61
-0.114346676 -0.25088 1.7066667 73 64 61
-0.11225292 -0.25001788 1.7008018 72 62 60
-0.11009811 -0.2489911 1.693817 71 62 60
-0.10803456 -0.24814187 1.68804 71 62 60
-0.10634652 -0.24814187 1.68804 68 60 58
-0.10465848 -0.24814187 1.68804 67 59 57
-0.10297044 -0.24814187 1.68804 67 58 56
-0.1012824 -0.24814187 1.68804 66 58 56
-0.09918841 -0.24713045 1.6811595 62 54 54
-0.097507246 -0.24713045 1.6811595 63 56 56
-0.09582609 -0.24713045 1.6811595 65 56 57
-0.09382623 -0.24629384 1.6754683 64 56 56
-0.092150755 -0.24629384 1.6754683 65 57 56
-0.09078261 -0.24713045 1.6811595 64 56 54
-0.08844055 -0.24529737 1.6686896 62 54 52
-0.08584568 -0.24267912 1.6508784 67 61 57
-0.08232746 -0.23729682 1.614264 139 132 120
-0.07952014 -0.23378922 1.5904028 135 126 114
-0.0782314 -0.2346942 1.5965592 102 90 84
-0.07633934 -0.23378922 1.5904028 57 43 39
-0.07474893 -0.23378922 1.5904028 52 41 35
-0.072924204 -0.23304038 1.5853087 48 39 32
-0.07133889 -0.23304038 1.5853087 58 44 33
-0.0694865 -0.23214807 1.5792385 130 93 71
-0.06764823 -0.23126258 1.5732148 153 102 72
-0.06607502 -0.23126258 1.5732148 162 107 75
-0.06450181 -0.23126258 1.5732148 165 109 76
-0.06245216 -0.2295117 1.561304 166 110 77
-0.060890853 -0.2295117 1.561304 164 109 77
-0.05932955 -0.2295117 1.561304 165 108 77
-0.057586584 -0.22878994 1.5563942 164 108 77
-0.05603019 -0.22878994 1.5563942 163 106 76
-0.054473795 -0.22878994 1.5563942 164 106 77
-0.052917406 -0.22878994 1.5563942 164 104 77
-0.051167924 -0.22792983 1.5505431 163 104 78
-0.04961738 -0.22792983 1.5505431 162 103 77
-0.048066832 -0.22792983 1.5505431 163 102 75
-0.04651629 -0.22792983 1.5505431 163 104 77
-0.044965748 -0.22792983 1.5505431 165 107 79
-0.043252602 -0.22707616 1.5447358 168 109 80
-0.041707866 -0.22707616 1.5447358 172 114 85
-0.040163133 -0.22707616 1.5447358 172 116 87
-0.038618393 -0.22707616 1.5447358 175 118 90
-0.037073657 -0.22707616 1.5447358 182 124 95
-0.035528924 -0.22707616 1.5447358 182 124 98
-0.033984188 -0.22707616 1.5447358 189 127 100
-0.03243945 -0.22707616 1.5447358 189 129 101
-0.030894715 -0.22707616 1.5447358 188 129 102
-0.029349979 -0.22707616 1.5447358 190 129 101
-0.027805245 -0.22707616 1.5447358 192 131 104
-0.026260508 -0.22707616 1.5447358 190 129 101
-0.024715772 -0.22707616 1.5447358 190 125 100
-0.023258146 -0.22792983 1.5505431 187 123 97
-0.021707604 -0.22792983 1.5505431 181 120 97
-0.020233126 -0.22878994 1.5563942 172 116 95
-0.018606517 -0.22792983 1.5505431 155 103 90
-0.017174343 -0.2295117 1.561304 118 85 74
-0.016079707 -0.23637167 1.6079706 104 86 78
-0.015307217 -0.25001788 1.7008018 87 74 66
-0.014450609 -0.26552993 1.8063262 79 64 56
-0.012841118 -0.26966348 1.8344454 95 80 72
-0.011130435 -0.27269566 1.8550725 99 84 76
-0.009310259 -0.2737216 1.8620517 98 86 75
-0.00742029 -0.27269566 1.8550725 101 89 77
-0.0055652177 -0.27269566 1.8550725 100 87 73
-0.0037241036 -0.2737216 1.8620517 101 90 76
-0.0018620518 -0.2737216 1.8620517 105 92 83
0.0 -0.2737216 1.8620517 107 94 84
0.0018620518 -0.2737216 1.8620517 102 90 80
0.003710145 -0.27269566 1.8550725 103 91 80
0.0055861548 -0.2737216 1.8620517 103 91 80
0.00742029 -0.27269566 1.8550725 103 91 80
0.009275362 -0.27269566 1.8550725 101 88 78
0.011130435 -0.27269566 1.8550725 95 83 72
0.012985508 -0.27269566 1.8550725 93 82 71
0.01484058 -0.27269566 1.8550725 87 75 65
0.016695652 -0.27269566 1.8550725 77 64 56
0.018550724 -0.27269566 1.8550725 76 60 54
0.020329602 -0.2716774 1.8481455 77 61 54
0.02226087 -0.27269566 1.8550725 74 60 53
0.024115942 -0.27269566 1.8550725 74 61 53
0.025874037 -0.2716774 1.8481455 71 58 50
0.027722184 -0.2716774 1.8481455 71 57 50
0.029460318 -0.27066666 1.8412699 74 61 53
0.031418473 -0.2716774 1.8481455 77 63 55
0.033266615 -0.2716774 1.8481455 75 62 53
0.034984127 -0.27066666 1.8412699 75 63 54
0.036825396 -0.27066666 1.8412699 75 64 55
0.038811054 -0.2716774 1.8481455 75 62 55
0.04050794 -0.27066666 1.8412699 75 63 55
0.042349204 -0.27066666 1.8412699 76 64 58
0.044355493 -0.2716774 1.8481455 74 61 55
0.046031747 -0.27066666 1.8412699 77 64 55
0.047873016 -0.27066666 1.8412699 74 62 54
0.049530026 -0.26966348 1.8344454 73 61 55
0.05136447 -0.26966348 1.8344454 66 54 48
0.053002466 -0.26866767 1.8276712 64 53 46
0.054830134 -0.26866767 1.8276712 60 52 45
0.056657806 -0.26866767 1.8276712 57 47 44
0.058014166 -0.26650256 1.8129426 57 48 46
0.059827108 -0.26650256 1.8129426 53 45 45
0.06164005 -0.26650256 1.8129426 49 38 37
0.06322142 -0.26552993 1.8063262 44 34 34
0.06502774 -0.26552993 1.8063262 43 34 33
0.06683407 -0.26552993 1.8063262 48 40 39
0.068640396 -0.26552993 1.8063262 43 36 37
0.070446715 -0.26552993 1.8063262 36 32 34
0.0719903 -0.26456437 1.7997576 39 32 35
0.07379006 -0.26456437 1.7997576 37 32 36
0.07558982 -0.26456437 1.7997576 37 30 33
0.07738958 -0.26456437 1.7997576 38 31 34
0.07918933 -0.26456437 1.7997576 37 31 34
0.08098909 -0.26456437 1.7997576 36 31 33
0.082488894 -0.2636058 1.7932367 37 33 35
0.08428213 -0.2636058 1.7932367 36 31 34
0.08570275 -0.26246467 1.7854738 41 34 36
0.08748822 -0.26246467 1.7854738 43 36 39
0.08927369 -0.26246467 1.7854738 48 39 42
0.09105916 -0.26246467 1.7854738 48 41 44
0.092844635 -0.26246467 1.7854738 48 41 44
0.094630115 -0.26246467 1.7854738 49 42 44
0.09606902 -0.26152125 1.779056 50 42 43
0.09784807 -0.26152125 1.779056 50 42 43
0.09962714 -0.26152125 1.779056 50 42 43
0.10104298 -0.26058453 1.7726839 50 43 43
0.100864835 -0.2556402 1.739049 53 43 43
0.09592992 -0.23901184 1.6259309 58 47 41
0.093678236 -0.2295117 1.561304 125 96 79
0.09523954 -0.2295117 1.561304 165 115 96
0.09649645 -0.22878994 1.5563942 184 130 107
0.09768421 -0.22792983 1.5505431 196 136 112
0.09886309 -0.22707616 1.5447358 203 140 115
0.10040783 -0.22707616 1.5447358 206 143 115
0.10195256 -0.22707616 1.5447358 212 145 119
0.1034973 -0.22707616 1.5447358 213 145 119
0.10504203 -0.22707616 1.5447358 214 145 120
0.10658677 -0.22707616 1.5447358 214 145 120
0.107728034 -0.22622886 1.5389719 215 145 119
0.109267004 -0.22622886 1.5389719 216 147 121
0.11080597 -0.22622886 1.5389719 216 148 123
0.11234495 -0.22622886 1.5389719 217 149 123
0.11388392 -0.22622886 1.5389719 219 149 123
0.11542289 -0.22622886 1.5389719 218 151 123
0.11696187 -0.22622886 1.5389719 218 150 125
0.118500836 -0.22622886 1.5389719 218 149 124
0.12003981 -0.22622886 1.5389719 218 149 121
0.12157878 -0.22622886 1.5389719 219 147 120
0.12311775 -0.22622886 1.5389719 217 146 118
0.12465672 -0.22622886 1.5389719 216 145 118
0.12666833 -0.22707616 1.5447358 215 144 116
0.12821308 -0.22707616 1.5447358 210 142 114
0.13024563 -0.22792983 1.5505431 213 142 115
0.13179615 -0.22792983 1.5505431 211 142 115
0.1333467 -0.22792983 1.5505431 208 138 115
0.1354063 -0.22878994 1.5563942 209 140 118
0.1369627 -0.22878994 1.5563942 198 136 116
0.1385191 -0.22878994 1.5563942 205 141 125
0.14051737 -0.2295117 1.561304 179 129 116
0.14261854 -0.23038378 1.5672367 83 59 51
0.14909583 -0.23822922 1.6206069 118 98 89
0.16116527 -0.2547451 1.7329599 180 162 147
0.17716579 -0.27705714 1.8847424 212 188 165
0.18042466 -0.27918345 1.899207 215 192 167
0.18162692 -0.2781162 1.891947 206 184 162
0.18564786 -0.28134263 1.9138954 212 189 170
0.18756175 -0.28134263 1.9138954 216 192 172
0.1880215 -0.27918345 1.899207 212 190 170
0.18919471 -0.2781162 1.891947 216 193 173
0.19035898 -0.27705714 1.8847424 223 198 176
0.19151442 -0.27600607 1.8775923 212 191 169
0.19339201 -0.27600607 1.8775923 214 189 168
0.19438471 -0.2747553 1.8690836 213 188 165
0.19625379 -0.2747553 1.8690836 205 182 159
0.19812286 -0.2747553 1.8690836 205 183 161
0.20090237 -0.27600607 1.8775923 207 183 161
0.20277996 -0.27600607 1.8775923 210 186 164
0.20373012 -0.2747553 1.8690836 213 187 166
0.2055992 -0.2747553 1.8690836 209 183 164
0.20841275 -0.27600607 1.8775923 211 187 167
0.20933737 -0.2747553 1.8690836 214 190 170
0.21120645 -0.2747553 1.8690836 217 193 171
0.21307553 -0.2747553 1.8690836 209 184 166
0.21494463 -0.2747553 1.8690836 212 186 167
0.2168137 -0.2747553 1.8690836 217 192 173
0.21868278 -0.2747553 1.8690836 217 193 173
0.22055186 -0.2747553 1.8690836 215 192 171
0.22242096 -0.2747553 1.8690836 205 181 163
0.22344622 -0.2737216 1.8620517 207 183 164
0.22530825 -0.2737216 1.8620517 214 188 169
0.2271703 -0.2737216 1.8620517 211 186 166
0.22903237 -0.2737216 1.8620517 205 181 161
0.23089442 -0.2737216 1.8620517 213 188 167
0.23275647 -0.2737216 1.8620517 219 194 172
0.23461851 -0.2737216 1.8620517 208 183 162
0.23648058 -0.2737216 1.8620517 194 170 152
0.23744927 -0.27269566 1.8550725 201 178 159
0.23930435 -0.27269566 1.8550725 206 180 163
0.24115942 -0.27269566 1.8550725 211 186 168
0.2430145 -0.27269566 1.8550725 216 192 172
0.24486957 -0.27269566 1.8550725 207 184 166
0.24672464 -0.27269566 1.8550725 203 179 162
0.24857971 -0.27269566 1.8550725 212 187 170
0.2504348 -0.27269566 1.8550725 214 190 173
0.25228986 -0.27269566 1.8550725 209 187 169
0.25414494 -0.27269566 1.8550725 213 189 172
0.25504407 -0.2716774 1.8481455 209 187 171
0.2568922 -0.2716774 1.8481455 214 190 173
0.25874037 -0.2716774 1.8481455 213 190 174
0.2605885 -0.2716774 1.8481455 213 189 174
0.26243666 -0.2716774 1.8481455 215 191 175
0.2642848 -0.2716774 1.8481455 210 189 171
-0.26713043 -0.2745507 1.8550725 127 100 72
-0.26527536 -0.2745507 1.8550725 135 106 76
-0.26342028 -0.2745507 1.8550725 128 102 73
-0.2615652 -0.2745507 1.8550725 131 104 75
-0.25971013 -0.2745507 1.8550725 126 101 72
-0.2568922 -0.27352554 1.8481455 125 100 71
-0.25504407 -0.27352554 1.8481455 129 103 75
-0.25319594 -0.27352554 1.8481455 126 100 72
-0.25134778 -0.27352554 1.8481455 127 101 74
-0.24949963 -0.27352554 1.8481455 124 99 72
-0.24765149 -0.27352554 1.8481455 127 103 75
-0.24580334 -0.27352554 1.8481455 131 107 78
-0.2439552 -0.27352554 1.8481455 135 109 81
-0.24210705 -0.27352554 1.8481455 137 111 82
-0.24025892 -0.27352554 1.8481455 133 107 79
-0.23841077 -0.27352554 1.8481455 130 105 77
-0.23656262 -0.27352554 1.8481455 128 104 76
-0.23471448 -0.27352554 1.8481455 127 103 75
-0.23286633 -0.27352554 1.8481455 126 102 74
-0.23101819 -0.27352554 1.8481455 125 101 73
-0.22917004 -0.27352554 1.8481455 124 99 71
-0.2273219 -0.27352554 1.8481455 123 98 71
-0.22547376 -0.27352554 1.8481455 117 97 74
-0.22279365 -0.27250794 1.8412699 139 115 89
-0.22095238 -0.27250794 1.8412699 131 112 92
-0.21911111 -0.27250794 1.8412699 157 136 115
-0.21726984 -0.27250794 1.8412699 170 148 132
-0.21542858 -0.27250794 1.8412699 168 147 128
-0.2135873 -0.27250794 1.8412699 168 148 128
-0.21174604 -0.27250794 1.8412699 173 152 132
-0.20990478 -0.27250794 1.8412699 175 154 133
-0.2080635 -0.27250794 1.8412699 173 153 130
-0.20622224 -0.27250794 1.8412699 172 151 130
-0.20438094 -0.27250794 1.8412699 165 147 129
-0.20253968 -0.27250794 1.8412699 168 150 132
-0.2006984 -0.27250794 1.8412699 167 150 131
-0.19885714 -0.27250794 1.8412699 161 144 126
-0.19628567 -0.27149794 1.8344454 162 143 125
-0.1951746 -0.27250794 1.8412699 161 143 124
-0.19333333 -0.27250794 1.8412699 161 143 124
-0.19149207 -0.27250794 1.8412699 163 145 126
-0.18965079 -0.27250794 1.8412699 162 145 124
-0.18780953 -0.27250794 1.8412699 162 144 125
-0.18666269 -0.27352554 1.8481455 157 137 118
-0.18412699 -0.27250794 1.8412699 149 130 109
-0.1829664 -0.27352554 1.8481455 142 124 106
-0.18111825 -0.27352554 1.8481455 145 126 107
-0.17927012 -0.27352554 1.8481455 144 125 107
-0.1767619 -0.27250794 1.8412699 145 126 107
-0.17492063 -0.27250794 1.8412699 146 127 107
-0.17307936 -0.27250794 1.8412699 144 125 106
-0.1712381 -0.27250794 1.8412699 143 126 105
-0.16939682 -0.27250794 1.8412699 142 126 105
-0.16755556 -0.27250794 1.8412699 146 127 107
-0.16571428 -0.27250794 1.8412699 147 129 108
-0.16387302 -0.27250794 1.8412699 145 126 105
-0.16203175 -0.27250794 1.8412699 133 115 97
-0.16019048 -0.27250794 1.8412699 136 119 100
-0.1577623 -0.27149794 1.8344454 139 119 100
-0.15592785 -0.27149794 1.8344454 133 115 96
-0.15466668 -0.27250794 1.8412699 137 118 97
-0.15225898 -0.27149794 1.8344454 122 106 85
-0.15042451 -0.27149794 1.8344454 121 105 88
-0.14859007 -0.27149794 1.8344454 121 104 88
-0.14675564 -0.27149794 1.8344454 128 111 96
-0.14438602 -0.27049533 1.8276712 133 113 98
-0.14203385 -0.26950014 1.8209468 131 113 97
-0.13959658 -0.26831552 1.8129426 131 112 97
-0.13628599 -0.26539904 1.7932367 131 113 95
-0.1324768 -0.2614209 1.7663574 111 96 88
-0.12868962 -0.25737923 1.739049 90 80 76
-0.12553903 -0.2545175 1.7197129 86 74 72
-0.123390585 -0.2536362 1.7137581 84 71 69
-0.121676825 -0.2536362 1.7137581 81 68 66
-0.120379895 -0.2545175 1.7197129 80 69 66
-0.11776 -0.25258666 1.7066667 78 68 66
-0.116053335 -0.25258666 1.7066667 73 63 62
-0.114346676 -0.25258666 1.7066667 74 65 63
-0.11225292 -0.25171867 1.7008018 71 62 59
-0.110552125 -0.25171867 1.7008018 70 61 59
-0.10803456 -0.24982992 1.68804 70 60 59
-0.10634652 -0.24982992 1.68804 69 61 59
-0.10465848 -0.24982992 1.68804 67 59 57
-0.10297044 -0.24982992 1.68804 70 62 60
-0.100869566 -0.2488116 1.6811595 65 58 55
-0.09918841 -0.2488116 1.6811595 63 56 55
-0.097507246 -0.2488116 1.6811595 69 61 62
-0.09550169 -0.24796931 1.6754683 63 55 56
-0.09382623 -0.24796931 1.6754683 64 56 56
-0.09177793 -0.24696606 1.6686896 65 58 57
-0.09047529 -0.24796931 1.6754683 68 59 59
-0.08844055 -0.24696606 1.6686896 59 51 49
-0.08584568 -0.24433 1.6508784 64 58 54
-0.08265095 -0.23984982 1.6206069 141 132 120
-0.07982796 -0.23629075 1.5965592 121 110 102
-0.0782314 -0.23629075 1.5965592 79 67 62
-0.07633934 -0.23537962 1.5904028 55 42 36
-0.07474893 -0.23537962 1.5904028 53 42 35
-0.07315853 -0.23537962 1.5904028 47 38 31
-0.07133889 -0.23462568 1.5853087 58 44 33
-0.0694865 -0.2337273 1.5792385 130 94 72
-0.06764823 -0.23283578 1.5732148 162 109 77
-0.06607502 -0.23283578 1.5732148 166 111 77
-0.064256705 -0.23195101 1.5672367 167 112 78
-0.06245216 -0.23107298 1.561304 169 113 78
-0.060890853 -0.23107298 1.561304 166 112 77
-0.059142977 -0.23034634 1.5563942 165 109 76
-0.057586584 -0.23034634 1.5563942 165 108 75
-0.05603019 -0.23034634 1.5563942 164 106 75
-0.054473795 -0.23034634 1.5563942 161 105 75
-0.052718464 -0.22948037 1.5505431 162 104 77
-0.051167924 -0.22948037 1.5505431 162 104 77
-0.04961738 -0.22948037 1.5505431 163 106 78
-0.048066832 -0.22948037 1.5505431 166 106 76
-0.046342075 -0.2286209 1.5447358 166 108 80
-0.044797335 -0.2286209 1.5447358 167 111 81
-0.043252602 -0.2286209 1.5447358 172 115 84
-0.041707866 -0.2286209 1.5447358 175 120 88
-0.04001327 -0.22776784 1.5389719 179 124 92
-0.038474295 -0.22776784 1.5389719 183 125 94
