ply
format ascii 1.0
element vertex 1084
property float32 x
property float32 y
property float32 z
property uchar red
property uchar green
property uchar blue
element face 0
property list uint8 int32 vertex_indices
end_header
-0.11847696 -0.23027916 1.6686896 101 88 89
-0.11680827 -0.23027916 1.6686896 103 88 90
-0.114752695 -0.22950539 1.6630825 102 90 91
-0.113089606 -0.22950539 1.6630825 104 91 92
-0.11142653 -0.22950539 1.6630825 105 91 92
-0.10976344 -0.22950539 1.6630825 106 92 94
-0.10810036 -0.22950539 1.6630825 103 90 91
-0.10600982 -0.22858368 1.6564034 109 95 96
-0.103590705 -0.22691296 1.6442969 110 96 98
-0.101946406 -0.22691296 1.6442969 113 98 100
-0.10030211 -0.22691296 1.6442969 109 95 97
-0.09865782 -0.22691296 1.6442969 106 93 94
-0.09701352 -0.22691296 1.6442969 107 94 96
-0.09536922 -0.22691296 1.6442969 108 95 97
-0.09372492 -0.22691296 1.6442969 108 95 96
-0.091775715 -0.22616158 1.6388521 108 95 96
-0.090436324 -0.22691296 1.6442969 111 97 98
-0.08914744 -0.22782123 1.6508784 110 96 98
-0.08749656 -0.22782123 1.6508784 108 95 97
-0.08613298 -0.22858368 1.6564034 108 94 95
-0.08481721 -0.22950539 1.6630825 109 97 97
-0.08315412 -0.22950539 1.6630825 109 96 97
-0.081491046 -0.22950539 1.6630825 108 94 95
-0.080422476 -0.23121463 1.6754683 107 93 93
-0.079014495 -0.23200001 1.6811595 107 92 93
-0.07764984 -0.23294953 1.68804 110 95 96
-0.0759618 -0.23294953 1.68804 110 95 95
-0.07452795 -0.23374675 1.693817 108 93 93
-0.073134474 -0.23471066 1.7008018 108 93 93
-0.07168 -0.23552 1.7066667 111 94 95
-0.070264086 -0.23649862 1.7137581 102 84 85
-0.06878851 -0.23732038 1.7197129 105 88 88
-0.06734962 -0.23831405 1.7269133 100 83 84
-0.06608386 -0.23998876 1.739049 102 85 87
-0.06434481 -0.23998876 1.739049 108 92 94
-0.06260576 -0.23998876 1.739049 105 88 90
-0.061124444 -0.24100494 1.7464126 108 92 91
-0.059800047 -0.24271785 1.758825 106 91 91
-0.05917681 -0.24746667 1.7932367 124 106 104
-0.05848548 -0.25221863 1.8276712 143 126 116
-0.05729251 -0.25504407 1.8481455 172 153 137
-0.055652175 -0.256 1.8550725 168 150 134
-0.0539995 -0.25696313 1.8620517 176 156 139
-0.052334342 -0.25793353 1.8690836 173 152 135
-0.05046526 -0.25793353 1.8690836 164 144 128
-0.048817404 -0.25910774 1.8775923 163 145 129
-0.04711856 -0.26009446 1.8847424 171 151 135
-0.045062218 -0.25910774 1.8775923 178 156 140
-0.043184623 -0.25910774 1.8775923 176 154 139
-0.04130703 -0.25910774 1.8775923 181 157 138
-0.03942944 -0.25910774 1.8775923 180 157 139
-0.037551846 -0.25910774 1.8775923 185 162 143
-0.035674255 -0.25910774 1.8775923 184 160 141
-0.03379666 -0.25910774 1.8775923 189 167 145
-0.03191907 -0.25910774 1.8775923 184 163 143
-0.029905338 -0.25793353 1.8690836 189 166 146
-0.028036255 -0.25793353 1.8690836 192 168 148
-0.026167171 -0.25793353 1.8690836 200 175 154
-0.024298089 -0.25793353 1.8690836 179 158 139
-0.022429004 -0.25793353 1.8690836 191 171 149
-0.02055992 -0.25793353 1.8690836 191 170 149
-0.018690836 -0.25793353 1.8690836 193 170 149
-0.016821753 -0.25793353 1.8690836 182 162 140
-0.014952669 -0.25793353 1.8690836 182 162 141
-0.013083586 -0.25793353 1.8690836 188 165 148
-0.011214502 -0.25793353 1.8690836 186 161 139
-0.009345418 -0.25793353 1.8690836 183 161 138
-0.0074763345 -0.25793353 1.8690836 182 160 138
-0.005632777 -0.25910774 1.8775923 193 169 146
-0.0037381672 -0.25793353 1.8690836 193 172 148
-0.0018690836 -0.25793353 1.8690836 192 169 149
0.0 -0.25793353 1.8690836 195 173 152
0.0018690836 -0.25793353 1.8690836 193 172 152
0.0037381672 -0.25793353 1.8690836 192 171 150
0.005607251 -0.25793353 1.8690836 192 171 150
0.0074763345 -0.25793353 1.8690836 187 166 148
0.009387962 -0.25910774 1.8775923 191 167 149
0.011265554 -0.25910774 1.8775923 189 166 149
0.013143146 -0.25910774 1.8775923 188 166 147
0.014952669 -0.25793353 1.8690836 186 170 149
0.016821753 -0.25793353 1.8690836 180 162 141
0.018775923 -0.25910774 1.8775923 176 156 136
0.020653514 -0.25910774 1.8775923 173 152 133
0.02261691 -0.26009446 1.8847424 159 140 121
0.024501652 -0.26009446 1.8847424 138 120 105
0.026386393 -0.26009446 1.8847424 127 106 92
0.028379206 -0.26108867 1.891947 126 102 89
0.030271152 -0.26108867 1.891947 125 101 86
0.032163102 -0.26108867 1.891947 114 94 81
0.03431741 -0.26310015 1.9065229 112 92 80
0.035946995 -0.26108867 1.891947 107 87 76
0.03798414 -0.26209056 1.899207 105 85 73
0.039730888 -0.26108867 1.891947 106 88 75
0.041622832 -0.26108867 1.891947 106 88 75
0.04351478 -0.26108867 1.891947 101 83 71
0.04540673 -0.26108867 1.891947 103 84 71
0.04711856 -0.26009446 1.8847424 97 78 67
0.049003303 -0.26009446 1.8847424 77 58 57
0.05069499 -0.25910774 1.8775923 73 55 53
0.052137446 -0.25696313 1.8620517 70 51 49
0.053596217 -0.25504407 1.8481455 74 53 46
0.055238094 -0.25409526 1.8412699 95 75 70
0.056657806 -0.25221863 1.8276712 80 59 54
0.05848548 -0.25221863 1.8276712 92 65 63
0.059608765 -0.24927302 1.8063262 80 59 56
0.061415087 -0.24927302 1.8063262 72 60 54
0.06322142 -0.24927302 1.8063262 69 56 58
0.06455652 -0.24746667 1.7932367 79 68 70
0.06634976 -0.24746667 1.7932367 92 80 81
0.067848004 -0.24639538 1.7854738 95 82 85
0.06938318 -0.24550971 1.779056 69 57 59
0.070907354 -0.24463037 1.7726839 68 59 60
0.07294129 -0.24550971 1.779056 69 60 61
0.07472035 -0.24550971 1.779056 71 60 62
0.0762254 -0.24463037 1.7726839 69 59 60
0.0773883 -0.24271785 1.758825 67 58 59
0.07914712 -0.24271785 1.758825 67 58 60
0.080619454 -0.24185836 1.7525969 65 55 56
0.08266477 -0.24271785 1.758825 64 54 55
0.08412465 -0.24185836 1.7525969 65 54 55
0.08557422 -0.24100494 1.7464126 66 56 56
0.08732063 -0.24100494 1.7464126 70 60 60
0.088691495 -0.23998876 1.739049 79 69 69
0.09043054 -0.23998876 1.739049 78 65 66
0.09184687 -0.23914847 1.7329599 81 69 70
0.093579836 -0.23914847 1.7329599 90 79 79
0.09498023 -0.23831405 1.7269133 80 69 70
0.09670714 -0.23831405 1.7269133 90 78 79
0.09802364 -0.23732038 1.7197129 90 78 78
0.099743344 -0.23732038 1.7197129 95 84 86
0.10146306 -0.23732038 1.7197129 95 81 84
0.102825485 -0.23649862 1.7137581 100 86 88
0.104539245 -0.23649862 1.7137581 99 86 89
0.106253006 -0.23649862 1.7137581 99 86 87
0.10752001 -0.23552 1.7066667 105 93 95
0.10922667 -0.23552 1.7066667 104 92 94
0.110552125 -0.23471066 1.7008018 102 90 92
0.11225292 -0.23471066 1.7008018 97 83 84
0.11395372 -0.23471066 1.7008018 107 93 95
0.11565453 -0.23471066 1.7008018 111 96 99
0.116873376 -0.23374675 1.693817 109 95 96
0.11856719 -0.23374675 1.693817 106 93 95
0.120261006 -0.23374675 1.693817 109 95 97
0.122457735 -0.23471066 1.7008018 111 96 98
0.12415854 -0.23471066 1.7008018 112 97 99
0.12585934 -0.23471066 1.7008018 109 95 96
0.12756014 -0.23471066 1.7008018 111 97 98
0.12926094 -0.23471066 1.7008018 114 99 101
0.13141333 -0.23552 1.7066667 113 97 99
0.13312002 -0.23552 1.7066667 114 97 99
0.13482668 -0.23552 1.7066667 115 99 100
0.13710065 -0.23649862 1.7137581 113 96 97
0.1388144 -0.23649862 1.7137581 118 99 101
0.14052817 -0.23649862 1.7137581 116 99 100
0.14273617 -0.23732038 1.7197129 118 100 100
0.1460801 -0.23998876 1.739049 120 101 99
0.14897074 -0.24185836 1.7525969 123 98 96
0.1529988 -0.24550971 1.779056 108 73 67
0.15715037 -0.24927302 1.8063262 118 69 59
0.16024332 -0.25129068 1.8209468 135 78 66
0.16326565 -0.25315344 1.8344454 153 91 79
0.16571428 -0.25409526 1.8412699 172 108 91
0.16818124 -0.25504407 1.8481455 182 118 98
0.17002939 -0.25504407 1.8481455 192 128 104
0.17252174 -0.256 1.8550725 186 120 103
0.17649369 -0.25910774 1.8775923 198 147 123
0.18111968 -0.26310015 1.9065229 217 192 170
0.18373396 -0.26411754 1.9138954 212 190 168
0.18564786 -0.26411754 1.9138954 215 189 169
0.18756175 -0.26411754 1.9138954 213 189 170
0.18947564 -0.26411754 1.9138954 212 189 169
0.19138955 -0.26411754 1.9138954 215 189 170
0.19330344 -0.26411754 1.9138954 213 187 168
0.19521733 -0.26411754 1.9138954 212 186 165
0.19713123 -0.26411754 1.9138954 214 190 170
0.19904512 -0.26411754 1.9138954 216 192 171
0.20095901 -0.26411754 1.9138954 214 191 171
0.2028729 -0.26411754 1.9138954 214 191 170
0.2047868 -0.26411754 1.9138954 204 180 162
0.2067007 -0.26411754 1.9138954 210 185 166
0.20861459 -0.26411754 1.9138954 211 187 166
0.2105285 -0.26411754 1.9138954 217 190 170
0.21244238 -0.26411754 1.9138954 215 192 171
0.21353057 -0.26310015 1.9065229 209 186 166
0.21543708 -0.26310015 1.9065229 217 190 170
0.21734361 -0.26310015 1.9065229 210 186 167
0.21925014 -0.26310015 1.9065229 218 191 171
0.22115664 -0.26310015 1.9065229 217 195 173
0.22306317 -0.26310015 1.9065229 216 192 171
0.2249697 -0.26310015 1.9065229 203 181 162
0.22687621 -0.26310015 1.9065229 211 188 167
0.22878274 -0.26310015 1.9065229 213 186 167
0.22980405 -0.26209056 1.899207 212 188 167
0.23170325 -0.26209056 1.899207 214 187 168
0.23360246 -0.26209056 1.899207 209 182 164
0.23550166 -0.26209056 1.899207 213 189 169
0.23740087 -0.26209056 1.899207 211 187 168
0.23930007 -0.26209056 1.899207 220 193 175
0.2411993 -0.26209056 1.899207 219 197 178
0.24216922 -0.26108867 1.891947 217 194 175
0.24406117 -0.26108867 1.891947 219 195 177
0.24595311 -0.26108867 1.891947 219 195 177
0.24784507 -0.26108867 1.891947 217 196 176
0.25069532 -0.26209056 1.899207 218 197 177
0.25259453 -0.26209056 1.899207 217 195 176
0.2535209 -0.26108867 1.891947 217 193 175
0.25541285 -0.26108867 1.891947 215 192 174
0.25730482 -0.26108867 1.891947 218 194 177
0.25919676 -0.26108867 1.891947 216 190 174
0.26108867 -0.26108867 1.891947 212 188 171
0.26298064 -0.26108867 1.891947 212 187 170
0.26487258 -0.26108867 1.891947 214 190 174
0.26676452 -0.26108867 1.891947 209 186 169
0.26865646 -0.26108867 1.891947 215 192 174
0.27054843 -0.26108867 1.891947 216 191 173
-0.26713043 -0.25785506 1.8550725 143 118 95
-0.26527536 -0.25785506 1.8550725 127 105 81
-0.26342028 -0.25785506 1.8550725 127 103 78
-0.2615652 -0.25785506 1.8550725 130 106 79
-0.26068726 -0.25882518 1.8620517 126 103 78
-0.25882518 -0.25882518 1.8620517 126 102 78
-0.25696313 -0.25882518 1.8620517 125 101 78
-0.25606444 -0.2598026 1.8690836 120 98 76
-0.25323904 -0.25882518 1.8620517 142 117 92
-0.251377 -0.25882518 1.8620517 139 122 97
-0.24951494 -0.25882518 1.8620517 141 124 98
-0.24765287 -0.25882518 1.8620517 160 143 114
-0.24579084 -0.25882518 1.8620517 172 153 125
-0.24392878 -0.25882518 1.8620517 180 156 138
-0.24206673 -0.25882518 1.8620517 178 151 130
-0.23930435 -0.25785506 1.8550725 157 131 110
-0.23834263 -0.25882518 1.8620517 137 115 94
-0.23559421 -0.25785506 1.8550725 137 115 95
-0.23373914 -0.25785506 1.8550725 112 95 77
-0.23188406 -0.25785506 1.8550725 168 143 116
-0.23002899 -0.25785506 1.8550725 174 149 124
-0.22817393 -0.25785506 1.8550725 156 134 110
-0.22631885 -0.25785506 1.8550725 148 127 104
-0.22530825 -0.25882518 1.8620517 146 124 103
-0.22344622 -0.25882518 1.8620517 143 121 103
-0.22075363 -0.25785506 1.8550725 143 121 103
-0.21889856 -0.25785506 1.8550725 140 120 100
-0.21786004 -0.25882518 1.8620517 142 122 101
-0.215998 -0.25882518 1.8620517 143 124 103
-0.21413596 -0.25882518 1.8620517 144 125 105
-0.2122739 -0.25882518 1.8620517 146 127 106
-0.21216793 -0.2609853 1.8775923 143 124 104
-0.20933737 -0.2598026 1.8690836 145 125 106
-0.20746827 -0.2598026 1.8690836 148 128 109
-0.2055992 -0.2598026 1.8690836 144 127 108
-0.20373012 -0.2598026 1.8690836 146 127 108
-0.20186104 -0.2598026 1.8690836 145 125 105
-0.20090237 -0.2609853 1.8775923 146 127 107
-0.19902478 -0.2609853 1.8775923 146 127 107
-0.1971472 -0.2609853 1.8775923 146 126 107
-0.19526961 -0.2609853 1.8775923 140 120 103
-0.19339201 -0.2609853 1.8775923 146 125 107
-0.19151442 -0.2609853 1.8775923 147 130 111
-0.18963683 -0.2609853 1.8775923 147 128 109
-0.18775924 -0.2609853 1.8775923 144 124 106
-0.18588164 -0.2609853 1.8775923 141 123 104
-0.18400404 -0.2609853 1.8775923 139 121 101
-0.18212645 -0.2609853 1.8775923 143 124 104
-0.18024887 -0.2609853 1.8775923 135 117 97
-0.17837128 -0.2609853 1.8775923 137 118 98
-0.17569387 -0.2598026 1.8690836 137 118 98
-0.1731708 -0.25882518 1.8620517 139 120 100
-0.17066666 -0.25785506 1.8550725 143 122 98
-0.16631807 -0.2540463 1.8276712 154 120 92
-0.15897217 -0.24552368 1.7663574 159 111 84
-0.15776886 -0.24640307 1.7726839 160 105 80
-0.15543945 -0.24552368 1.7663574 162 104 80
-0.15301777 -0.24447668 1.758825 165 108 83
-0.15072332 -0.24361096 1.7525969 171 114 87
-0.14897074 -0.24361096 1.7525969 166 110 83
-0.14721814 -0.24361096 1.7525969 161 105 80
-0.14598247 -0.24447668 1.758825 155 100 75
-0.14422365 -0.24447668 1.758825 147 92 70
-0.14246482 -0.24447668 1.758825 138 84 67
-0.1386368 -0.24088143 1.7329599 112 70 55
-0.13642615 -0.24004096 1.7269133 89 62 54
-0.13312002 -0.23722667 1.7066667 95 81 77
-0.13096175 -0.23641145 1.7008018 96 86 83
-0.12829104 -0.23463756 1.68804 100 87 85
-0.12608697 -0.23368117 1.6811595 104 90 87
-0.1244058 -0.23368117 1.6811595 102 89 87
-0.122309186 -0.23289008 1.6754683 102 90 89
-0.12063372 -0.23289008 1.6754683 99 86 86
-0.11895825 -0.23289008 1.6754683 97 83 85
-0.11641577 -0.23116848 1.6630825 107 93 95
-0.114752695 -0.23116848 1.6630825 102 89 90
-0.113089606 -0.23116848 1.6630825 106 93 94
-0.11097903 -0.23024008 1.6564034 103 90 92
-0.10932262 -0.23024008 1.6564034 102 89 91
-0.107666224 -0.23024008 1.6564034 107 94 95
-0.105235 -0.22855726 1.6442969 103 90 92
-0.10324768 -0.22780044 1.6388521 103 89 91
-0.101608835 -0.22780044 1.6388521 105 92 94
-0.099969976 -0.22780044 1.6388521 108 94 96
-0.09833113 -0.22780044 1.6388521 107 94 95
-0.09669228 -0.22780044 1.6388521 106 93 95
-0.09505342 -0.22780044 1.6388521 110 96 98
-0.09372492 -0.22855726 1.6442969 112 98 99
-0.091775715 -0.22780044 1.6388521 111 97 98
-0.08978013 -0.22689886 1.632366 110 96 98
-0.08849802 -0.22780044 1.6388521 112 97 99
-0.087147735 -0.22855726 1.6442969 111 97 99
-0.085503444 -0.22855726 1.6442969 111 96 97
-0.084476575 -0.23024008 1.6564034 114 100 101
-0.08282017 -0.23024008 1.6564034 114 100 101
-0.081163764 -0.23024008 1.6564034 110 95 96
-0.0800971 -0.23194785 1.6686896 112 97 97
-0.07842841 -0.23194785 1.6686896 108 94 95
-0.07707154 -0.23289008 1.6754683 108 94 94
-0.0759618 -0.23463756 1.68804 111 97 97
-0.07427376 -0.23463756 1.68804 109 95 95
-0.07283413 -0.23544057 1.693817 110 95 94
-0.07143368 -0.23641145 1.7008018 109 92 93
-0.069973335 -0.23722667 1.7066667 106 88 88
-0.068550326 -0.23821238 1.7137581 105 87 87
-0.066836566 -0.23821238 1.7137581 104 86 88
-0.06585248 -0.24088143 1.7329599 105 88 90
-0.06411952 -0.24088143 1.7329599 107 89 91
-0.06260576 -0.2417278 1.739049 104 88 90
-0.060866714 -0.2417278 1.739049 117 99 97
-0.059378028 -0.24275136 1.7464126 114 96 94
-0.058920637 -0.24818087 1.7854738 122 106 102
-0.058702253 -0.2549879 1.8344454 160 142 128
-0.057079364 -0.2559365 1.8412699 178 157 141
-0.055652175 -0.25785506 1.8550725 189 166 150
-0.0539995 -0.25882518 1.8620517 183 161 145
-0.052137446 -0.25882518 1.8620517 186 165 147
-0.05046526 -0.2598026 1.8690836 171 151 134
-0.048596177 -0.2598026 1.8690836 179 160 142
-0.04693981 -0.2609853 1.8775923 188 169 150
-0.04485801 -0.2598026 1.8690836 188 169 151
-0.042988922 -0.2598026 1.8690836 185 166 148
-0.04111984 -0.2598026 1.8690836 188 162 143
-0.039250754 -0.2598026 1.8690836 200 174 154
-0.03738167 -0.2598026 1.8690836 195 170 150
-0.03551259 -0.2598026 1.8690836 193 170 149
-0.033643506 -0.2598026 1.8690836 189 168 146
-0.03177442 -0.2598026 1.8690836 177 157 137
-0.029792828 -0.25882518 1.8620517 194 171 150
-0.027930778 -0.25882518 1.8620517 195 173 152
-0.026068723 -0.25882518 1.8620517 196 174 151
-0.024206672 -0.25882518 1.8620517 196 174 152
-0.022344619 -0.25882518 1.8620517 195 174 153
-0.020482568 -0.25882518 1.8620517 194 171 152
-0.018620517 -0.25882518 1.8620517 192 171 150
-0.016758464 -0.25882518 1.8620517 185 163 143
-0.014896414 -0.25882518 1.8620517 172 153 134
-0.013034361 -0.25882518 1.8620517 190 165 148
-0.011214502 -0.2598026 1.8690836 184 159 139
-0.009345418 -0.2598026 1.8690836 181 160 138
-0.0074763345 -0.2598026 1.8690836 186 164 142
-0.005632777 -0.2609853 1.8775923 191 170 147
-0.0037381672 -0.2598026 1.8690836 184 164 142
-0.0018620518 -0.25882518 1.8620517 189 166 149
0.0 -0.2598026 1.8690836 186 163 146
0.0018620518 -0.25882518 1.8620517 197 172 153
0.0037381672 -0.2598026 1.8690836 196 170 153
0.0055861548 -0.25882518 1.8620517 194 171 152
0.007448207 -0.25882518 1.8620517 194 171 152
0.009345418 -0.2598026 1.8690836 186 166 147
0.011214502 -0.2598026 1.8690836 180 159 141
0.013083586 -0.2598026 1.8690836 194 172 152
0.014952669 -0.2598026 1.8690836 187 170 150
0.016758464 -0.25882518 1.8620517 187 171 151
0.018620517 -0.25882518 1.8620517 193 176 154
0.020653514 -0.2609853 1.8775923 180 161 141
0.022531109 -0.2609853 1.8775923 176 156 136
0.024298089 -0.2598026 1.8690836 166 146 127
0.026167171 -0.2598026 1.8690836 160 141 123
0.028163886 -0.2609853 1.8775923 128 111 96
0.030041477 -0.2609853 1.8775923 126 103 88
0.03191907 -0.2609853 1.8775923 123 99 84
0.034185726 -0.26398978 1.899207 117 96 81
0.035946995 -0.26298064 1.891947 110 89 77
0.03783894 -0.26298064 1.891947 109 88 77
0.039730888 -0.26298064 1.891947 110 91 79
0.041622832 -0.26298064 1.891947 111 92 81
0.04351478 -0.26298064 1.891947 105 87 76
0.04540673 -0.26298064 1.891947 107 89 77
0.047298677 -0.26298064 1.891947 111 93 82
0.049190626 -0.26298064 1.891947 96 79 70
0.05069499 -0.2609853 1.8775923 88 71 63
0.052572586 -0.2609853 1.8775923 75 60 55
0.053797103 -0.25785506 1.8550725 74 56 49
0.055238094 -0.2559365 1.8412699 99 79 75
0.056867804 -0.2549879 1.8344454 78 60 55
0.057802435 -0.25107932 1.8063262 89 66 67
0.059608765 -0.25107932 1.8063262 85 64 59
0.061415087 -0.25107932 1.8063262 72 61 55
0.062991515 -0.2501663 1.7997576 70 57 59
0.06455652 -0.2492599 1.7932367 90 77 77
0.06634976 -0.2492599 1.7932367 90 77 78
0.067848004 -0.24818087 1.7854738 86 75 77
0.06938318 -0.24728878 1.779056 66 55 57
0.07116224 -0.24728878 1.779056 68 58 60
0.07268004 -0.24640307 1.7726839 67 58 59
0.07445272 -0.24640307 1.7726839 68 57 58
0.07595337 -0.24552368 1.7663574 66 56 57
0.077719726 -0.24552368 1.7663574 64 55 55
0.07948609 -0.24552368 1.7663574 65 54 55
0.080905944 -0.24447668 1.758825 63 53 53
0.08266477 -0.24447668 1.758825 64 55 55
0.08412465 -0.24361096 1.7525969 66 56 56
0.08557422 -0.24275136 1.7464126 67 58 59
0.08732063 -0.24275136 1.7464126 73 62 63
0.088691495 -0.2417278 1.739049 81 69 69
0.09043054 -0.2417278 1.739049 75 63 63
0.09184687 -0.24088143 1.7329599 82 71 71
0.093579836 -0.24088143 1.7329599 80 69 70
0.09498023 -0.24004096 1.7269133 84 75 75
0.09630392 -0.23904009 1.7197129 83 73 73
0.09802364 -0.23904009 1.7197129 86 75 75
0.09939797 -0.23821238 1.7137581 91 79 81
0.101111725 -0.23821238 1.7137581 97 83 86
0.102825485 -0.23821238 1.7137581 102 89 91
0.104106665 -0.23722667 1.7066667 103 89 92
0.10581334 -0.23722667 1.7066667 108 94 96
0.10752001 -0.23722667 1.7066667 104 92 94
0.10885132 -0.23641145 1.7008018 102 91 93
0.110552125 -0.23641145 1.7008018 101 89 91
0.11179192 -0.23544057 1.693817 101 88 89
0.11348574 -0.23544057 1.693817 109 94 96
0.11517956 -0.23544057 1.693817 114 98 100
0.116873376 -0.23544057 1.693817 110 95 97
0.1181628 -0.23463756 1.68804 114 99 101
0.11985084 -0.23463756 1.68804 111 98 99
0.122457735 -0.23641145 1.7008018 112 98 99
0.12415854 -0.23641145 1.7008018 112 97 99
0.12585934 -0.23641145 1.7008018 114 99 100
0.12756014 -0.23641145 1.7008018 113 98 99
0.12926094 -0.23641145 1.7008018 115 99 102
0.13096175 -0.23641145 1.7008018 114 99 101
0.13266253 -0.23641145 1.7008018 114 98 99
0.13436334 -0.23641145 1.7008018 117 99 100
0.13653333 -0.23722667 1.7066667 118 100 102
0.13824001 -0.23722667 1.7066667 119 100 101
0.14052817 -0.23821238 1.7137581 118 100 101
0.14224193 -0.23821238 1.7137581 116 100 99
0.14506072 -0.24004096 1.7269133 121 101 102
0.14781916 -0.2417278 1.739049 121 99 100
0.15125895 -0.24447668 1.758825 121 93 89
0.15533623 -0.24818087 1.7854738 105 65 56
0.15953895 -0.25199902 1.8129426 125 72 61
0.16326565 -0.2549879 1.8344454 140 83 70
0.16571428 -0.2559365 1.8412699 164 99 86
0.16818124 -0.2568922 1.8481455 176 113 95
0.17002939 -0.2568922 1.8481455 187 124 101
0.17252174 -0.25785506 1.8550725 199 129 106
0.17569387 -0.2598026 1.8690836 191 133 111
0.17973498 -0.26298064 1.891947 218 186 160
0.18373396 -0.26603147 1.9138954 211 186 167
0.18564786 -0.26603147 1.9138954 210 187 167
0.18756175 -0.26603147 1.9138954 215 191 171
0.18947564 -0.26603147 1.9138954 209 186 166
0.19138955 -0.26603147 1.9138954 206 182 163
0.19330344 -0.26603147 1.9138954 210 187 167
0.19521733 -0.26603147 1.9138954 205 180 160
0.19713123 -0.26603147 1.9138954 211 185 166
0.19827838 -0.2650067 1.9065229 218 191 171
0.20018491 -0.2650067 1.9065229 215 193 172
0.20209143 -0.2650067 1.9065229 215 194 172
0.20399794 -0.2650067 1.9065229 212 188 168
0.20590447 -0.2650067 1.9065229 208 185 165
0.20781098 -0.2650067 1.9065229 214 189 169
0.20971751 -0.2650067 1.9065229 218 192 172
0.21162404 -0.2650067 1.9065229 211 188 168
0.21271119 -0.26398978 1.899207 220 194 173
0.2146104 -0.26398978 1.899207 217 191 171
0.2165096 -0.26398978 1.899207 213 189 169
0.2184088 -0.26398978 1.899207 219 194 173
0.22030802 -0.26398978 1.899207 213 191 170
0.22220722 -0.26398978 1.899207 218 194 174
0.22410643 -0.26398978 1.899207 216 192 171
0.22600563 -0.26398978 1.899207 213 189 169
0.22790484 -0.26398978 1.899207 220 194 173
0.2289256 -0.26298064 1.891947 209 185 165
0.23081754 -0.26298064 1.891947 206 181 162
0.23270948 -0.26298064 1.891947 212 186 166
0.23460142 -0.26298064 1.891947 210 185 166
0.23740087 -0.26398978 1.899207 205 180 163
0.23930007 -0.26398978 1.899207 212 187 168
0.2411993 -0.26398978 1.899207 218 195 176
0.24216922 -0.26298064 1.891947 216 195 175
0.24406117 -0.26298064 1.891947 217 194 175
0.24595311 -0.26298064 1.891947 216 194 175
0.24784507 -0.26298064 1.891947 217 193 175
0.24973701 -0.26298064 1.891947 218 197 178
0.25162897 -0.26298064 1.891947 216 196 177
0.2525555 -0.2619792 1.8847424 219 197 177
0.25444022 -0.2619792 1.8847424 193 174 158
0.25632495 -0.2619792 1.8847424 221 197 178
0.2582097 -0.2619792 1.8847424 217 193 175
0.26009446 -0.2619792 1.8847424 214 191 173
0.2619792 -0.2619792 1.8847424 203 181 164
0.26386392 -0.2619792 1.8847424 219 195 176
0.26574868 -0.2619792 1.8847424 213 188 171
0.2676334 -0.2619792 1.8847424 212 189 171
0.26951817 -0.2619792 1.8847424 213 189 172
-0.26713043 -0.25971013 1.8550725 136 112 85
-0.26527536 -0.25971013 1.8550725 128 104 76
-0.26342028 -0.25971013 1.8550725 127 101 71
-0.2615652 -0.25971013 1.8550725 128 101 72
-0.25971013 -0.25971013 1.8550725 122 97 68
-0.25882518 -0.26068726 1.8620517 121 96 67
-0.256 -0.25971013 1.8550725 122 98 68
-0.25414494 -0.25971013 1.8550725 124 98 70
-0.25228986 -0.25971013 1.8550725 126 100 74
-0.251377 -0.26068726 1.8620517 126 102 77
-0.24857971 -0.25971013 1.8550725 127 103 79
-0.24672464 -0.25971013 1.8550725 128 102 81
-0.24486957 -0.25971013 1.8550725 130 104 85
-0.2430145 -0.25971013 1.8550725 128 107 92
-0.24115942 -0.25971013 1.8550725 123 103 83
-0.23930435 -0.25971013 1.8550725 124 102 76
-0.23744927 -0.25971013 1.8550725 116 95 67
-0.23559421 -0.25971013 1.8550725 121 99 71
-0.23373914 -0.25971013 1.8550725 123 100 73
-0.23101819 -0.25874037 1.8481455 125 103 77
-0.23002899 -0.25971013 1.8550725 125 103 77
-0.22817393 -0.25971013 1.8550725 120 99 72
-0.22631885 -0.25971013 1.8550725 126 102 76
-0.22446378 -0.25971013 1.8550725 131 107 84
-0.22177747 -0.25874037 1.8481455 129 107 89
-0.21992931 -0.25874037 1.8481455 127 107 90
-0.21889856 -0.25971013 1.8550725 122 104 86
-0.21704349 -0.25971013 1.8550725 148 125 104
-0.21518841 -0.25971013 1.8550725 145 126 106
-0.21333334 -0.25971013 1.8550725 143 124 103
-0.21147828 -0.25971013 1.8550725 144 125 103
-0.21120645 -0.26167172 1.8690836 143 124 105
-0.20854978 -0.26068726 1.8620517 138 120 103
-0.20668775 -0.26068726 1.8620517 142 122 105
-0.20482568 -0.26068726 1.8620517 147 127 109
-0.20296364 -0.26068726 1.8620517 148 129 110
-0.20110159 -0.26068726 1.8620517 146 126 108
-0.19999194 -0.26167172 1.8690836 147 127 109
-0.19812286 -0.26167172 1.8690836 146 127 108
-0.19625379 -0.26167172 1.8690836 147 127 108
-0.19438471 -0.26167172 1.8690836 143 124 105
-0.19251561 -0.26167172 1.8690836 147 129 111
-0.19064653 -0.26167172 1.8690836 148 127 108
-0.18877745 -0.26167172 1.8690836 152 131 111
-0.18620516 -0.26068726 1.8620517 150 129 110
-0.18434313 -0.26068726 1.8620517 143 124 105
-0.18248107 -0.26068726 1.8620517 144 124 105
-0.18061902 -0.26068726 1.8620517 141 122 101
-0.17875695 -0.26068726 1.8620517 137 118 97
-0.17689492 -0.26068726 1.8620517 141 119 98
-0.17503287 -0.26068726 1.8620517 137 118 97
-0.1731708 -0.26068726 1.8620517 139 118 98
-0.17066666 -0.25971013 1.8550725 143 122 97
-0.16570616 -0.25493255 1.8209468 151 118 91
-0.15897217 -0.24729005 1.7663574 157 110 85
-0.15776886 -0.24817574 1.7726839 162 107 82
-0.15543945 -0.24729005 1.7663574 163 106 81
-0.15301777 -0.24623549 1.758825 171 111 86
-0.15072332 -0.24536356 1.7525969 167 113 85
-0.14897074 -0.24536356 1.7525969 165 108 83
-0.14721814 -0.24536356 1.7525969 159 103 78
-0.14598247 -0.24623549 1.758825 151 96 73
-0.14422365 -0.24623549 1.758825 138 86 66
-0.14246482 -0.24623549 1.758825 126 78 62
-0.1386368 -0.24261437 1.7329599 98 63 51
-0.13538688 -0.23992613 1.7137581 86 69 63
-0.13312002 -0.23893334 1.7066667 96 83 81
-0.1304239 -0.23713438 1.693817 99 88 87
-0.12776811 -0.23536234 1.6811595 98 84 82
-0.12608697 -0.23536234 1.6811595 96 82 79
-0.12398466 -0.23456557 1.6754683 104 91 89
-0.122309186 -0.23456557 1.6754683 104 91 91
-0.120145656 -0.23361655 1.6686896 102 89 89
-0.11847696 -0.23361655 1.6686896 106 92 94
-0.115948245 -0.23189649 1.6564034 109 96 97
-0.11429184 -0.23189649 1.6564034 105 92 94
-0.112635426 -0.23189649 1.6564034 102 89 91
-0.11097903 -0.23189649 1.6564034 101 88 89
-0.108957976 -0.23112299 1.6508784 104 91 92
-0.1073071 -0.23112299 1.6508784 102 90 91
-0.105235 -0.23020157 1.6442969 108 94 96
-0.10283906 -0.22853124 1.632366 105 93 94
-0.10120669 -0.22853124 1.632366 106 93 94
-0.09957433 -0.22853124 1.632366 109 95 97
-0.09833113 -0.2294393 1.6388521 109 96 98
-0.09669228 -0.2294393 1.6388521 111 97 98
-0.094677225 -0.22853124 1.632366 113 98 100
-0.09304486 -0.22853124 1.632366 113 99 100
-0.09141249 -0.22853124 1.632366 113 99 100
-0.08978013 -0.22853124 1.632366 113 99 101
-0.08814776 -0.22853124 1.632366 114 99 101
-0.0865154 -0.22853124 1.632366 115 100 102
-0.08522031 -0.2294393 1.6388521 113 98 99
-0.08358146 -0.2294393 1.6388521 111 97 97
-0.082543924 -0.23112299 1.6508784 111 98 98
-0.08089305 -0.23112299 1.6508784 109 95 96
-0.079507366 -0.23189649 1.6564034 111 95 96
-0.078164876 -0.23283154 1.6630825 112 97 98
-0.07675972 -0.23361655 1.6686896 111 96 97
-0.075396076 -0.23456557 1.6754683 114 99 98
-0.073720604 -0.23456557 1.6754683 110 96 96
-0.072289854 -0.23536234 1.6811595 111 96 96
-0.07114031 -0.23713438 1.693817 110 93 93
-0.06973288 -0.23811226 1.7008018 108 91 91
-0.06826667 -0.23893334 1.7066667 105 88 88
-0.066836566 -0.23992613 1.7137581 106 88 90
-0.0656227 -0.24176787 1.7269133 107 88 91
-0.06411952 -0.24261437 1.7329599 105 86 89
-0.06260576 -0.24346685 1.739049 108 90 93
-0.061124444 -0.24449778 1.7464126 114 98 95
-0.059800047 -0.24623549 1.758825 127 106 101
-0.059392 -0.25196606 1.7997576 137 119 110
-0.058702253 -0.25682235 1.8344454 170 150 134
-0.057079364 -0.25777778 1.8412699 183 163 145
-0.055444367 -0.25874037 1.8481455 192 170 152
-0.053797103 -0.25971013 1.8550725 191 169 151
-0.052137446 -0.26068726 1.8620517 186 166 149
-0.050275397 -0.26068726 1.8620517 185 164 146
-0.048596177 -0.26167172 1.8690836 202 179 159
-0.04672709 -0.26167172 1.8690836 199 180 160
-0.04485801 -0.26167172 1.8690836 207 185 164
-0.042988922 -0.26167172 1.8690836 205 184 164
-0.04111984 -0.26167172 1.8690836 203 180 158
-0.039250754 -0.26167172 1.8690836 197 175 153
-0.03738167 -0.26167172 1.8690836 199 177 155
-0.03551259 -0.26167172 1.8690836 199 175 153
-0.033643506 -0.26167172 1.8690836 174 158 139
-0.03177442 -0.26167172 1.8690836 196 174 153
-0.029905338 -0.26167172 1.8690836 194 174 152
-0.028036255 -0.26167172 1.8690836 200 179 155
-0.026167171 -0.26167172 1.8690836 201 177 156
-0.024298089 -0.26167172 1.8690836 162 145 128
-0.022429004 -0.26167172 1.8690836 184 163 144
-0.02055992 -0.26167172 1.8690836 195 174 153
-0.018690836 -0.26167172 1.8690836 200 176 156
-0.016758464 -0.26068726 1.8620517 195 170 150
-0.014896414 -0.26068726 1.8620517 197 174 154
-0.013034361 -0.26068726 1.8620517 185 162 144
-0.0111723095 -0.26068726 1.8620517 191 165 145
-0.009310259 -0.26068726 1.8620517 183 160 142
-0.007448207 -0.26068726 1.8620517 187 163 144
-0.0055861548 -0.26068726 1.8620517 192 168 148
-0.0037241036 -0.26068726 1.8620517 190 167 147
-0.0018620518 -0.26068726 1.8620517 195 171 152
0.0 -0.26068726 1.8620517 201 176 157
0.0018620518 -0.26068726 1.8620517 196 171 152
0.0037381672 -0.26167172 1.8690836 197 172 153
0.0055652177 -0.25971013 1.8550725 201 174 155
0.00742029 -0.25971013 1.8550725 195 171 153
0.009275362 -0.25971013 1.8550725 188 167 149
0.011130435 -0.25971013 1.8550725 194 174 153
0.012985508 -0.25971013 1.8550725 192 172 151
0.014896414 -0.26068726 1.8620517 193 174 154
0.016695652 -0.25971013 1.8550725 195 176 155
0.018550724 -0.25971013 1.8550725 190 174 152
0.02055992 -0.26167172 1.8690836 196 177 157
0.022344619 -0.26068726 1.8620517 181 163 144
0.024206672 -0.26068726 1.8620517 179 158 137
0.026068723 -0.26068726 1.8620517 171 152 131
0.027930778 -0.26068726 1.8620517 161 141 122
0.029792828 -0.26068726 1.8620517 141 123 105
0.03165488 -0.26068726 1.8620517 125 104 89
0.03379666 -0.26286292 1.8775923 121 98 82
0.035810106 -0.26386392 1.8847424 114 94 78
0.037551846 -0.26286292 1.8775923 112 92 78
0.03957959 -0.26386392 1.8847424 105 86 72
0.041622832 -0.26487258 1.891947 108 90 75
0.043349076 -0.26386392 1.8847424 106 88 74
0.04523382 -0.26386392 1.8847424 101 85 71
0.04711856 -0.26386392 1.8847424 107 91 81
0.049003303 -0.26386392 1.8847424 104 88 77
0.05069499 -0.26286292 1.8775923 99 83 71
0.052334342 -0.26167172 1.8690836 95 82 75
0.0539995 -0.26068726 1.8620517 93 76 67
0.055652175 -0.25971013 1.8550725 94 76 68
0.057079364 -0.25777778 1.8412699 85 65 60
0.058270298 -0.25493255 1.8209468 87 62 63
0.059827108 -0.25381196 1.8129426 86 65 57
0.061415087 -0.25288567 1.8063262 72 58 55
0.06276329 -0.25105315 1.7932367 78 65 66
0.06455652 -0.25105315 1.7932367 88 74 71
0.06634976 -0.25105315 1.7932367 96 82 82
0.067848004 -0.24996634 1.7854738 71 59 61
0.06938318 -0.24906784 1.779056 67 58 60
0.070907354 -0.24817574 1.7726839 68 59 60
0.07268004 -0.24817574 1.7726839 71 63 63
0.07445272 -0.24817574 1.7726839 65 56 56
0.07595337 -0.24729005 1.7663574 68 59 59
0.077719726 -0.24729005 1.7663574 66 57 57
0.07948609 -0.24729005 1.7663574 63 53 53
0.080905944 -0.24623549 1.758825 62 53 53
0.082372054 -0.24536356 1.7525969 63 53 54
0.0838278 -0.24449778 1.7464126 66 56 57
0.08557422 -0.24449778 1.7464126 71 62 62
0.08695245 -0.24346685 1.739049 71 61 61
0.088691495 -0.24346685 1.739049 75 62 62
0.090113916 -0.24261437 1.7329599 77 65 65
0.09184687 -0.24261437 1.7329599 85 73 74
0.09325332 -0.24176787 1.7269133 79 67 67
0.094584204 -0.24075979 1.7197129 82 72 72
0.09630392 -0.24075979 1.7197129 81 69 70
0.09768421 -0.23992613 1.7137581 94 82 83
0.09939797 -0.23992613 1.7137581 92 80 82
0.101111725 -0.23992613 1.7137581 97 83 86
0.102400005 -0.23893334 1.7066667 97 84 86
0.104106665 -0.23893334 1.7066667 101 88 90
0.10581334 -0.23893334 1.7066667 106 93 96
0.10715051 -0.23811226 1.7008018 102 90 92
0.10885132 -0.23811226 1.7008018 104 92 94
0.11009811 -0.23713438 1.693817 109 97 99
0.11179192 -0.23713438 1.693817 107 95 95
0.11348574 -0.23713438 1.693817 105 91 92
0.11478672 -0.2363256 1.68804 107 93 95
0.11647476 -0.2363256 1.68804 114 98 100
0.1181628 -0.2363256 1.68804 116 100 101
0.119362324 -0.23536234 1.6811595 113 99 100
0.12153888 -0.2363256 1.68804 115 99 101
0.12322692 -0.2363256 1.68804 117 102 103
0.12491496 -0.2363256 1.68804 115 99 100
0.126603 -0.2363256 1.68804 111 97 98
0.12829104 -0.2363256 1.68804 115 99 102
0.1304239 -0.23713438 1.693817 114 98 100
0.13211772 -0.23713438 1.693817 118 100 102
0.13381153 -0.23713438 1.693817 122 103 104
0.13606414 -0.23811226 1.7008018 122 103 105
0.13776496 -0.23811226 1.7008018 121 102 103
0.13994667 -0.23893334 1.7066667 120 101 103
0.14165333 -0.23893334 1.7066667 120 101 105
0.1439557 -0.23992613 1.7137581 123 100 104
0.1461756 -0.24075979 1.7197129 121 98 101
0.14955822 -0.24346685 1.739049 123 100 95
0.1536731 -0.24729005 1.7663574 110 77 68
0.15780485 -0.25105315 1.7932367 113 64 54
0.1613519 -0.25381196 1.8129426 133 77 69
0.16510008 -0.25682235 1.8344454 152 89 80
0.16693452 -0.25682235 1.8344454 171 108 92
0.17002939 -0.25874037 1.8481455 180 116 96
0.17252174 -0.25971013 1.8550725 197 125 104
0.17569387 -0.26167172 1.8690836 206 142 119
0.17905052 -0.26386392 1.8847424 208 175 149
0.1830262 -0.2669132 1.9065229 214 191 171
0.18493272 -0.2669132 1.9065229 217 192 171
0.18683925 -0.2669132 1.9065229 215 191 171
0.18874575 -0.2669132 1.9065229 217 191 171
0.19065228 -0.2669132 1.9065229 213 189 169
0.19255881 -0.2669132 1.9065229 208 185 166
0.19446534 -0.2669132 1.9065229 208 184 164
0.19637185 -0.2669132 1.9065229 207 181 163
0.19751753 -0.265889 1.899207 212 187 168
0.19941673 -0.265889 1.899207 218 191 171
0.20131595 -0.265889 1.899207 215 191 170
0.20321515 -0.265889 1.899207 218 191 172
0.20511435 -0.265889 1.899207 209 186 166
0.20701356 -0.265889 1.899207 210 187 168
0.20891276 -0.265889 1.899207 217 192 172
0.21081199 -0.265889 1.899207 215 190 170
0.21189807 -0.26487258 1.891947 213 189 169
0.21379001 -0.26487258 1.891947 215 191 171
0.21568196 -0.26487258 1.891947 212 188 169
0.21757391 -0.26487258 1.891947 216 193 171
0.21946585 -0.26487258 1.891947 214 191 171
0.22135781 -0.26487258 1.891947 220 197 174
0.22324976 -0.26487258 1.891947 221 197 174
0.22514169 -0.26487258 1.891947 210 187 167
0.22703364 -0.26487258 1.891947 204 181 161
0.2289256 -0.26487258 1.891947 207 181 162
0.23081754 -0.26487258 1.891947 214 190 170
0.23270948 -0.26487258 1.891947 215 189 169
0.23460142 -0.26487258 1.891947 213 188 168
0.23649338 -0.26487258 1.891947 212 187 169
0.23838533 -0.26487258 1.891947 214 187 170
0.23936228 -0.26386392 1.8847424 217 193 173
0.24124703 -0.26386392 1.8847424 218 194 176
0.24313176 -0.26386392 1.8847424 218 194 176
0.24501652 -0.26386392 1.8847424 219 196 177
0.24690124 -0.26386392 1.8847424 219 196 178
0.248786 -0.26386392 1.8847424 214 190 173
0.25067073 -0.26386392 1.8847424 217 193 176
0.25159737 -0.26286292 1.8775923 219 197 179
0.25347495 -0.26286292 1.8775923 220 197 179
0.25535256 -0.26286292 1.8775923 221 197 179
0.25723016 -0.26286292 1.8775923 220 196 178
0.25910774 -0.26286292 1.8775923 213 190 172
0.2609853 -0.26286292 1.8775923 196 172 157
0.26286292 -0.26286292 1.8775923 218 194 177
0.2647405 -0.26286292 1.8775923 223 198 179
0.2666181 -0.26286292 1.8775923 219 195 178
0.2684957 -0.26286292 1.8775923 220 194 177
-0.26613292 -0.2605885 1.8481455 131 106 77
-0.2642848 -0.2605885 1.8481455 129 104 76
-0.26243666 -0.2605885 1.8481455 129 103 75
-0.2605885 -0.2605885 1.8481455 129 103 75
-0.25874037 -0.2605885 1.8481455 127 102 74
-0.25785506 -0.2615652 1.8550725 123 100 70
-0.256 -0.2615652 1.8550725 118 96 66
-0.25414494 -0.2615652 1.8550725 120 97 68
-0.25134778 -0.2605885 1.8481455 125 100 73
-0.24949963 -0.2605885 1.8481455 125 101 73
-0.24951494 -0.26254928 1.8620517 122 96 72
-0.24672464 -0.2615652 1.8550725 116 93 64
-0.2439552 -0.2605885 1.8481455 120 95 68
-0.24210705 -0.2605885 1.8481455 119 96 70
-0.24025892 -0.2605885 1.8481455 122 96 69
-0.23841077 -0.2605885 1.8481455 121 97 69
-0.23568255 -0.25961906 1.8412699 115 93 65
-0.23471448 -0.2605885 1.8481455 120 95 68
-0.232 -0.25961906 1.8412699 121 94 67
-0.23101819 -0.2605885 1.8481455 120 94 67
-0.22917004 -0.2605885 1.8481455 119 93 66
-0.2273219 -0.2605885 1.8481455 122 95 68
-0.22547376 -0.2605885 1.8481455 119 94 66
-0.22279365 -0.25961906 1.8412699 123 97 69
-0.22095238 -0.25961906 1.8412699 121 99 71
-0.21911111 -0.25961906 1.8412699 128 107 85
-0.21808116 -0.2605885 1.8481455 148 124 103
-0.21623302 -0.2605885 1.8481455 160 139 122
-0.21438487 -0.2605885 1.8481455 154 134 117
-0.21253672 -0.2605885 1.8481455 155 131 111
-0.21068858 -0.2605885 1.8481455 148 129 108
-0.2096232 -0.2615652 1.8550725 147 126 108
-0.20776813 -0.2615652 1.8550725 143 124 106
-0.20591304 -0.2615652 1.8550725 147 129 110
-0.20405796 -0.2615652 1.8550725 146 127 108
-0.2022029 -0.2615652 1.8550725 145 127 110
-0.20034783 -0.2615652 1.8550725 144 127 109
-0.19923954 -0.26254928 1.8620517 145 127 110
-0.19737749 -0.26254928 1.8620517 143 126 107
-0.19551542 -0.26254928 1.8620517 143 124 106
-0.19365337 -0.26254928 1.8620517 143 124 105
-0.19179133 -0.26254928 1.8620517 147 128 107
-0.18992928 -0.26254928 1.8620517 151 126 106
-0.18806723 -0.26254928 1.8620517 144 125 105
-0.18620516 -0.26254928 1.8620517 144 125 104
-0.18434313 -0.26254928 1.8620517 148 127 106
-0.18248107 -0.26254928 1.8620517 143 123 103
-0.18061902 -0.26254928 1.8620517 143 123 100
-0.17875695 -0.26254928 1.8620517 138 120 99
-0.17623189 -0.2615652 1.8550725 139 119 99
-0.17437682 -0.2615652 1.8550725 138 120 99
-0.17252174 -0.2615652 1.8550725 134 115 97
-0.17002939 -0.2605885 1.8481455 144 121 98
-0.16570616 -0.2567535 1.8209468 150 117 92
-0.15897217 -0.2490564 1.7663574 158 112 86
-0.15776886 -0.24994843 1.7726839 162 107 82
-0.15543945 -0.2490564 1.7663574 163 105 81
-0.15301777 -0.24799432 1.758825 168 110 84
-0.15072332 -0.24711615 1.7525969 166 110 84
-0.14897074 -0.24711615 1.7525969 163 106 81
-0.14721814 -0.24711615 1.7525969 156 101 77
-0.14598247 -0.24799432 1.758825 148 92 71
-0.14422365 -0.24799432 1.758825 129 81 61
-0.14246482 -0.24799432 1.758825 113 69 52
-0.13815306 -0.24349478 1.7269133 86 56 45
-0.13538688 -0.2416399 1.7137581 84 71 65
-0.13266253 -0.23981306 1.7008018 96 82 80
-0.12944928 -0.23704349 1.6811595 97 83 83
-0.12776811 -0.23704349 1.6811595 99 86 86
-0.12566012 -0.23624103 1.6754683 100 87 87
-0.12348303 -0.23528524 1.6686896 105 91 91
-0.122309186 -0.23624103 1.6754683 102 89 89
-0.11974194 -0.23449463 1.6630825 102 89 89
-0.11807886 -0.23449463 1.6630825 100 87 88
-0.115948245 -0.23355289 1.6564034 103 89 91
-0.113910615 -0.23277387 1.6508784 101 88 89
-0.112635426 -0.23355289 1.6564034 103 91 92
-0.11060885 -0.23277387 1.6508784 100 87 88
-0.1085236 -0.23184586 1.6442969 102 90 91
-0.106879294 -0.23184586 1.6442969 105 93 95
-0.10488654 -0.23107816 1.6388521 109 96 97
-0.10283906 -0.2301636 1.632366 108 95 97
-0.10120669 -0.2301636 1.632366 107 94 95
-0.09957433 -0.2301636 1.632366 109 95 96
-0.09794196 -0.2301636 1.632366 109 96 97
-0.096309595 -0.2301636 1.632366 111 97 98
-0.094677225 -0.2301636 1.632366 112 98 100
-0.09267806 -0.22925626 1.6259309 114 99 101
-0.09105213 -0.22925626 1.6259309 114 100 102
-0.089426205 -0.22925626 1.6259309 115 100 102
-0.08751277 -0.22850557 1.6206069 115 100 102
-0.08617434 -0.22925626 1.6259309 115 101 103
-0.08454841 -0.22925626 1.6259309 118 102 103
-0.083250664 -0.2301636 1.632366 113 99 99
-0.081618294 -0.2301636 1.632366 114 99 100
-0.08057055 -0.23184586 1.6442969 113 97 98
-0.07892626 -0.23184586 1.6442969 112 97 98
-0.07728195 -0.23184586 1.6442969 115 99 100
-0.07594041 -0.23277387 1.6508784 108 95 96
-0.07483871 -0.23449463 1.6630825 113 97 97
-0.07342234 -0.23528524 1.6686896 110 96 95
-0.072289854 -0.23704349 1.6811595 110 96 95
-0.07089768 -0.23801364 1.68804 109 93 93
-0.06973288 -0.23981306 1.7008018 106 89 90
-0.06826667 -0.24064 1.7066667 106 89 89
-0.066836566 -0.2416399 1.7137581 105 88 89
-0.06534909 -0.2424795 1.7197129 106 90 90
-0.06411952 -0.24434733 1.7329599 105 88 89
-0.06260576 -0.24520591 1.739049 106 90 90
-0.060866714 -0.24520591 1.739049 117 99 96
-0.060056154 -0.2490564 1.7663574 124 104 98
-0.059392 -0.25376582 1.7997576 161 134 123
-0.058702253 -0.2586568 1.8344454 179 155 138
-0.057079364 -0.25961906 1.8412699 191 170 151
-0.055444367 -0.2605885 1.8481455 198 176 158
-0.053797103 -0.2615652 1.8550725 196 175 156
-0.05194203 -0.2615652 1.8550725 174 157 140
-0.050275397 -0.26254928 1.8620517 197 175 157
-0.048413344 -0.26254928 1.8620517 209 186 167
-0.04655129 -0.26254928 1.8620517 203 181 162
-0.044689238 -0.26254928 1.8620517 204 184 163
-0.04282719 -0.26254928 1.8620517 210 188 168
-0.040965136 -0.26254928 1.8620517 207 187 166
-0.039103083 -0.26254928 1.8620517 203 182 162
-0.037101448 -0.2615652 1.8550725 211 188 168
-0.035246376 -0.2615652 1.8550725 202 180 160
-0.033391304 -0.2615652 1.8550725 205 185 163
-0.031536233 -0.2615652 1.8550725 199 180 158
-0.029792828 -0.26254928 1.8620517 212 190 168
-0.027826088 -0.2615652 1.8550725 202 182 161
-0.025971016 -0.2615652 1.8550725 202 183 163
-0.024115942 -0.2615652 1.8550725 205 185 166
-0.02226087 -0.2615652 1.8550725 201 182 162
-0.020405797 -0.2615652 1.8550725 200 183 160
-0.018550724 -0.2615652 1.8550725 204 185 162
-0.016695652 -0.2615652 1.8550725 195 176 154
-0.014896414 -0.26254928 1.8620517 199 175 155
-0.012985508 -0.2615652 1.8550725 200 173 154
-0.011130435 -0.2615652 1.8550725 191 165 147
-0.009275362 -0.2615652 1.8550725 204 180 159
-0.007448207 -0.26254928 1.8620517 207 182 161
-0.0055652177 -0.2615652 1.8550725 200 178 156
-0.003710145 -0.2615652 1.8550725 191 168 149
-0.0018550724 -0.2615652 1.8550725 204 180 158
0.0 -0.26254928 1.8620517 203 180 158
0.0018550724 -0.2615652 1.8550725 201 177 155
0.003710145 -0.2615652 1.8550725 184 162 142
0.0055652177 -0.2615652 1.8550725 189 166 148
0.00742029 -0.2615652 1.8550725 189 166 147
0.009240728 -0.2605885 1.8481455 184 161 144
0.011088873 -0.2605885 1.8481455 194 173 152
0.012937019 -0.2605885 1.8481455 190 168 149
0.01484058 -0.2615652 1.8550725 199 178 158
0.016695652 -0.2615652 1.8550725 199 178 158
0.018550724 -0.2615652 1.8550725 197 178 157
0.020482568 -0.26254928 1.8620517 200 178 158
0.02226087 -0.2615652 1.8550725 189 170 150
0.024115942 -0.2615652 1.8550725 180 161 140
0.025971016 -0.2615652 1.8550725 182 162 141
0.027826088 -0.2615652 1.8550725 170 150 129
0.02968116 -0.2615652 1.8550725 160 138 118
0.031536233 -0.2615652 1.8550725 141 121 102
0.033643506 -0.2635408 1.8690836 126 105 89
0.03551259 -0.2635408 1.8690836 121 101 86
0.037551846 -0.2647405 1.8775923 120 98 83
0.03942944 -0.2647405 1.8775923 112 91 75
0.041464332 -0.26574868 1.8847424 116 94 79
0.043349076 -0.26574868 1.8847424 111 92 76
0.045062218 -0.2647405 1.8775923 110 91 77
0.04711856 -0.26574868 1.8847424 108 91 80
0.048817404 -0.2647405 1.8775923 105 89 78
0.05046526 -0.2635408 1.8690836 99 84 73
0.052334342 -0.2635408 1.8690836 98 82 70
0.0539995 -0.26254928 1.8620517 95 75 66
0.055652175 -0.2615652 1.8550725 93 75 65
0.05729251 -0.2605885 1.8481455 103 86 76
0.058270298 -0.2567535 1.8209468 86 65 55
0.059608765 -0.254692 1.8063262 94 68 61
0.061415087 -0.254692 1.8063262 73 57 56
0.062991515 -0.25376582 1.7997576 80 66 67
0.06455652 -0.25284636 1.7932367 87 75 71
0.06606253 -0.2517518 1.7854738 89 76 75
0.067604125 -0.2508469 1.779056 69 58 60
0.069134675 -0.24994843 1.7726839 65 55 56
0.070654295 -0.2490564 1.7663574 69 60 61
0.07242066 -0.2490564 1.7663574 72 61 62
0.07418701 -0.2490564 1.7663574 65 56 57
0.07562947 -0.24799432 1.758825 66 57 57
0.0773883 -0.24799432 1.758825 66 58 58
0.07948609 -0.2490564 1.7663574 65 54 55
0.080619454 -0.24711615 1.7525969 67 58 58
0.082372054 -0.24711615 1.7525969 67 58 59
0.0838278 -0.24624419 1.7464126 66 57 58
0.08557422 -0.24624419 1.7464126 71 60 61
0.08695245 -0.24520591 1.739049 73 63 63
0.088691495 -0.24520591 1.739049 77 65 65
0.090113916 -0.24434733 1.7329599 77 65 65
0.09184687 -0.24434733 1.7329599 73 63 63
0.09325332 -0.24349478 1.7269133 74 62 62
0.094584204 -0.2424795 1.7197129 74 64 63
0.09597045 -0.2416399 1.7137581 89 78 79
0.09768421 -0.2416399 1.7137581 86 74 75
0.09898667 -0.24064 1.7066667 94 82 84
0.10069334 -0.24064 1.7066667 95 81 84
0.102400005 -0.24064 1.7066667 95 84 85
0.10374892 -0.23981306 1.7008018 104 91 94
0.105449714 -0.23981306 1.7008018 101 88 90
0.10715051 -0.23981306 1.7008018 105 92 94
0.108404286 -0.2388282 1.693817 105 93 95
0.11009811 -0.2388282 1.693817 100 89 90
0.11141065 -0.23801364 1.68804 110 97 98
0.11309868 -0.23801364 1.68804 115 99 101
0.11478672 -0.23801364 1.68804 113 97 99
0.11647476 -0.23801364 1.68804 113 97 99
0.11768117 -0.23704349 1.6811595 114 99 100
0.119362324 -0.23704349 1.6811595 113 99 100
0.12153888 -0.23801364 1.68804 119 102 103
0.12322692 -0.23801364 1.68804 116 100 101
0.12491496 -0.23801364 1.68804 120 104 105
0.126603 -0.23801364 1.68804 118 102 105
0.12829104 -0.23801364 1.68804 125 107 109
0.12997907 -0.23801364 1.68804 125 107 108
0.1316671 -0.23801364 1.68804 120 103 104
0.13335517 -0.23801364 1.68804 124 104 106
0.13606414 -0.23981306 1.7008018 124 103 106
0.13776496 -0.23981306 1.7008018 124 104 105
0.13946576 -0.23981306 1.7008018 124 104 105
0.14058681 -0.2388282 1.693817 121 103 106
0.14286736 -0.23981306 1.7008018 119 101 104
0.14506666 -0.24064 1.7066667 120 101 103
0.1478953 -0.2424795 1.7197129 121 101 98
0.1519379 -0.24624419 1.7464126 122 95 88
0.15599619 -0.24994843 1.7726839 107 65 56
0.16017842 -0.25376582 1.7997576 126 71 68
0.1638852 -0.2567535 1.8209468 142 82 75
0.16693452 -0.2586568 1.8344454 166 101 89
0.17002939 -0.2605885 1.8481455 180 113 94
0.17252174 -0.2615652 1.8550725 191 120 100
0.17649369 -0.2647405 1.8775923 192 133 115
0.17905052 -0.26574868 1.8847424 215 182 161
0.18232387 -0.26778817 1.899207 218 192 173
0.18422309 -0.26778817 1.899207 214 190 169
0.18612228 -0.26778817 1.899207 216 192 172
0.1880215 -0.26778817 1.899207 221 197 176
0.1899207 -0.26778817 1.899207 221 195 174
0.1918199 -0.26778817 1.899207 216 192 172
0.19371912 -0.26778817 1.899207 214 187 168
0.19561832 -0.26778817 1.899207 207 182 163
0.19751753 -0.26778817 1.899207 209 183 164
0.19941673 -0.26778817 1.899207 209 183 164
0.20131595 -0.26778817 1.899207 215 188 169
0.20321515 -0.26778817 1.899207 217 190 171
0.20511435 -0.26778817 1.899207 219 191 172
0.20701356 -0.26778817 1.899207 211 188 168
0.20891276 -0.26778817 1.899207 211 187 166
0.21081199 -0.26778817 1.899207 220 193 173
0.21189807 -0.26676452 1.891947 216 191 170
0.2146104 -0.26778817 1.899207 219 195 174
0.21568196 -0.26676452 1.891947 216 192 172
0.2184088 -0.26778817 1.899207 214 191 171
0.22030802 -0.26778817 1.899207 217 193 171
0.22220722 -0.26778817 1.899207 219 195 173
0.22324976 -0.26676452 1.891947 216 192 170
0.22600563 -0.26778817 1.899207 219 195 173
0.22703364 -0.26676452 1.891947 221 195 174
0.2289256 -0.26676452 1.891947 213 188 168
0.22993857 -0.26574868 1.8847424 215 189 170
0.23182333 -0.26574868 1.8847424 210 186 166
0.23460142 -0.26676452 1.891947 213 189 170
0.23649338 -0.26676452 1.891947 209 183 165
0.23747754 -0.26574868 1.8847424 209 183 165
0.23845422 -0.2647405 1.8775923 206 182 165
0.24033181 -0.2647405 1.8775923 212 188 171
0.24313176 -0.26574868 1.8847424 213 190 172
0.24501652 -0.26574868 1.8847424 211 191 171
0.24690124 -0.26574868 1.8847424 216 195 176
0.248786 -0.26574868 1.8847424 212 190 172
0.25067073 -0.26574868 1.8847424 205 185 167
0.25159737 -0.2647405 1.8775923 215 192 174
0.25347495 -0.2647405 1.8775923 217 194 175
0.25535256 -0.2647405 1.8775923 216 193 175
0.25723016 -0.2647405 1.8775923 222 198 179
0.25910774 -0.2647405 1.8775923 217 193 175
0.2609853 -0.2647405 1.8775923 220 195 177
0.26286292 -0.2647405 1.8775923 219 196 178
0.2647405 -0.2647405 1.8775923 219 195 177
0.2666181 -0.2647405 1.8775923 221 197 180
0.2684957 -0.2647405 1.8775923 213 190 173
-0.26613292 -0.26243666 1.8481455 130 105 77
-0.2642848 -0.26243666 1.8481455 129 104 75
-0.26342028 -0.26342028 1.8550725 131 103 77
-0.2615652 -0.26342028 1.8550725 132 105 76
-0.25971013 -0.26342028 1.8550725 133 106 78
