ply
format ascii 1.0
element vertex 1074
property float32 x
property float32 y
property float32 z
property uchar red
property uchar green
property uchar blue
element face 0
property list uint8 int32 vertex_indices
end_header
0.16983007 -0.20732501 2.2055852 218 193 166
0.17203565 -0.20732501 2.2055852 221 193 168
0.1750212 -0.20825307 2.2154582 217 190 165
0.17723665 -0.20825307 2.2154582 218 193 166
0.18009703 -0.2090015 2.2234201 213 189 163
0.18232045 -0.2090015 2.2234201 219 195 167
0.18454386 -0.2090015 2.2234201 222 198 170
0.1867673 -0.2090015 2.2234201 221 197 170
0.18899071 -0.2090015 2.2234201 221 196 172
0.1905294 -0.20825307 2.2154582 222 195 171
0.19343755 -0.2090015 2.2234201 219 195 170
0.19496031 -0.20825307 2.2154582 221 197 172
0.19717579 -0.20825307 2.2154582 225 200 175
0.19939123 -0.20825307 2.2154582 228 201 176
0.20160669 -0.20825307 2.2154582 221 197 172
0.20382215 -0.20825307 2.2154582 219 195 170
0.20603761 -0.20825307 2.2154582 219 195 171
0.20825307 -0.20825307 2.2154582 217 192 170
0.21046852 -0.20825307 2.2154582 218 192 170
0.21344833 -0.2090015 2.2234201 225 200 175
0.21567175 -0.2090015 2.2234201 222 195 173
0.21789517 -0.2090015 2.2234201 215 188 167
0.2201186 -0.2090015 2.2234201 207 179 159
0.22234201 -0.2090015 2.2234201 214 186 165
0.22557883 -0.20994465 2.2334538 217 190 167
0.22678885 -0.2090015 2.2234201 219 190 165
0.22901227 -0.2090015 2.2234201 220 193 168
0.23123568 -0.2090015 2.2234201 222 195 171
0.23345912 -0.2090015 2.2234201 217 196 170
0.23568255 -0.2090015 2.2234201 220 193 170
0.23790596 -0.2090015 2.2234201 216 189 166
0.24012938 -0.2090015 2.2234201 214 188 167
0.24344645 -0.20994465 2.2334538 217 191 169
0.24567991 -0.20994465 2.2334538 219 195 173
0.24791336 -0.20994465 2.2334538 221 197 176
0.2501468 -0.20994465 2.2334538 221 196 174
0.25124648 -0.2090015 2.2234201 218 197 174
0.25346988 -0.2090015 2.2234201 218 197 176
0.25569332 -0.2090015 2.2234201 220 198 177
0.25791675 -0.2090015 2.2234201 223 201 178
0.26014018 -0.2090015 2.2234201 218 196 174
0.26236358 -0.2090015 2.2234201 217 190 172
0.26458701 -0.2090015 2.2234201 213 187 168
0.26681042 -0.2090015 2.2234201 212 186 168
0.26903385 -0.2090015 2.2234201 213 187 170
0.27125725 -0.2090015 2.2234201 217 190 172
0.27348068 -0.2090015 2.2234201 216 189 172
0.27570412 -0.2090015 2.2234201 217 191 171
0.27792752 -0.2090015 2.2234201 217 190 172
0.28015095 -0.2090015 2.2234201 216 190 169
0.28237435 -0.2090015 2.2234201 219 195 175
0.28459778 -0.2090015 2.2234201 218 192 174
0.2868212 -0.2090015 2.2234201 219 191 174
0.28904462 -0.2090015 2.2234201 215 189 171
0.29258242 -0.20994465 2.2334538 218 193 175
0.2948159 -0.20994465 2.2334538 222 195 177
0.29571488 -0.2090015 2.2234201 221 197 178
0.2979383 -0.2090015 2.2234201 222 198 178
0.30016172 -0.2090015 2.2234201 221 197 178
0.30238512 -0.2090015 2.2234201 222 200 181
0.30460855 -0.2090015 2.2234201 221 197 178
0.30683196 -0.2090015 2.2234201 221 197 180
0.3090554 -0.2090015 2.2234201 223 198 179
0.31127882 -0.2090015 2.2234201 223 200 181
0.3123796 -0.20825307 2.2154582 226 202 182
0.31459507 -0.20825307 2.2154582 223 202 183
0.31681052 -0.20825307 2.2154582 223 201 182
-0.3112245 -0.2053217 2.161281 171 112 87
-0.3090632 -0.2053217 2.161281 179 119 93
-0.3069019 -0.2053217 2.161281 180 119 98
-0.30474064 -0.2053217 2.161281 181 122 101
-0.30257934 -0.2053217 2.161281 183 124 102
-0.30041805 -0.2053217 2.161281 186 129 105
-0.29721844 -0.2046069 2.1537569 186 134 109
-0.29609552 -0.2053217 2.161281 183 135 111
-0.29291093 -0.2046069 2.1537569 181 135 110
-0.29075718 -0.2046069 2.1537569 178 130 107
-0.28860343 -0.2046069 2.1537569 174 124 104
-0.28644967 -0.2046069 2.1537569 179 130 105
-0.2842959 -0.2046069 2.1537569 189 143 113
-0.28214216 -0.2046069 2.1537569 187 147 114
-0.2799884 -0.2046069 2.1537569 188 143 112
-0.27783462 -0.2046069 2.1537569 185 145 116
-0.27568087 -0.2046069 2.1537569 182 145 118
-0.27352712 -0.2046069 2.1537569 176 141 114
-0.27137336 -0.2046069 2.1537569 174 146 117
-0.2692196 -0.2046069 2.1537569 172 144 119
-0.26706585 -0.2046069 2.1537569 170 142 104
-0.2637643 -0.20372038 2.1444252 173 142 90
-0.26275834 -0.2046069 2.1537569 173 142 84
-0.25947544 -0.20372038 2.1444252 176 144 84
-0.25845084 -0.2046069 2.1537569 172 141 80
-0.2551866 -0.20372038 2.1444252 172 139 76
-0.2541433 -0.2046069 2.1537569 172 137 75
-0.25198954 -0.2046069 2.1537569 167 133 72
-0.2498358 -0.2046069 2.1537569 168 134 67
-0.24768203 -0.2046069 2.1537569 166 133 65
-0.24552828 -0.2046069 2.1537569 166 132 66
-0.24337453 -0.2046069 2.1537569 163 128 64
-0.24122076 -0.2046069 2.1537569 159 126 64
-0.23906702 -0.2046069 2.1537569 156 124 62
-0.23691325 -0.2046069 2.1537569 152 121 62
-0.2347595 -0.2046069 2.1537569 149 119 61
-0.23260574 -0.2046069 2.1537569 148 116 61
-0.23045199 -0.2046069 2.1537569 149 117 62
-0.22829823 -0.2046069 2.1537569 151 118 61
-0.22614446 -0.2046069 2.1537569 147 116 58
-0.22399071 -0.2046069 2.1537569 147 118 64
-0.22183695 -0.2046069 2.1537569 147 120 83
-0.2196832 -0.2046069 2.1537569 149 125 97
-0.21752945 -0.2046069 2.1537569 151 131 111
-0.21537569 -0.2046069 2.1537569 152 132 116
-0.21322192 -0.2046069 2.1537569 152 132 110
-0.21106818 -0.2046069 2.1537569 152 131 110
-0.20891441 -0.2046069 2.1537569 149 129 109
-0.207483 -0.2053217 2.161281 150 130 111
-0.2053217 -0.2053217 2.161281 148 129 109
-0.20316043 -0.2053217 2.161281 150 130 110
-0.2002994 -0.2046069 2.1537569 148 130 110
-0.19814563 -0.2046069 2.1537569 152 132 111
-0.19599187 -0.2046069 2.1537569 153 133 113
-0.19383812 -0.2046069 2.1537569 155 135 114
-0.19085383 -0.20372038 2.1444252 153 132 112
-0.18870941 -0.20372038 2.1444252 147 128 108
-0.18656498 -0.20372038 2.1444252 146 126 106
-0.18442056 -0.20372038 2.1444252 149 128 106
-0.18227614 -0.20372038 2.1444252 149 130 110
-0.17873776 -0.2021439 2.1278305 152 133 114
-0.17450921 -0.19973947 2.1025207 157 137 120
-0.16633007 -0.19269946 2.0284154 156 130 107
-0.15858229 -0.18599156 1.957806 160 119 95
-0.14730158 -0.17492063 1.8412699 167 119 91
-0.14438602 -0.17362875 1.8276712 172 120 89
-0.14203385 -0.17298995 1.8209468 180 121 92
-0.14021291 -0.17298995 1.8209468 187 124 97
-0.13890302 -0.17362875 1.8276712 189 126 98
-0.13707533 -0.17362875 1.8276712 192 129 99
-0.13475007 -0.17298995 1.8209468 196 133 101
-0.13342 -0.17362875 1.8276712 201 135 103
-0.13159233 -0.17362875 1.8276712 205 137 107
-0.12976465 -0.17362875 1.8276712 206 139 112
-0.12793697 -0.17362875 1.8276712 209 140 115
-0.12610932 -0.17362875 1.8276712 210 142 113
-0.12382439 -0.17298995 1.8209468 211 143 116
-0.12146716 -0.17222956 1.8129426 211 144 116
-0.119654216 -0.17222956 1.8129426 211 145 117
-0.11784127 -0.17222956 1.8129426 211 145 117
-0.116540596 -0.17298995 1.8209468 210 142 114
-0.11471965 -0.17298995 1.8209468 206 138 111
-0.11289871 -0.17298995 1.8209468 205 136 110
-0.111077756 -0.17298995 1.8209468 204 135 110
-0.109256804 -0.17298995 1.8209468 201 132 107
-0.10743586 -0.17298995 1.8209468 198 129 105
-0.10600493 -0.17362875 1.8276712 198 128 104
-0.10417725 -0.17362875 1.8276712 199 129 104
-0.10234959 -0.17362875 1.8276712 203 132 108
-0.100521915 -0.17362875 1.8276712 206 136 112
-0.09869424 -0.17362875 1.8276712 213 142 117
-0.09686657 -0.17362875 1.8276712 220 150 122
-0.095038906 -0.17362875 1.8276712 224 151 120
-0.09355672 -0.17427231 1.8344454 222 150 119
-0.092063494 -0.17492063 1.8412699 206 126 106
-0.090559125 -0.17557383 1.8481455 205 117 101
-0.08904348 -0.17623189 1.8550725 209 123 106
-0.08718841 -0.17623189 1.8550725 207 121 103
-0.085977845 -0.17756294 1.8690836 212 125 106
-0.08410876 -0.17756294 1.8690836 211 125 105
-0.08261406 -0.17837128 1.8775923 215 129 108
-0.08073647 -0.17837128 1.8775923 219 131 110
-0.07885888 -0.17837128 1.8775923 218 132 110
-0.077274434 -0.17905052 1.8847424 222 134 112
-0.07538969 -0.17905052 1.8847424 224 137 113
-0.07378593 -0.17973498 1.891947 224 136 114
-0.07189399 -0.17973498 1.891947 225 136 114
-0.07027066 -0.18042466 1.899207 225 136 114
-0.06863482 -0.18111968 1.9065229 227 138 115
-0.0667283 -0.18111968 1.9065229 226 137 117
-0.06507244 -0.18182005 1.9138954 224 136 115
-0.063403726 -0.18252587 1.9213251 224 134 114
-0.061722007 -0.18323721 1.9288127 209 123 105
-0.060027126 -0.1839541 1.9363589 208 123 106
-0.05809077 -0.1839541 1.9363589 214 125 109
-0.05637497 -0.18467662 1.9439645 214 128 111
-0.05464564 -0.18540484 1.9516299 200 122 104
-0.052860763 -0.18599156 1.957806 161 97 87
-0.05130888 -0.18747476 1.9734185 116 63 54
-0.049732048 -0.18898179 1.9892819 109 55 44
-0.047935434 -0.18974441 1.9973097 102 50 40
-0.045938123 -0.18974441 1.9973097 93 49 42
-0.04411886 -0.19051324 2.0054026 77 40 34
-0.042113453 -0.19051324 2.0054026 59 31 25
-0.04040272 -0.19191293 2.020136 62 33 27
-0.038382586 -0.19191293 2.020136 72 36 29
-0.036511477 -0.19269946 2.0284154 83 41 32
-0.034483064 -0.19269946 2.0284154 100 48 40
-0.03232218 -0.19191293 2.020136 106 50 43
-0.030302042 -0.19191293 2.020136 110 53 46
-0.028281907 -0.19191293 2.020136 110 52 44
-0.026261771 -0.19191293 2.020136 109 52 43
-0.024241634 -0.19191293 2.020136 108 51 42
-0.022221496 -0.19191293 2.020136 107 51 41
-0.02020136 -0.19191293 2.020136 109 52 42
-0.018181225 -0.19191293 2.020136 110 54 44
-0.01616109 -0.19191293 2.020136 111 56 46
-0.014140953 -0.19191293 2.020136 112 55 45
-0.012120817 -0.19191293 2.020136 113 55 47
-0.01010068 -0.19191293 2.020136 105 50 47
-0.008080545 -0.19191293 2.020136 89 40 36
-0.0060604084 -0.19191293 2.020136 88 44 40
-0.0040402724 -0.19191293 2.020136 83 40 37
-0.0020135613 -0.19128832 2.0135612 86 35 32
0.0 -0.19128832 2.0135612 125 66 59
0.0019973097 -0.18974441 1.9973097 127 63 53
0.003978564 -0.18898179 1.9892819 124 63 50
0.005967846 -0.18898179 1.9892819 128 65 52
0.007925274 -0.18822525 1.9813185 135 71 55
0.009906593 -0.18822525 1.9813185 132 70 56
0.011840511 -0.18747476 1.9734185 134 76 65
0.01381393 -0.18747476 1.9734185 110 59 44
0.015787348 -0.18747476 1.9734185 139 81 69
0.017690232 -0.1867302 1.9655812 144 85 71
0.01965581 -0.1867302 1.9655812 157 91 79
0.021621393 -0.1867302 1.9655812 141 85 72
0.023493672 -0.18599156 1.957806 140 87 77
0.025371188 -0.18540484 1.9516299 176 103 90
0.02732282 -0.18540484 1.9516299 193 111 96
0.029274449 -0.18540484 1.9516299 187 108 94
0.031226078 -0.18540484 1.9516299 173 104 90
0.033047397 -0.18467662 1.9439645 197 116 101
0.03485446 -0.1839541 1.9363589 193 115 102
0.03679082 -0.1839541 1.9363589 175 107 95
0.03872718 -0.1839541 1.9363589 198 117 104
0.040663537 -0.1839541 1.9363589 211 123 108
0.04243388 -0.18323721 1.9288127 196 119 103
0.044536255 -0.1839541 1.9363589 216 131 112
0.046291504 -0.18323721 1.9288127 193 113 99
0.048033126 -0.18252587 1.9213251 163 93 81
0.04995445 -0.18252587 1.9213251 147 81 72
0.051875778 -0.18252587 1.9213251 133 70 60
0.05358907 -0.18182005 1.9138954 130 64 45
0.05528916 -0.18111968 1.9065229 130 64 47
0.057195686 -0.18111968 1.9065229 136 69 53
0.059102207 -0.18111968 1.9065229 144 79 64
0.061008733 -0.18111968 1.9065229 154 86 74
0.06267383 -0.18042466 1.899207 172 96 87
0.064573035 -0.18042466 1.899207 188 108 96
0.06647225 -0.18042466 1.899207 206 121 106
0.06837145 -0.18042466 1.899207 202 119 105
0.07027066 -0.18042466 1.899207 188 114 97
0.07216987 -0.18042466 1.899207 185 112 94
0.074069075 -0.18042466 1.899207 193 116 97
0.07567788 -0.17973498 1.891947 189 112 95
0.077867486 -0.18042466 1.899207 156 96 82
0.079461776 -0.17973498 1.891947 138 78 71
0.08073647 -0.17837128 1.8775923 129 74 66
0.08223968 -0.17756294 1.8690836 122 85 72
0.08410876 -0.17756294 1.8690836 186 127 104
0.085977845 -0.17756294 1.8690836 216 152 117
0.08653968 -0.17492063 1.8412699 219 157 121
0.088710986 -0.17557383 1.8481455 222 159 123
0.090559125 -0.17557383 1.8481455 220 156 120
0.09240727 -0.17557383 1.8481455 207 141 112
0.09425542 -0.17557383 1.8481455 200 133 106
0.096103564 -0.17557383 1.8481455 196 131 104
0.09795171 -0.17557383 1.8481455 196 129 104
0.09979986 -0.17557383 1.8481455 189 124 102
0.101648 -0.17557383 1.8481455 184 121 102
0.10349615 -0.17557383 1.8481455 188 124 103
0.10534429 -0.17557383 1.8481455 197 129 108
0.107192434 -0.17557383 1.8481455 201 136 113
0.10904058 -0.17557383 1.8481455 208 139 115
0.110888734 -0.17557383 1.8481455 212 142 118
0.11273688 -0.17557383 1.8481455 214 144 120
0.11458502 -0.17557383 1.8481455 218 149 123
0.116433166 -0.17557383 1.8481455 220 151 126
0.11828131 -0.17557383 1.8481455 221 151 125
0.12012946 -0.17557383 1.8481455 220 148 122
0.1219776 -0.17557383 1.8481455 216 146 119
0.124289855 -0.17623189 1.8550725 214 143 116
0.12661952 -0.17689492 1.8620517 213 142 115
0.128 -0.17623189 1.8550725 210 141 115
0.13034363 -0.17689492 1.8620517 208 140 114
0.1348437 -0.18042466 1.899207 201 138 114
0.14380631 -0.18974441 1.9973097 220 171 144
0.15466668 -0.20127854 2.1187215 224 200 173
0.1612019 -0.20694837 2.1784039 221 196 170
0.1633803 -0.20694837 2.1784039 217 192 165
0.16629061 -0.20786326 2.1880343 221 195 169
0.16907659 -0.20860101 2.1958 222 196 170
0.17066666 -0.20786326 2.1880343 221 194 169
0.1734682 -0.20860101 2.1958 218 192 166
0.17644683 -0.20953059 2.2055852 222 194 169
0.17945212 -0.21046852 2.2154582 220 196 170
0.18166757 -0.21046852 2.2154582 216 193 167
0.18454386 -0.21122491 2.2234201 219 196 169
0.1867673 -0.21122491 2.2234201 226 201 175
0.18899071 -0.21122491 2.2234201 222 196 172
0.19121413 -0.21122491 2.2234201 221 195 172
0.19274485 -0.21046852 2.2154582 223 196 173
0.19496031 -0.21046852 2.2154582 224 198 174
0.19717579 -0.21046852 2.2154582 222 197 174
0.19939123 -0.21046852 2.2154582 226 201 177
0.20160669 -0.21046852 2.2154582 224 198 174
0.20382215 -0.21046852 2.2154582 217 192 169
0.20603761 -0.21046852 2.2154582 212 190 167
0.20825307 -0.21046852 2.2154582 222 197 173
0.21046852 -0.21046852 2.2154582 223 199 175
0.21344833 -0.21122491 2.2234201 225 198 175
0.21489945 -0.21046852 2.2154582 225 202 177
0.2171149 -0.21046852 2.2154582 225 200 175
0.21933036 -0.21046852 2.2154582 224 196 174
0.22234201 -0.21122491 2.2234201 212 186 165
0.22456543 -0.21122491 2.2234201 212 186 163
0.22597674 -0.21046852 2.2154582 216 189 166
0.22819218 -0.21046852 2.2154582 217 190 166
0.23040766 -0.21046852 2.2154582 218 194 169
0.23262312 -0.21046852 2.2154582 217 193 167
0.23483856 -0.21046852 2.2154582 222 197 172
0.23705402 -0.21046852 2.2154582 216 189 166
0.23926948 -0.21046852 2.2154582 216 189 166
0.24148494 -0.21046852 2.2154582 215 189 166
0.2437004 -0.21046852 2.2154582 213 189 168
0.24591585 -0.21046852 2.2154582 215 189 169
0.24902305 -0.21122491 2.2234201 224 197 176
0.25034678 -0.21046852 2.2154582 219 196 174
0.25256222 -0.21046852 2.2154582 216 193 171
0.2547777 -0.21046852 2.2154582 216 194 172
0.25699314 -0.21046852 2.2154582 217 195 171
0.25920862 -0.21046852 2.2154582 217 193 171
0.26142406 -0.21046852 2.2154582 220 194 172
0.26363954 -0.21046852 2.2154582 212 186 167
0.26585498 -0.21046852 2.2154582 207 181 162
0.26807043 -0.21046852 2.2154582 211 185 164
0.27028587 -0.21046852 2.2154582 211 185 165
0.27250135 -0.21046852 2.2154582 210 184 163
0.2747168 -0.21046852 2.2154582 214 188 167
0.27693227 -0.21046852 2.2154582 218 191 169
0.27914774 -0.21046852 2.2154582 215 188 168
0.2813632 -0.21046852 2.2154582 217 192 171
0.28357863 -0.21046852 2.2154582 220 194 175
0.2868212 -0.21122491 2.2234201 220 195 175
0.28904462 -0.21122491 2.2234201 220 193 174
0.29126805 -0.21122491 2.2234201 224 199 178
0.29349145 -0.21122491 2.2234201 220 194 175
0.29571488 -0.21122491 2.2234201 219 195 175
0.2979383 -0.21122491 2.2234201 220 196 175
0.30016172 -0.21122491 2.2234201 221 197 178
0.30238512 -0.21122491 2.2234201 223 199 180
0.30460855 -0.21122491 2.2234201 218 197 178
0.3057332 -0.21046852 2.2154582 220 195 178
0.30794868 -0.21046852 2.2154582 219 197 178
0.31016415 -0.21046852 2.2154582 220 197 180
0.3123796 -0.21046852 2.2154582 224 200 183
0.31459507 -0.21046852 2.2154582 225 203 184
0.3153987 -0.20953059 2.2055852 226 202 184
-0.3112245 -0.207483 2.161281 177 104 78
-0.3090632 -0.207483 2.161281 183 106 80
-0.30583346 -0.20676064 2.1537569 181 107 76
-0.3036797 -0.20676064 2.1537569 182 108 77
-0.30152598 -0.20676064 2.1537569 179 107 77
-0.2993722 -0.20676064 2.1537569 173 103 77
-0.29721844 -0.20676064 2.1537569 178 106 78
-0.2950647 -0.20676064 2.1537569 178 106 78
-0.29291093 -0.20676064 2.1537569 177 106 78
-0.29075718 -0.20676064 2.1537569 171 98 73
-0.28860343 -0.20676064 2.1537569 160 90 65
-0.28644967 -0.20676064 2.1537569 158 90 63
-0.2842959 -0.20676064 2.1537569 170 101 73
-0.28214216 -0.20676064 2.1537569 174 106 76
-0.2799884 -0.20676064 2.1537569 174 104 75
-0.27783462 -0.20676064 2.1537569 172 104 78
-0.27568087 -0.20676064 2.1537569 170 107 81
-0.27352712 -0.20676064 2.1537569 162 113 88
-0.27137336 -0.20676064 2.1537569 166 127 100
-0.2692196 -0.20676064 2.1537569 169 137 116
-0.26590872 -0.2058648 2.1444252 170 142 117
-0.2637643 -0.2058648 2.1444252 171 145 112
-0.26161987 -0.2058648 2.1444252 171 146 108
-0.25947544 -0.2058648 2.1444252 171 146 107
-0.25622088 -0.20497671 2.135174 173 148 107
-0.25408572 -0.20497671 2.135174 170 143 101
-0.25195053 -0.20497671 2.135174 171 143 104
-0.25089774 -0.2058648 2.1444252 169 139 97
-0.24875331 -0.2058648 2.1444252 161 132 87
-0.24554501 -0.20497671 2.135174 157 128 83
-0.24257268 -0.20427173 2.1278305 157 128 83
-0.24044485 -0.20427173 2.1278305 153 126 82
-0.2391395 -0.20497671 2.135174 153 125 80
-0.23700432 -0.20497671 2.135174 148 122 79
-0.23486914 -0.20497671 2.135174 147 122 77
-0.23273396 -0.20497671 2.135174 146 120 77
-0.2305988 -0.20497671 2.135174 149 122 77
-0.22846362 -0.20497671 2.135174 144 117 74
-0.22632845 -0.20497671 2.135174 147 120 74
-0.22419327 -0.20497671 2.135174 144 118 72
-0.22302021 -0.2058648 2.1444252 146 119 78
-0.2208758 -0.2058648 2.1444252 145 120 92
-0.21873137 -0.2058648 2.1444252 146 124 103
-0.21658695 -0.2058648 2.1444252 145 126 110
-0.21444252 -0.2058648 2.1444252 145 125 110
-0.2122981 -0.2058648 2.1444252 148 127 107
-0.21015367 -0.2058648 2.1444252 149 129 109
-0.20800924 -0.2058648 2.1444252 147 129 109
-0.20497671 -0.20497671 2.135174 145 127 108
-0.20372038 -0.2058648 2.1444252 144 125 106
-0.20157596 -0.2058648 2.1444252 143 123 105
-0.19943154 -0.2058648 2.1444252 145 126 107
-0.196436 -0.20497671 2.135174 150 130 110
-0.19430085 -0.20497671 2.135174 151 131 110
-0.19299826 -0.2058648 2.1444252 152 131 111
-0.19003049 -0.20497671 2.135174 151 130 110
-0.18870941 -0.2058648 2.1444252 150 130 110
-0.18576014 -0.20497671 2.135174 148 128 108
-0.18362497 -0.20497671 2.135174 153 133 111
-0.1808656 -0.20427173 2.1278305 148 130 111
-0.17797261 -0.20339726 2.1187215 149 132 112
-0.17031288 -0.19698839 2.0519624 154 134 116
-0.1594051 -0.1866206 1.9439645 157 123 99
-0.15139578 -0.17943203 1.8690836 163 117 92
-0.14675564 -0.17610675 1.8344454 171 119 90
-0.14438602 -0.17545643 1.8276712 173 120 90
-0.14308673 -0.17610675 1.8344454 182 121 93
-0.14073068 -0.17545643 1.8276712 188 124 97
-0.13890302 -0.17545643 1.8276712 190 126 98
-0.13707533 -0.17545643 1.8276712 193 127 98
-0.13475007 -0.1748109 1.8209468 197 131 100
-0.13292912 -0.1748109 1.8209468 203 134 103
-0.13110816 -0.1748109 1.8209468 205 137 106
-0.12871893 -0.1740425 1.8129426 208 139 112
-0.12746628 -0.1748109 1.8209468 210 139 117
-0.12564534 -0.1748109 1.8209468 212 142 114
-0.12382439 -0.1748109 1.8209468 211 145 117
-0.12146716 -0.1740425 1.8129426 213 146 117
-0.119654216 -0.1740425 1.8129426 213 146 117
-0.11784127 -0.1740425 1.8129426 212 145 117
-0.116540596 -0.1748109 1.8209468 207 142 114
-0.11421539 -0.1740425 1.8129426 204 136 111
-0.11289871 -0.1748109 1.8209468 203 134 110
-0.111077756 -0.1748109 1.8209468 200 131 108
-0.109256804 -0.1748109 1.8209468 195 128 106
-0.10743586 -0.1748109 1.8209468 196 127 105
-0.105614915 -0.1748109 1.8209468 197 126 104
-0.10417725 -0.17545643 1.8276712 199 128 105
-0.10234959 -0.17545643 1.8276712 202 132 108
-0.100521915 -0.17545643 1.8276712 203 136 111
-0.09869424 -0.17545643 1.8276712 211 144 116
-0.09686657 -0.17545643 1.8276712 223 155 124
-0.095038906 -0.17545643 1.8276712 230 163 130
-0.093211226 -0.17545643 1.8276712 231 164 129
-0.091722265 -0.17610675 1.8344454 224 152 119
-0.08988783 -0.17610675 1.8344454 197 117 98
-0.08838095 -0.1767619 1.8412699 193 112 96
-0.08718841 -0.17808697 1.8550725 195 112 96
-0.08565438 -0.17875695 1.8620517 202 117 99
-0.08379233 -0.17875695 1.8620517 207 120 102
-0.08193027 -0.17875695 1.8620517 210 124 104
-0.08073647 -0.18024887 1.8775923 213 127 107
-0.07885888 -0.18024887 1.8775923 218 131 110
-0.07698128 -0.18024887 1.8775923 219 132 111
-0.07510369 -0.18024887 1.8775923 222 134 112
-0.073504955 -0.18093528 1.8847424 221 135 113
-0.07189399 -0.18162692 1.891947 224 136 114
-0.070002034 -0.18162692 1.891947 225 136 114
-0.06837145 -0.18232387 1.899207 223 135 113
-0.0667283 -0.1830262 1.9065229 226 137 117
-0.06507244 -0.18373396 1.9138954 223 136 115
-0.063403726 -0.1844472 1.9213251 223 134 113
-0.061963487 -0.18589045 1.9363589 222 130 110
-0.059793193 -0.18516602 1.9288127 209 123 107
-0.057864383 -0.18516602 1.9288127 214 124 109
-0.056154408 -0.18589045 1.9363589 214 128 113
-0.054218046 -0.18589045 1.9363589 206 127 110
-0.05248704 -0.1866206 1.9439645 183 111 98
-0.050902955 -0.18794937 1.957806 126 75 65
-0.04953296 -0.19020657 1.9813185 110 58 46
-0.047935434 -0.19174173 1.9973097 104 53 41
-0.04612426 -0.19251865 2.0054026 97 51 41
-0.04411886 -0.19251865 2.0054026 83 42 36
-0.042113453 -0.19251865 2.0054026 60 32 25
-0.040271226 -0.19330189 2.0135612 53 27 20
-0.038257662 -0.19330189 2.0135612 68 36 28
-0.03636245 -0.19393307 2.020136 77 38 28
-0.03423054 -0.19330189 2.0135612 88 42 33
-0.03232218 -0.19393307 2.020136 100 47 40
-0.030302042 -0.19393307 2.020136 106 50 42
-0.028281907 -0.19393307 2.020136 109 52 43
-0.026261771 -0.19393307 2.020136 109 52 43
-0.024241634 -0.19393307 2.020136 108 51 42
-0.022221496 -0.19393307 2.020136 108 51 41
-0.02020136 -0.19393307 2.020136 107 50 40
-0.018181225 -0.19393307 2.020136 102 48 36
-0.01616109 -0.19393307 2.020136 88 43 26
-0.014140953 -0.19393307 2.020136 93 48 33
-0.012120817 -0.19393307 2.020136 112 55 46
-0.01010068 -0.19393307 2.020136 104 50 47
-0.008080545 -0.19393307 2.020136 87 38 34
-0.0060604084 -0.19393307 2.020136 81 39 35
-0.0040402724 -0.19393307 2.020136 76 36 32
-0.0020201362 -0.19393307 2.020136 83 35 31
0.0 -0.19174173 1.9973097 126 66 59
0.0019973097 -0.19174173 1.9973097 127 64 53
0.0039946195 -0.19174173 1.9973097 126 65 53
0.005967846 -0.19097108 1.9892819 131 67 55
0.007957128 -0.19097108 1.9892819 133 72 56
0.009906593 -0.19020657 1.9813185 132 71 58
0.011887911 -0.19020657 1.9813185 132 72 62
0.01386923 -0.19020657 1.9813185 122 68 54
0.015787348 -0.18944818 1.9734185 139 80 68
0.017760767 -0.18944818 1.9734185 146 85 72
0.019734185 -0.18944818 1.9734185 165 95 82
0.021535866 -0.18794937 1.957806 158 93 82
0.023493672 -0.18794937 1.957806 171 102 91
0.025371188 -0.18735647 1.9516299 192 110 96
0.02732282 -0.18735647 1.9516299 173 101 89
0.029274449 -0.18735647 1.9516299 164 96 84
0.031226078 -0.18735647 1.9516299 201 116 100
0.033047397 -0.1866206 1.9439645 190 111 99
0.03485446 -0.18589045 1.9363589 154 97 87
0.03679082 -0.18589045 1.9363589 120 81 67
0.038576256 -0.18516602 1.9288127 196 120 105
0.040505067 -0.18516602 1.9288127 200 119 103
0.04243388 -0.18516602 1.9288127 212 122 105
0.044362694 -0.18516602 1.9288127 178 101 88
0.0461118 -0.1844472 1.9213251 148 83 70
0.048033126 -0.1844472 1.9213251 141 74 60
0.04995445 -0.1844472 1.9213251 137 68 57
0.051675174 -0.18373396 1.9138954 143 71 58
0.05358907 -0.18373396 1.9138954 146 77 58
0.05528916 -0.1830262 1.9065229 146 80 63
0.057195686 -0.1830262 1.9065229 154 86 74
0.058875415 -0.18232387 1.899207 178 102 89
0.061008733 -0.1830262 1.9065229 194 111 97
0.06267383 -0.18232387 1.899207 209 122 107
0.064326204 -0.18162692 1.891947 208 123 108
0.06647225 -0.18232387 1.899207 205 120 106
0.06811009 -0.18162692 1.891947 203 123 105
0.07027066 -0.18232387 1.899207 216 129 109
0.07189399 -0.18162692 1.891947 204 121 102
0.07378593 -0.18162692 1.891947 199 120 101
0.07567788 -0.18162692 1.891947 195 119 100
0.077569835 -0.18162692 1.891947 175 107 92
0.07915918 -0.18093528 1.8847424 176 105 93
0.08073647 -0.18024887 1.8775923 157 95 86
0.08223968 -0.17943203 1.8690836 145 99 85
0.08379233 -0.17875695 1.8620517 217 151 120
0.08533333 -0.17808697 1.8550725 219 159 122
0.08686284 -0.17742197 1.8481455 224 163 126
0.088710986 -0.17742197 1.8481455 224 164 127
0.090559125 -0.17742197 1.8481455 224 162 125
0.09240727 -0.17742197 1.8481455 218 154 121
0.09425542 -0.17742197 1.8481455 210 144 116
0.096103564 -0.17742197 1.8481455 202 137 112
0.09795171 -0.17742197 1.8481455 196 131 107
0.09979986 -0.17742197 1.8481455 183 122 100
0.101648 -0.17742197 1.8481455 175 115 96
0.10311112 -0.1767619 1.8412699 176 116 97
0.10495239 -0.1767619 1.8412699 186 123 103
0.107192434 -0.17742197 1.8481455 197 130 109
0.10863492 -0.1767619 1.8412699 205 137 114
0.11047619 -0.1767619 1.8412699 210 141 116
0.11231746 -0.1767619 1.8412699 213 143 119
0.11458502 -0.17742197 1.8481455 216 146 122
0.116 -0.1767619 1.8412699 219 150 125
0.11784127 -0.1767619 1.8412699 222 150 125
0.12012946 -0.17742197 1.8481455 221 149 124
0.1219776 -0.17742197 1.8481455 218 147 120
0.124289855 -0.17808697 1.8550725 215 144 116
0.12614493 -0.17808697 1.8550725 213 142 115
0.128 -0.17808697 1.8550725 212 142 115
0.13034363 -0.17875695 1.8620517 211 141 115
0.13330905 -0.18024887 1.8775923 205 139 114
0.14096203 -0.18794937 1.957806 194 142 119
0.15167983 -0.19946936 2.0778058 229 202 173
0.159378 -0.20676064 2.1537569 222 200 172
0.16209608 -0.207483 2.161281 219 194 168
0.16629061 -0.2100513 2.1880343 215 191 166
0.16907659 -0.21079682 2.1958 225 200 173
0.1712724 -0.21079682 2.1958 218 194 168
0.1734682 -0.21079682 2.1958 222 194 169
0.17566401 -0.21079682 2.1958 212 186 162
0.1786524 -0.21173617 2.2055852 214 189 164
0.18085799 -0.21173617 2.2055852 216 191 166
0.18306357 -0.21173617 2.2055852 220 195 169
0.18609849 -0.21268399 2.2154582 218 195 169
0.18747474 -0.21173617 2.2055852 224 197 175
0.18968032 -0.21173617 2.2055852 222 197 173
0.1918859 -0.21173617 2.2055852 220 194 172
0.19409151 -0.21173617 2.2055852 221 196 173
0.1962971 -0.21173617 2.2055852 221 195 172
0.19850267 -0.21173617 2.2055852 217 193 171
0.20070826 -0.21173617 2.2055852 222 197 173
0.20291385 -0.21173617 2.2055852 224 199 175
0.20511943 -0.21173617 2.2055852 222 199 175
0.20732501 -0.21173617 2.2055852 219 198 173
0.20953059 -0.21173617 2.2055852 219 194 171
0.21173617 -0.21173617 2.2055852 222 195 173
0.21394177 -0.21173617 2.2055852 220 196 173
0.21614735 -0.21173617 2.2055852 223 200 175
0.21835293 -0.21173617 2.2055852 223 197 174
0.22055852 -0.21173617 2.2055852 221 195 172
0.22376128 -0.21268399 2.2154582 210 184 162
0.22597674 -0.21268399 2.2154582 214 188 164
0.22819218 -0.21268399 2.2154582 213 188 164
0.23040766 -0.21268399 2.2154582 217 191 166
0.23262312 -0.21268399 2.2154582 213 188 165
0.23483856 -0.21268399 2.2154582 218 193 170
0.23705402 -0.21268399 2.2154582 221 194 171
0.23926948 -0.21268399 2.2154582 213 188 165
0.24148494 -0.21268399 2.2154582 215 188 166
0.2437004 -0.21268399 2.2154582 219 189 169
0.24591585 -0.21268399 2.2154582 217 190 169
0.24813132 -0.21268399 2.2154582 221 193 172
0.25034678 -0.21268399 2.2154582 217 192 170
0.25256222 -0.21268399 2.2154582 218 191 170
0.2547777 -0.21268399 2.2154582 223 197 176
0.25699314 -0.21268399 2.2154582 218 192 171
0.25920862 -0.21268399 2.2154582 215 190 169
0.26142406 -0.21268399 2.2154582 220 192 171
0.26363954 -0.21268399 2.2154582 220 193 171
0.26585498 -0.21268399 2.2154582 215 189 169
0.26807043 -0.21268399 2.2154582 212 186 165
0.27028587 -0.21268399 2.2154582 211 185 165
0.27250135 -0.21268399 2.2154582 212 186 165
0.2747168 -0.21268399 2.2154582 216 189 168
0.27569816 -0.21173617 2.2055852 218 191 170
0.27790374 -0.21173617 2.2055852 221 194 173
0.2813632 -0.21268399 2.2154582 223 196 175
0.28357863 -0.21268399 2.2154582 219 192 173
0.2857941 -0.21268399 2.2154582 218 191 173
0.28800955 -0.21268399 2.2154582 217 191 172
0.290225 -0.21268399 2.2154582 219 195 175
0.2924405 -0.21268399 2.2154582 222 198 177
0.29465595 -0.21268399 2.2154582 218 197 176
0.2968714 -0.21268399 2.2154582 222 197 177
0.29908684 -0.21268399 2.2154582 221 197 178
0.3013023 -0.21268399 2.2154582 218 196 178
0.30351776 -0.21268399 2.2154582 219 195 177
0.30437076 -0.21173617 2.2055852 221 197 179
0.30657634 -0.21173617 2.2055852 222 198 180
0.30878192 -0.21173617 2.2055852 220 197 181
0.31098753 -0.21173617 2.2055852 222 200 182
0.3131931 -0.21173617 2.2055852 225 201 184
0.3153987 -0.21173617 2.2055852 226 201 184
-0.3112245 -0.20964427 2.161281 187 108 81
-0.3090632 -0.20964427 2.161281 184 106 80
-0.30583346 -0.20891441 2.1537569 181 106 76
-0.3036797 -0.20891441 2.1537569 181 106 75
-0.30152598 -0.20891441 2.1537569 177 104 73
-0.2993722 -0.20891441 2.1537569 176 101 72
-0.29721844 -0.20891441 2.1537569 174 101 72
-0.2950647 -0.20891441 2.1537569 174 100 72
-0.2916418 -0.20800924 2.1444252 173 99 72
-0.2894974 -0.20800924 2.1444252 166 92 66
-0.28735298 -0.20800924 2.1444252 155 83 58
-0.28520855 -0.20800924 2.1444252 154 82 55
-0.28306413 -0.20800924 2.1444252 167 91 64
-0.2809197 -0.20800924 2.1444252 171 97 68
-0.27877527 -0.20800924 2.1444252 172 96 68
-0.27663085 -0.20800924 2.1444252 170 98 69
-0.27448642 -0.20800924 2.1444252 172 100 72
-0.27234197 -0.20800924 2.1444252 163 109 87
-0.27019757 -0.20800924 2.1444252 168 128 105
-0.26805314 -0.20800924 2.1444252 168 143 120
-0.26476157 -0.20711188 2.135174 170 147 124
-0.2626264 -0.20711188 2.135174 170 149 126
-0.26049125 -0.20711188 2.135174 171 152 125
-0.25835603 -0.20711188 2.135174 167 149 123
-0.25622088 -0.20711188 2.135174 164 146 122
-0.25408572 -0.20711188 2.135174 164 146 119
-0.25195053 -0.20711188 2.135174 167 144 120
-0.24981537 -0.20711188 2.135174 159 138 113
-0.24768019 -0.20711188 2.135174 155 134 104
-0.2447005 -0.20639956 2.1278305 156 133 101
-0.24257268 -0.20639956 2.1278305 158 135 104
-0.24044485 -0.20639956 2.1278305 154 132 104
-0.23831701 -0.20639956 2.1278305 152 129 104
-0.23700432 -0.20711188 2.135174 150 128 104
-0.23486914 -0.20711188 2.135174 149 127 103
-0.23193353 -0.20639956 2.1278305 148 126 101
-0.2298057 -0.20639956 2.1278305 147 123 98
-0.22846362 -0.20711188 2.135174 146 121 96
-0.22555004 -0.20639956 2.1278305 146 122 95
-0.22419327 -0.20711188 2.135174 148 123 95
-0.22129437 -0.20639956 2.1278305 147 123 95
-0.21916653 -0.20639956 2.1278305 144 122 98
-0.2170387 -0.20639956 2.1278305 146 125 107
-0.21565257 -0.20711188 2.135174 147 126 112
-0.21278305 -0.20639956 2.1278305 146 125 110
-0.21065521 -0.20639956 2.1278305 144 125 105
-0.20852739 -0.20639956 2.1278305 149 129 109
-0.20639956 -0.20639956 2.1278305 151 131 111
-0.20497671 -0.20711188 2.135174 150 130 109
-0.20284154 -0.20711188 2.135174 146 127 107
-0.20070636 -0.20711188 2.135174 150 130 111
-0.19857118 -0.20711188 2.135174 150 130 110
-0.1957604 -0.20639956 2.1278305 150 130 110
-0.19363257 -0.20639956 2.1278305 153 131 112
-0.19216566 -0.20711188 2.135174 151 129 110
-0.19003049 -0.20711188 2.135174 148 126 108
-0.18789531 -0.20711188 2.135174 148 129 109
-0.18576014 -0.20711188 2.135174 151 131 110
-0.18362497 -0.20711188 2.135174 152 130 111
-0.18009132 -0.205516 2.1187215 150 130 112
-0.17586464 -0.20308179 2.0936267 149 132 112
-0.1657767 -0.19373904 1.9973097 155 131 111
-0.15573497 -0.18422309 1.899207 157 116 93
-0.15026088 -0.17994203 1.8550725 167 115 89
-0.14675564 -0.17794119 1.8344454 173 120 91
-0.14492118 -0.17794119 1.8344454 173 119 89
-0.14308673 -0.17794119 1.8344454 184 121 93
-0.1412523 -0.17794119 1.8344454 187 122 97
-0.13941784 -0.17794119 1.8344454 191 125 98
-0.13707533 -0.1772841 1.8276712 193 127 98
-0.13475007 -0.17663184 1.8209468 195 129 99
-0.13292912 -0.17663184 1.8209468 203 134 102
-0.13053188 -0.17585544 1.8129426 205 136 107
-0.12928721 -0.17663184 1.8209468 208 139 112
-0.12746628 -0.17663184 1.8209468 211 140 117
-0.12564534 -0.17663184 1.8209468 213 142 116
-0.1232801 -0.17585544 1.8129426 212 145 118
-0.12146716 -0.17585544 1.8129426 215 147 119
-0.119654216 -0.17585544 1.8129426 215 146 119
-0.11784127 -0.17585544 1.8129426 212 145 118
-0.116540596 -0.17663184 1.8209468 208 141 115
-0.11421539 -0.17585544 1.8129426 204 136 113
-0.11240245 -0.17585544 1.8129426 200 132 110
-0.111077756 -0.17663184 1.8209468 196 130 107
-0.109256804 -0.17663184 1.8209468 192 127 105
-0.10743586 -0.17663184 1.8209468 195 127 104
-0.105614915 -0.17663184 1.8209468 195 127 104
-0.10379397 -0.17663184 1.8209468 200 130 107
-0.10197302 -0.17663184 1.8209468 206 136 111
-0.100521915 -0.1772841 1.8276712 210 144 114
-0.09869424 -0.1772841 1.8276712 214 149 119
-0.09686657 -0.1772841 1.8276712 221 157 123
-0.094689235 -0.17663184 1.8209468 229 164 130
-0.09286828 -0.17663184 1.8209468 233 164 130
-0.091722265 -0.17794119 1.8344454 234 167 130
-0.08955588 -0.1772841 1.8276712 223 152 120
-0.08838095 -0.17860319 1.8412699 197 117 98
-0.08653968 -0.17860319 1.8412699 189 109 92
-0.08501469 -0.17927012 1.8481455 185 108 91
-0.083478265 -0.17994203 1.8550725 195 113 94
-0.08193027 -0.18061902 1.8620517 202 119 99
-0.0803706 -0.18130112 1.8690836 208 121 103
-0.07850151 -0.18130112 1.8690836 216 126 105
-0.07698128 -0.18212645 1.8775923 214 127 104
-0.07510369 -0.18212645 1.8775923 214 126 105
-0.073226094 -0.18212645 1.8775923 217 131 110
-0.07162021 -0.18282 1.8847424 222 134 112
-0.070002034 -0.18351886 1.891947 225 137 114
-0.06837145 -0.18422309 1.899207 222 134 112
-0.0667283 -0.18493272 1.9065229 220 133 111
-0.06507244 -0.18564786 1.9138954 221 135 112
-0.06315855 -0.18564786 1.9138954 224 138 113
-0.061482403 -0.18636853 1.9213251 221 133 111
-0.059561078 -0.18636853 1.9213251 214 128 108
-0.05763975 -0.18636853 1.9213251 209 122 106
-0.05593557 -0.18709484 1.9288127 212 127 110
-0.054218046 -0.18782681 1.9363589 189 115 101
-0.052281693 -0.18782681 1.9363589 194 120 105
-0.050742377 -0.1893081 1.9516299 143 89 79
-0.04933546 -0.19142158 1.9734185 110 58 47
-0.04774277 -0.19296034 1.9892819 105 54 42
-0.045938123 -0.19373904 1.9973097 101 51 42
-0.04411886 -0.19452405 2.0054026 85 42 35
-0.042113453 -0.19452405 2.0054026 69 35 29
-0.040271226 -0.19531545 2.0135612 59 28 23
-0.03810265 -0.19452405 2.0054026 69 35 28
-0.0362441 -0.19531545 2.0135612 76 37 29
-0.03423054 -0.19531545 2.0135612 78 36 27
-0.03232218 -0.1959532 2.020136 93 43 36
-0.030302042 -0.1959532 2.020136 101 47 40
-0.028281907 -0.1959532 2.020136 107 50 43
-0.026261771 -0.1959532 2.020136 108 50 42
-0.024241634 -0.1959532 2.020136 107 51 41
-0.022221496 -0.1959532 2.020136 107 50 40
-0.02020136 -0.1959532 2.020136 106 50 42
-0.018181225 -0.1959532 2.020136 101 49 40
-0.01616109 -0.1959532 2.020136 72 31 15
-0.014140953 -0.1959532 2.020136 75 34 19
-0.012120817 -0.1959532 2.020136 104 51 44
-0.01010068 -0.1959532 2.020136 102 51 47
-0.008080545 -0.1959532 2.020136 85 38 34
-0.0060604084 -0.1959532 2.020136 76 36 29
-0.0040402724 -0.1959532 2.020136 69 32 26
-0.0020201362 -0.1959532 2.020136 92 45 40
0.0 -0.19373904 1.9973097 125 64 56
0.0019973097 -0.19373904 1.9973097 126 63 49
0.0039946195 -0.19373904 1.9973097 130 68 53
0.005967846 -0.19296034 1.9892819 131 68 52
0.007957128 -0.19296034 1.9892819 130 68 53
0.009867093 -0.19142158 1.9734185 133 71 58
0.011887911 -0.19218789 1.9813185 135 74 62
0.01386923 -0.19218789 1.9813185 138 78 64
0.015787348 -0.19142158 1.9734185 144 83 71
0.017760767 -0.19142158 1.9734185 148 88 74
0.019734185 -0.19142158 1.9734185 164 95 82
0.021535866 -0.18990718 1.957806 168 98 85
0.023493672 -0.18990718 1.957806 169 97 86
0.025371188 -0.1893081 1.9516299 159 94 82
0.02732282 -0.1893081 1.9516299 164 97 85
0.029274449 -0.1893081 1.9516299 190 110 94
0.031103432 -0.18856455 1.9439645 187 107 94
0.032918103 -0.18782681 1.9363589 173 99 90
0.03471863 -0.18709484 1.9288127 126 84 71
0.036647443 -0.18709484 1.9288127 148 100 88
0.038576256 -0.18709484 1.9288127 192 118 101
0.040505067 -0.18709484 1.9288127 205 116 102
0.042269155 -0.18636853 1.9213251 171 95 84
0.044190474 -0.18636853 1.9213251 150 83 70
0.0461118 -0.18636853 1.9213251 145 77 64
0.047847386 -0.18564786 1.9138954 139 73 57
0.04976128 -0.18564786 1.9138954 145 76 61
0.051476117 -0.18493272 1.9065229 152 81 67
0.053382643 -0.18493272 1.9065229 147 84 67
0.05528916 -0.18493272 1.9065229 175 101 86
0.05697621 -0.18422309 1.899207 194 116 99
0.058650356 -0.18351886 1.891947 202 122 104
0.060542304 -0.18351886 1.891947 215 126 109
0.06267383 -0.18422309 1.899207 210 124 109
0.064326204 -0.18351886 1.891947 204 121 108
0.066218145 -0.18351886 1.891947 212 125 110
0.06811009 -0.18351886 1.891947 151 98 88
0.070002034 -0.18351886 1.891947 217 132 112
0.07189399 -0.18351886 1.891947 215 132 108
0.07378593 -0.18351886 1.891947 217 134 110
0.07538969 -0.18282 1.8847424 209 127 107
0.077274434 -0.18282 1.8847424 182 109 95
0.07850151 -0.18130112 1.8690836 154 98 90
0.0803706 -0.18130112 1.8690836 119 78 69
0.08193027 -0.18061902 1.8620517 185 126 104
0.083478265 -0.17994203 1.8550725 214 157 121
0.08533333 -0.17994203 1.8550725 225 165 128
0.08686284 -0.17927012 1.8481455 229 168 130
0.088710986 -0.17927012 1.8481455 228 167 129
0.090559125 -0.17927012 1.8481455 227 165 128
0.09240727 -0.17927012 1.8481455 222 161 126
0.09425542 -0.17927012 1.8481455 216 152 121
0.096103564 -0.17927012 1.8481455 205 142 114
0.09795171 -0.17927012 1.8481455 192 129 105
0.09979986 -0.17927012 1.8481455 170 112 93
0.101648 -0.17927012 1.8481455 168 109 92
0.10349615 -0.17927012 1.8481455 171 111 94
0.10534429 -0.17927012 1.8481455 180 118 99
0.107192434 -0.17927012 1.8481455 190 127 105
0.10904058 -0.17927012 1.8481455 200 134 111
0.110888734 -0.17927012 1.8481455 206 139 113
0.11273688 -0.17927012 1.8481455 210 142 117
0.11458502 -0.17927012 1.8481455 212 143 120
0.116433166 -0.17927012 1.8481455 214 148 123
0.11828131 -0.17927012 1.8481455 218 149 124
0.12012946 -0.17927012 1.8481455 220 150 124
0.1219776 -0.17927012 1.8481455 217 148 120
0.124289855 -0.17994203 1.8550725 215 146 117
0.12614493 -0.17994203 1.8550725 214 143 115
0.12848157 -0.18061902 1.8620517 213 142 115
0.13083586 -0.18130112 1.8690836 211 142 115
0.13270494 -0.18130112 1.8690836 209 142 114
0.13941784 -0.18782681 1.9363589 199 138 114
0.14979325 -0.19904034 2.0519624 229 186 161
0.15868746 -0.20800924 2.1444252 222 200 174
0.16209608 -0.20964427 2.161281 223 198 170
0.16555868 -0.21130517 2.1784039 216 192 166
0.1677371 -0.21130517 2.1784039 218 194 167
0.17066666 -0.21223934 2.1880343 222 195 169
0.1720939 -0.21130517 2.1784039 219 193 167
0.17504273 -0.21223934 2.1880343 221 194 168
0.17723078 -0.21223934 2.1880343 210 185 160
0.1794188 -0.21223934 2.1880343 215 190 164
0.18306357 -0.21394177 2.2055852 219 192 167
0.18526916 -0.21394177 2.2055852 215 192 167
0.186643 -0.2129926 2.1958 219 195 171
0.18883881 -0.2129926 2.1958 221 196 172
0.1910346 -0.2129926 2.1958 224 198 175
0.1932304 -0.2129926 2.1958 224 196 174
0.1962971 -0.21394177 2.2055852 223 198 175
0.19850267 -0.21394177 2.2055852 213 190 167
0.20070826 -0.21394177 2.2055852 220 194 172
0.20291385 -0.21394177 2.2055852 222 197 173
0.20511943 -0.21394177 2.2055852 222 198 175
0.20732501 -0.21394177 2.2055852 216 192 170
0.21046852 -0.21489945 2.2154582 220 194 172
0.2100513 -0.21223934 2.1880343 225 198 175
0.21223934 -0.21223934 2.1880343 219 197 173
0.21442737 -0.21223934 2.1880343 221 196 172
0.21661541 -0.21223934 2.1880343 221 196 172
0.21880344 -0.21223934 2.1880343 226 199 176
0.2217758 -0.2129926 2.1958 221 197 172
0.2239716 -0.2129926 2.1958 218 194 170
0.22616741 -0.2129926 2.1958 218 191 168
0.2283632 -0.2129926 2.1958 213 187 164
0.230559 -0.2129926 2.1958 209 183 161
0.23275481 -0.2129926 2.1958 214 187 166
0.2349506 -0.2129926 2.1958 216 191 169
0.2371464 -0.2129926 2.1958 219 192 171
0.23934221 -0.2129926 2.1958 218 192 170
0.24261437 -0.21394177 2.2055852 211 182 164
0.24481997 -0.21394177 2.2055852 204 177 158
0.24398123 -0.21130517 2.1784039 203 178 158
0.24615964 -0.21130517 2.1784039 221 193 172
0.24833804 -0.21130517 2.1784039 223 195 173
0.25051644 -0.21130517 2.1784039 218 191 169
0.25269485 -0.21130517 2.1784039 217 190 170
0.256 -0.21223934 2.1880343 222 195 173
0.25818804 -0.21223934 2.1880343 219 192 170
0.26037607 -0.21223934 2.1880343 227 199 177
0.26256412 -0.21223934 2.1880343 217 190 170
0.26569182 -0.2129926 2.1958 217 190 170
0.2678876 -0.2129926 2.1958 217 190 169
0.2700834 -0.2129926 2.1958 212 186 166
0.2722792 -0.2129926 2.1958 210 186 165
0.274475 -0.2129926 2.1958 211 185 165
0.2766708 -0.2129926 2.1958 211 185 165
0.27886662 -0.2129926 2.1958 216 190 169
0.2810624 -0.2129926 2.1958 218 191 172
0.2832582 -0.2129926 2.1958 220 193 175
0.285454 -0.2129926 2.1958 219 194 174
0.2876498 -0.2129926 2.1958 218 196 176
0.28984562 -0.2129926 2.1958 223 198 177
0.29204142 -0.2129926 2.1958 221 197 176
0.29423723 -0.2129926 2.1958 222 195 177
0.296433 -0.2129926 2.1958 220 195 177
0.2986288 -0.2129926 2.1958 221 197 179
0.3008246 -0.2129926 2.1958 221 197 178
0.30302042 -0.2129926 2.1958 222 200 181
0.30521622 -0.2129926 2.1958 225 201 182
0.30741203 -0.2129926 2.1958 224 201 184
0.3096078 -0.2129926 2.1958 222 200 183
0.31070086 -0.21223934 2.1880343 222 200 181
0.31288892 -0.21223934 2.1880343 221 200 181
-0.3087972 -0.21015367 2.1444252 183 106 79
-0.3066528 -0.21015367 2.1444252 180 104 77
-0.3031947 -0.20924705 2.135174 175 103 72
-0.30105954 -0.20924705 2.135174 174 103 71
-0.2989244 -0.20924705 2.135174 171 100 69
-0.2967892 -0.20924705 2.135174 172 100 69
-0.294654 -0.20924705 2.135174 171 99 70
-0.29251882 -0.20924705 2.135174 167 95 68
-0.29038367 -0.20924705 2.135174 164 92 66
-0.2882485 -0.20924705 2.135174 163 90 64
-0.28611332 -0.20924705 2.135174 161 86 60
-0.28397816 -0.20924705 2.135174 167 91 66
-0.28184298 -0.20924705 2.135174 170 93 68
-0.2797078 -0.20924705 2.135174 164 92 64
-0.27757263 -0.20924705 2.135174 164 91 63
-0.27543744 -0.20924705 2.135174 164 96 67
-0.2733023 -0.20924705 2.135174 169 105 82
-0.2711671 -0.20924705 2.135174 169 121 99
-0.2690319 -0.20924705 2.135174 168 136 114
-0.26689675 -0.20924705 2.135174 163 140 118
-0.26476157 -0.20924705 2.135174 166 145 122
-0.2626264 -0.20924705 2.135174 172 153 130
-0.26049125 -0.20924705 2.135174 170 151 130
-0.25835603 -0.20924705 2.135174 165 147 123
-0.25533965 -0.20852739 2.1278305 164 144 119
-0.25321183 -0.20852739 2.1278305 162 140 119
-0.251084 -0.20852739 2.1278305 158 135 119
-0.24895617 -0.20852739 2.1278305 152 132 116
-0.24682833 -0.20852739 2.1278305 151 131 113
-0.24365297 -0.2076347 2.1187215 152 131 112
-0.24050471 -0.20674966 2.1096904 150 130 112
-0.23839502 -0.20674966 2.1096904 147 128 113
-0.23729682 -0.2076347 2.1187215 149 131 111
-0.23618917 -0.20852739 2.1278305 149 133 113
-0.23406136 -0.20852739 2.1278305 150 132 112
-0.23193353 -0.20852739 2.1278305 150 131 110
-0.2298057 -0.20852739 2.1278305 146 126 105
-0.22767785 -0.20852739 2.1278305 144 122 102
-0.22555004 -0.20852739 2.1278305 139 119 98
-0.22342221 -0.20852739 2.1278305 142 120 99
-0.22129437 -0.20852739 2.1278305 138 119 99
-0.21916653 -0.20852739 2.1278305 142 122 106
-0.2170387 -0.20852739 2.1278305 141 123 106
-0.2149109 -0.20852739 2.1278305 141 122 105
-0.21278305 -0.20852739 2.1278305 145 125 106
-0.21065521 -0.20852739 2.1278305 146 124 106
-0.2076347 -0.2076347 2.1187215 146 126 106
-0.205516 -0.2076347 2.1187215 146 128 108
-0.20427173 -0.20852739 2.1278305 153 132 112
-0.20284154 -0.20924705 2.135174 153 131 112
-0.20070636 -0.20924705 2.135174 151 131 111
-0.19788824 -0.20852739 2.1278305 153 131 112
-0.1957604 -0.20852739 2.1278305 151 131 111
-0.19363257 -0.20852739 2.1278305 149 129 109
-0.19150475 -0.20852739 2.1278305 145 126 107
-0.18937692 -0.20852739 2.1278305 146 126 107
-0.18789531 -0.20924705 2.135174 149 128 109
-0.18432876 -0.2076347 2.1187215 150 129 110
-0.18221006 -0.2076347 2.1187215 150 128 111
-0.17932369 -0.20674966 2.1096904 149 129 111
-0.17380603 -0.2027737 2.0691195 148 130 110
-0.16198528 -0.19125974 1.9516299 151 123 103
-0.15268825 -0.18248107 1.8620517 161 114 91
-0.14969978 -0.18111825 1.8481455 171 114 88
-0.1462137 -0.17911176 1.8276712 173 117 88
-0.14438602 -0.17911176 1.8276712 177 118 89
-0.14255835 -0.17911176 1.8276712 181 120 91
-0.14073068 -0.17911176 1.8276712 186 122 95
-0.13890302 -0.17911176 1.8276712 191 126 98
-0.13707533 -0.17911176 1.8276712 193 126 99
-0.13415776 -0.17766838 1.8129426 195 129 101
-0.13234481 -0.17766838 1.8129426 202 134 105
-0.13053188 -0.17766838 1.8129426 205 136 108
-0.12871893 -0.17766838 1.8129426 206 138 114
-0.12690598 -0.17766838 1.8129426 209 141 118
-0.12509304 -0.17766838 1.8129426 212 144 117
-0.1232801 -0.17766838 1.8129426 212 146 119
-0.12146716 -0.17766838 1.8129426 215 147 121
-0.119654216 -0.17766838 1.8129426 214 147 121
-0.11784127 -0.17766838 1.8129426 212 146 121
-0.11602833 -0.17766838 1.8129426 210 142 119
-0.11421539 -0.17766838 1.8129426 204 138 115
-0.11240245 -0.17766838 1.8129426 198 134 112
-0.1105895 -0.17766838 1.8129426 197 131 106
-0.108776554 -0.17766838 1.8129426 193 128 103
-0.10696361 -0.17766838 1.8129426 193 127 101
-0.10515067 -0.17766838 1.8129426 196 129 104
-0.10333773 -0.17766838 1.8129426 203 134 107
-0.10197302 -0.17845279 1.8209468 208 138 112
-0.100152075 -0.17845279 1.8209468 211 145 116
-0.09833113 -0.17845279 1.8209468 212 149 118
-0.09686657 -0.17911176 1.8276712 217 155 122
-0.094689235 -0.17845279 1.8209468 223 161 127
-0.09286828 -0.17845279 1.8209468 229 165 128
-0.091722265 -0.17977566 1.8344454 231 169 132
-0.089226395 -0.17845279 1.8209468 232 170 133
-0.088053375 -0.17977566 1.8344454 227 154 122
-0.08621893 -0.17977566 1.8344454 214 141 112
-0.08469841 -0.18044445 1.8412699 214 127 105
-0.08316655 -0.18111825 1.8481455 205 117 98
-0.08162319 -0.1817971 1.8550725 214 124 103
-0.08006822 -0.18248107 1.8620517 208 120 103
-0.07820617 -0.18248107 1.8620517 210 122 103
-0.07663243 -0.1831702 1.8690836 213 125 106
-0.07476334 -0.1831702 1.8690836 215 126 107
-0.073226094 -0.18400404 1.8775923 219 131 111
-0.07162021 -0.18470475 1.8847424 217 130 111
-0.070002034 -0.18541081 1.891947 219 134 113
-0.06811009 -0.18541081 1.891947 223 136 113
-0.06647225 -0.18612228 1.899207 222 136 108
-0.06507244 -0.18756175 1.9138954 219 132 106
-0.06315855 -0.18756175 1.9138954 220 133 107
-0.061482403 -0.18828985 1.9213251 220 132 107
-0.059561078 -0.18828985 1.9213251 217 129 107
-0.05763975 -0.18828985 1.9213251 208 124 104
-0.05593557 -0.18902364 1.9288127 209 125 104
-0.054218046 -0.18976317 1.9363589 199 120 102
-0.052281693 -0.18976317 1.9363589 202 125 108
-0.050543077 -0.19050851 1.9439645 166 102 92
-0.04913953 -0.19262695 1.9655812 110 62 50
-0.047935434 -0.19573635 1.9973097 103 54 42
-0.045938123 -0.19573635 1.9973097 98 51 41
-0.04411886 -0.19652945 2.0054026 85 42 35
-0.042113453 -0.19652945 2.0054026 72 35 29
-0.040271226 -0.19732901 2.0135612 68 33 28
-0.03810265 -0.19652945 2.0054026 71 33 30
-0.0362441 -0.19732901 2.0135612 77 35 32
-0.03423054 -0.19732901 2.0135612 80 37 32
-0.03232218 -0.19797334 2.020136 85 39 33
-0.030302042 -0.19797334 2.020136 93 44 39
-0.028281907 -0.19797334 2.020136 102 48 41
-0.026261771 -0.19797334 2.020136 107 52 43
-0.024241634 -0.19797334 2.020136 108 52 43
-0.022221496 -0.19797334 2.020136 108 53 43
-0.02020136 -0.19797334 2.020136 104 51 42
-0.018181225 -0.19797334 2.020136 104 51 42
-0.01616109 -0.19797334 2.020136 103 49 39
-0.014140953 -0.19797334 2.020136 106 52 45
-0.012120817 -0.19797334 2.020136 105 52 43
-0.01010068 -0.19797334 2.020136 100 49 45
-0.008080545 -0.19797334 2.020136 83 38 33
-0.0060604084 -0.19797334 2.020136 67 33 24
-0.0040402724 -0.19797334 2.020136 65 31 23
