ply
format ascii 1.0
element vertex 1105
property float32 x
property float32 y
property float32 z
property uchar red
property uchar green
property uchar blue
element face 0
property list uint8 int32 vertex_indices
end_header
-0.100152075 0.13292912 1.8209468 54 40 35
-0.09833113 0.13292912 1.8209468 53 39 34
-0.09573528 0.13186182 1.8063262 52 40 34
-0.09392896 0.13186182 1.8063262 54 39 35
-0.09212264 0.13186182 1.8063262 54 41 36
-0.09031631 0.13186182 1.8063262 51 39 34
-0.08850998 0.13186182 1.8063262 52 39 35
-0.086388364 0.13138232 1.7997576 50 37 35
-0.08489733 0.13186182 1.8063262 47 35 33
-0.083091006 0.13186182 1.8063262 46 34 31
-0.08128467 0.13186182 1.8063262 48 36 34
-0.07856085 0.13033958 1.7854738 48 36 36
-0.07677537 0.13033958 1.7854738 49 40 38
-0.07558982 0.13138232 1.7997576 51 38 36
-0.07320443 0.13033958 1.7854738 58 43 38
-0.071418956 0.13033958 1.7854738 84 55 38
-0.06938318 0.12987109 1.779056 133 94 71
-0.067848004 0.13033958 1.7854738 169 117 79
-0.065825075 0.12987109 1.779056 182 125 87
-0.06381662 0.12940592 1.7726839 187 129 90
-0.06182251 0.1289441 1.7663574 185 127 89
-0.060271252 0.12940592 1.7726839 182 127 89
-0.058498565 0.12940592 1.7726839 188 131 92
-0.056282397 0.12839423 1.758825 191 132 93
-0.054953203 0.12940592 1.7726839 193 134 96
-0.053180516 0.12940592 1.7726839 191 134 97
-0.051224366 0.1289441 1.7663574 194 135 100
-0.049635146 0.12940592 1.7726839 195 135 101
-0.04769165 0.1289441 1.7663574 195 137 100
-0.04572945 0.12839423 1.758825 196 135 98
-0.043970622 0.12839423 1.758825 196 134 98
-0.0422118 0.12839423 1.758825 193 132 96
-0.040452972 0.12839423 1.758825 192 130 95
-0.038557127 0.12793957 1.7525969 189 127 92
-0.036674663 0.12748812 1.7464126 190 126 91
-0.03505194 0.12793957 1.7525969 186 123 89
-0.033299338 0.12793957 1.7525969 183 120 87
-0.03154674 0.12793957 1.7525969 181 117 84
-0.029794147 0.12793957 1.7525969 176 115 80
-0.027942602 0.12748812 1.7464126 174 113 79
-0.02619619 0.12748812 1.7464126 170 110 81
-0.024449777 0.12748812 1.7464126 164 106 79
-0.022703363 0.12748812 1.7464126 160 103 77
-0.02095695 0.12748812 1.7464126 157 101 74
-0.01921054 0.12748812 1.7464126 156 98 72
-0.017464127 0.12748812 1.7464126 152 95 69
-0.015717713 0.12748812 1.7464126 152 95 70
-0.013971301 0.12748812 1.7464126 152 94 71
-0.012224888 0.12748812 1.7464126 157 97 75
-0.010478475 0.12748812 1.7464126 155 98 72
-0.008732064 0.12748812 1.7464126 159 99 71
-0.0069856504 0.12748812 1.7464126 161 101 72
-0.0052392376 0.12748812 1.7464126 164 103 74
-0.0034928252 0.12748812 1.7464126 164 105 76
-0.0017464126 0.12748812 1.7464126 167 107 80
0.0 0.12695058 1.739049 170 113 86
0.001739049 0.12695058 1.739049 174 118 90
0.0034928252 0.12748812 1.7464126 176 121 94
0.0052392376 0.12748812 1.7464126 179 122 99
0.0069856504 0.12748812 1.7464126 181 124 100
0.008732064 0.12748812 1.7464126 184 127 103
0.010478475 0.12748812 1.7464126 184 125 104
0.012224888 0.12748812 1.7464126 181 123 99
0.0140207745 0.12793957 1.7525969 178 120 94
0.01577337 0.12793957 1.7525969 180 117 88
0.01752597 0.12793957 1.7525969 181 114 83
0.019278564 0.12793957 1.7525969 177 110 77
0.021031162 0.12793957 1.7525969 175 108 76
0.02278376 0.12793957 1.7525969 171 107 77
0.024623549 0.12839423 1.758825 169 104 75
0.026495362 0.1289441 1.7663574 166 103 75
0.028141199 0.12839423 1.758825 166 101 74
0.029900024 0.12839423 1.758825 163 100 69
0.031794433 0.1289441 1.7663574 159 98 70
0.03356079 0.1289441 1.7663574 158 98 71
0.035327148 0.1289441 1.7663574 158 96 71
0.03722636 0.12940592 1.7726839 156 96 70
0.038999047 0.12940592 1.7726839 157 96 70
0.04077173 0.12940592 1.7726839 155 97 69
0.042392578 0.1289441 1.7663574 154 95 69
0.044317096 0.12940592 1.7726839 153 92 71
0.04608978 0.12940592 1.7726839 148 90 67
0.04803451 0.12987109 1.779056 147 89 65
0.04981357 0.12987109 1.779056 148 89 66
0.05177874 0.13033958 1.7854738 153 93 69
0.053564217 0.13033958 1.7854738 153 94 69
0.05559034 0.13090628 1.7932367 159 98 72
0.05713516 0.13033958 1.7854738 167 103 77
0.058920637 0.13033958 1.7854738 178 113 87
0.06070611 0.13033958 1.7854738 186 121 93
0.06276329 0.13090628 1.7932367 197 130 99
0.06479128 0.13138232 1.7997576 200 131 100
0.06659103 0.13138232 1.7997576 199 131 95
0.068640396 0.13186182 1.8063262 196 128 90
0.070704766 0.13234481 1.8129426 189 124 87
0.072837874 0.13292912 1.8209468 176 115 83
0.07493452 0.13342 1.8276712 150 96 76
0.07733334 0.1344127 1.8412699 100 65 53
0.07888115 0.1339145 1.8344454 72 47 37
0.08101588 0.1344127 1.8412699 69 44 37
0.08316655 0.13491462 1.8481455 65 42 35
0.08533333 0.1354203 1.8550725 66 43 37
0.08718841 0.1354203 1.8550725 71 46 41
0.08971602 0.1364431 1.8690836 78 52 44
0.0915851 0.1364431 1.8690836 82 55 45
0.094597355 0.13811214 1.891947 101 75 63
0.11718477 0.16773507 2.2977407 126 102 88
-0.15466668 0.15684508 2.1784039 123 105 95
-0.13143146 0.13518664 1.8775923 81 65 56
-0.128 0.13356522 1.8550725 64 49 40
-0.12709768 0.13457403 1.8690836 58 47 39
-0.12522861 0.13457403 1.8690836 57 47 40
-0.12289542 0.13406771 1.8620517 57 44 39
-0.12149044 0.13457403 1.8690836 53 43 39
-0.119171314 0.13406771 1.8620517 52 41 37
-0.11686957 0.13356522 1.8550725 52 40 36
-0.11458502 0.13306646 1.8481455 53 40 34
-0.11273688 0.13306646 1.8481455 63 48 42
-0.11047619 0.13257143 1.8412699 67 51 46
-0.108232275 0.13208006 1.8344454 58 42 37
-0.10639783 0.13208006 1.8344454 55 40 36
-0.10417725 0.13159233 1.8276712 54 41 37
-0.10197302 0.13110816 1.8209468 55 42 36
-0.100152075 0.13110816 1.8209468 54 40 35
-0.09833113 0.13110816 1.8209468 53 41 35
-0.09573528 0.13005549 1.8063262 52 40 34
-0.09392896 0.13005549 1.8063262 53 40 34
-0.09212264 0.13005549 1.8063262 52 38 32
-0.09031631 0.13005549 1.8063262 52 39 34
-0.08850998 0.13005549 1.8063262 53 39 35
-0.08670366 0.13005549 1.8063262 50 37 34
-0.08489733 0.13005549 1.8063262 48 36 34
-0.083091006 0.13005549 1.8063262 47 35 32
-0.08128467 0.13005549 1.8063262 48 35 32
-0.07856085 0.1285541 1.7854738 48 36 34
-0.07710917 0.12911303 1.7932367 49 39 38
-0.07558982 0.12958255 1.7997576 51 38 35
-0.07320443 0.1285541 1.7854738 56 42 37
-0.071418956 0.1285541 1.7854738 77 51 36
-0.06938318 0.12809202 1.779056 132 93 72
-0.067848004 0.1285541 1.7854738 171 119 80
-0.0655893 0.12763324 1.7726839 183 127 86
-0.06381662 0.12763324 1.7726839 188 130 88
-0.06182251 0.12717773 1.7663574 188 130 90
-0.060271252 0.12763324 1.7726839 188 131 92
-0.058498565 0.12763324 1.7726839 190 133 94
-0.056282397 0.1266354 1.758825 196 135 96
-0.054953203 0.12763324 1.7726839 197 137 99
-0.052990723 0.12717773 1.7663574 196 136 98
-0.051224366 0.12717773 1.7663574 196 136 100
-0.04945801 0.12717773 1.7663574 197 137 101
-0.04769165 0.12717773 1.7663574 195 136 98
-0.04572945 0.1266354 1.758825 194 135 97
-0.043970622 0.1266354 1.758825 194 133 96
-0.0422118 0.1266354 1.758825 195 132 96
-0.040452972 0.1266354 1.758825 193 129 95
-0.03869415 0.1266354 1.758825 189 127 91
-0.036674663 0.1257417 1.7464126 188 125 89
-0.03505194 0.12618697 1.7525969 186 121 87
-0.033299338 0.12618697 1.7525969 183 120 86
-0.03154674 0.12618697 1.7525969 183 118 84
-0.029794147 0.12618697 1.7525969 180 117 82
-0.027942602 0.1257417 1.7464126 178 115 80
-0.02619619 0.1257417 1.7464126 174 112 81
-0.024449777 0.1257417 1.7464126 169 111 80
-0.022703363 0.1257417 1.7464126 167 108 80
-0.02095695 0.1257417 1.7464126 165 107 79
-0.01921054 0.1257417 1.7464126 162 102 76
-0.017464127 0.1257417 1.7464126 161 100 74
-0.015717713 0.1257417 1.7464126 162 100 73
-0.013971301 0.1257417 1.7464126 160 99 73
-0.012224888 0.1257417 1.7464126 163 101 76
-0.010478475 0.1257417 1.7464126 165 103 73
-0.008762985 0.12618697 1.7525969 166 103 73
-0.0069856504 0.1257417 1.7464126 171 105 75
-0.0052392376 0.1257417 1.7464126 170 109 78
-0.0034928252 0.1257417 1.7464126 167 108 78
-0.0017464126 0.1257417 1.7464126 169 110 83
0.0 0.1257417 1.7464126 174 115 88
0.0017464126 0.1257417 1.7464126 172 117 91
0.0034928252 0.1257417 1.7464126 177 122 96
0.0052392376 0.1257417 1.7464126 179 123 98
0.0069856504 0.1257417 1.7464126 181 125 100
0.008732064 0.1257417 1.7464126 184 128 104
0.010478475 0.1257417 1.7464126 185 128 105
0.012224888 0.1257417 1.7464126 183 127 101
0.0140207745 0.12618697 1.7525969 183 123 96
0.01577337 0.12618697 1.7525969 183 118 90
0.01752597 0.12618697 1.7525969 181 116 84
0.019278564 0.12618697 1.7525969 178 112 77
0.021031162 0.12618697 1.7525969 177 110 76
0.022864725 0.1266354 1.758825 172 109 77
0.024623549 0.1266354 1.758825 172 106 75
0.026495362 0.12717773 1.7663574 170 105 73
0.028141199 0.1266354 1.758825 169 103 73
0.029900024 0.1266354 1.758825 166 102 72
0.031794433 0.12717773 1.7663574 162 100 70
0.03356079 0.12717773 1.7663574 162 99 72
0.035327148 0.12717773 1.7663574 159 97 71
0.03722636 0.12763324 1.7726839 159 97 71
0.038999047 0.12763324 1.7726839 157 98 70
0.04077173 0.12763324 1.7726839 157 97 70
0.04269734 0.12809202 1.779056 159 97 72
0.044476397 0.12809202 1.779056 159 96 74
0.04608978 0.12763324 1.7726839 156 94 72
0.048207793 0.1285541 1.7854738 154 94 71
0.049993265 0.1285541 1.7854738 154 94 70
0.05177874 0.1285541 1.7854738 155 94 70
0.053564217 0.1285541 1.7854738 157 97 72
0.05559034 0.12911303 1.7932367 164 102 77
0.05692979 0.12809202 1.779056 172 107 80
0.058920637 0.1285541 1.7854738 183 116 88
0.06070611 0.1285541 1.7854738 191 124 93
0.06276329 0.12911303 1.7932367 199 130 99
0.06479128 0.12958255 1.7997576 202 132 102
0.06683407 0.13005549 1.8063262 202 134 99
0.068640396 0.13005549 1.8063262 199 131 93
0.070704766 0.13053188 1.8129426 194 126 89
0.072837874 0.13110816 1.8209468 179 116 84
0.075212255 0.13208006 1.8344454 150 95 75
0.07733334 0.13257143 1.8412699 100 65 53
0.07917461 0.13257143 1.8412699 72 47 37
0.08101588 0.13257143 1.8412699 68 44 37
0.08285714 0.13257143 1.8412699 65 41 37
0.08565438 0.13406771 1.8620517 64 42 38
0.087846935 0.13457403 1.8690836 72 46 40
0.089378476 0.13406771 1.8620517 76 50 42
0.0915851 0.13457403 1.8690836 86 59 49
0.09496035 0.1367429 1.899207 109 84 73
0.11762163 0.16605406 2.3063064 130 107 92
-0.15412399 0.15412399 2.1707604 120 103 92
-0.13143146 0.13330905 1.8775923 76 60 53
-0.12848157 0.13220568 1.8620517 64 49 45
-0.12709768 0.13270494 1.8690836 58 45 38
-0.12522861 0.13270494 1.8690836 58 45 38
-0.12289542 0.13220568 1.8620517 58 45 39
-0.12149044 0.13270494 1.8690836 52 43 40
-0.119171314 0.13220568 1.8620517 51 41 37
-0.11686957 0.13171014 1.8550725 50 39 34
-0.11458502 0.13121833 1.8481455 51 41 34
-0.11273688 0.13121833 1.8481455 62 48 39
-0.11047619 0.13073017 1.8412699 70 53 43
-0.108232275 0.13024563 1.8344454 62 45 33
-0.10639783 0.13024563 1.8344454 53 40 34
-0.10417725 0.12976465 1.8276712 53 41 35
-0.10234959 0.12976465 1.8276712 55 41 36
-0.100152075 0.12928721 1.8209468 54 41 35
-0.09833113 0.12928721 1.8209468 53 41 35
-0.09573528 0.12824915 1.8063262 51 39 33
-0.09392896 0.12824915 1.8063262 53 41 34
-0.09212264 0.12824915 1.8063262 54 40 35
-0.09031631 0.12824915 1.8063262 52 39 34
-0.08850998 0.12824915 1.8063262 52 38 34
-0.08670366 0.12824915 1.8063262 51 38 34
-0.08489733 0.12824915 1.8063262 49 38 34
-0.083091006 0.12824915 1.8063262 49 37 33
-0.08128467 0.12824915 1.8063262 48 37 32
-0.07890242 0.12731981 1.7932367 48 37 35
-0.07710917 0.12731981 1.7932367 49 39 39
-0.07531594 0.12731981 1.7932367 51 39 36
-0.07320443 0.12676863 1.7854738 56 41 38
-0.071418956 0.12676863 1.7854738 74 51 37
-0.06938318 0.12631297 1.779056 131 89 70
-0.067848004 0.12676863 1.7854738 165 116 78
-0.0655893 0.12586056 1.7726839 186 127 87
-0.06381662 0.12586056 1.7726839 187 130 88
-0.06182251 0.12541138 1.7663574 187 130 90
-0.060271252 0.12586056 1.7726839 189 132 93
-0.058498565 0.12586056 1.7726839 191 133 94
-0.056282397 0.12487657 1.758825 194 135 95
-0.054953203 0.12586056 1.7726839 197 137 98
-0.052990723 0.12541138 1.7663574 197 136 98
-0.051224366 0.12541138 1.7663574 196 136 99
-0.04945801 0.12541138 1.7663574 197 137 99
-0.04769165 0.12541138 1.7663574 197 135 97
-0.04572945 0.12487657 1.758825 198 134 96
-0.043970622 0.12487657 1.758825 195 131 94
-0.0422118 0.12487657 1.758825 195 131 93
-0.040452972 0.12487657 1.758825 191 128 91
-0.03869415 0.12487657 1.758825 191 126 90
-0.036674663 0.1239953 1.7464126 190 124 88
-0.03505194 0.12443438 1.7525969 187 122 87
-0.033299338 0.12443438 1.7525969 184 120 86
-0.03154674 0.12443438 1.7525969 185 119 83
-0.029794147 0.12443438 1.7525969 183 117 82
-0.027942602 0.1239953 1.7464126 181 116 81
-0.02619619 0.1239953 1.7464126 177 112 83
-0.024449777 0.1239953 1.7464126 174 112 80
-0.022703363 0.1239953 1.7464126 173 112 80
-0.02095695 0.1239953 1.7464126 169 109 80
-0.01921054 0.1239953 1.7464126 168 107 82
-0.017464127 0.1239953 1.7464126 170 106 80
-0.015717713 0.1239953 1.7464126 169 104 75
-0.013971301 0.1239953 1.7464126 171 106 77
-0.012224888 0.1239953 1.7464126 173 106 78
-0.010478475 0.1239953 1.7464126 169 106 75
-0.008762985 0.12443438 1.7525969 169 106 78
-0.0070103873 0.12443438 1.7525969 170 108 79
-0.0052392376 0.1239953 1.7464126 175 111 83
-0.0034928252 0.1239953 1.7464126 173 110 85
-0.0017464126 0.1239953 1.7464126 172 112 88
0.0 0.1239953 1.7464126 174 115 89
0.001739049 0.123472475 1.739049 173 118 91
0.003478098 0.123472475 1.739049 177 121 95
0.005217147 0.123472475 1.739049 178 122 97
0.0069856504 0.1239953 1.7464126 180 125 98
0.008695245 0.123472475 1.739049 185 128 101
0.010478475 0.1239953 1.7464126 189 132 105
0.012268178 0.12443438 1.7525969 185 129 101
0.0140207745 0.12443438 1.7525969 183 125 94
0.01577337 0.12443438 1.7525969 184 120 90
0.01752597 0.12443438 1.7525969 182 116 84
0.019278564 0.12443438 1.7525969 182 113 78
0.021031162 0.12443438 1.7525969 181 112 77
0.022864725 0.12487657 1.758825 176 110 79
0.024623549 0.12487657 1.758825 174 110 75
0.026495362 0.12541138 1.7663574 172 106 74
0.028141199 0.12487657 1.758825 170 103 74
0.029900024 0.12487657 1.758825 166 102 73
0.031794433 0.12541138 1.7663574 163 99 72
0.03356079 0.12541138 1.7663574 160 98 72
0.035453677 0.12586056 1.7726839 161 97 72
0.03722636 0.12586056 1.7726839 158 97 71
0.038999047 0.12586056 1.7726839 158 97 71
0.04077173 0.12586056 1.7726839 158 98 71
0.04269734 0.12631297 1.779056 158 97 72
0.044476397 0.12631297 1.779056 159 97 74
0.046255454 0.12631297 1.779056 158 97 74
0.048207793 0.12676863 1.7854738 158 96 73
0.049993265 0.12676863 1.7854738 158 96 72
0.05177874 0.12676863 1.7854738 160 98 74
0.053564217 0.12676863 1.7854738 163 100 75
0.05559034 0.12731981 1.7932367 171 106 79
0.05713516 0.12676863 1.7854738 177 112 83
0.05917681 0.12731981 1.7932367 189 120 88
0.06070611 0.12676863 1.7854738 193 127 93
0.06276329 0.12731981 1.7932367 200 132 98
0.06479128 0.12778279 1.7997576 202 132 101
0.06683407 0.12824915 1.8063262 205 135 99
0.068640396 0.12824915 1.8063262 201 132 95
0.070704766 0.12871893 1.8129426 195 129 92
0.072837874 0.12928721 1.8209468 182 118 85
0.075212255 0.13024563 1.8344454 149 95 75
0.07733334 0.13073017 1.8412699 99 66 53
0.07917461 0.13073017 1.8412699 72 47 37
0.08101588 0.13073017 1.8412699 67 43 37
0.08285714 0.13073017 1.8412699 64 42 37
0.085977845 0.13270494 1.8690836 64 42 37
0.088582896 0.1338167 1.8847424 74 49 43
0.089378476 0.13220568 1.8620517 77 50 41
0.0915851 0.13270494 1.8690836 86 59 46
0.09496035 0.1348437 1.899207 116 93 81
0.11762163 0.16374776 2.3063064 137 114 98
-0.15345095 0.15128967 2.161281 112 98 87
-0.13083586 0.13083586 1.8690836 72 55 50
-0.12848157 0.13034363 1.8620517 66 50 49
-0.12709768 0.13083586 1.8690836 59 44 37
-0.12522861 0.13083586 1.8690836 58 45 39
-0.12289542 0.13034363 1.8620517 57 45 39
-0.12149044 0.13083586 1.8690836 51 42 38
-0.119171314 0.13034363 1.8620517 52 41 37
-0.11730926 0.13034363 1.8620517 50 39 34
-0.11458502 0.12937018 1.8481455 52 40 33
-0.11273688 0.12937018 1.8481455 59 45 38
-0.110888734 0.12937018 1.8481455 69 53 46
-0.108232275 0.12841117 1.8344454 60 44 37
-0.10639783 0.12841117 1.8344454 55 41 37
-0.10417725 0.12793697 1.8276712 54 41 36
-0.10234959 0.12793697 1.8276712 55 42 36
-0.100152075 0.12746628 1.8209468 54 40 35
-0.09833113 0.12746628 1.8209468 56 41 36
-0.09573528 0.12644283 1.8063262 53 40 34
-0.09392896 0.12644283 1.8063262 55 41 36
-0.09212264 0.12644283 1.8063262 53 40 34
-0.09031631 0.12644283 1.8063262 52 39 33
-0.08850998 0.12644283 1.8063262 52 38 34
-0.08670366 0.12644283 1.8063262 52 38 34
-0.08458861 0.12598303 1.7997576 50 38 34
-0.083091006 0.12644283 1.8063262 50 37 33
-0.08098909 0.12598303 1.7997576 50 37 33
-0.079478346 0.12644283 1.8063262 49 38 36
-0.07738958 0.12598303 1.7997576 50 40 39
-0.07531594 0.12552658 1.7932367 51 39 37
-0.0735227 0.12552658 1.7932367 55 42 38
-0.071418956 0.12498317 1.7854738 69 50 38
-0.06963348 0.12498317 1.7854738 124 83 65
-0.067848004 0.12498317 1.7854738 162 114 77
-0.065825075 0.12453392 1.779056 185 127 86
-0.06381662 0.12408787 1.7726839 187 130 89
-0.062043935 0.12408787 1.7726839 188 131 92
-0.060271252 0.12408787 1.7726839 189 132 94
-0.058498565 0.12408787 1.7726839 192 133 95
-0.05652344 0.12364502 1.7663574 195 136 96
-0.054953203 0.12408787 1.7726839 197 137 97
-0.052990723 0.12364502 1.7663574 197 137 98
-0.051224366 0.12364502 1.7663574 197 136 98
-0.04945801 0.12364502 1.7663574 197 136 97
-0.04769165 0.12364502 1.7663574 196 133 95
-0.04572945 0.123117745 1.758825 196 133 95
-0.043970622 0.123117745 1.758825 197 132 94
-0.0422118 0.123117745 1.758825 196 130 93
-0.040452972 0.123117745 1.758825 192 128 90
-0.03869415 0.123117745 1.758825 191 127 89
-0.036674663 0.12224889 1.7464126 189 124 88
-0.03505194 0.12268178 1.7525969 188 121 87
-0.03318184 0.12224889 1.7464126 185 120 85
-0.031435426 0.12224889 1.7464126 182 118 83
-0.029794147 0.12268178 1.7525969 183 117 82
-0.027942602 0.12224889 1.7464126 183 116 82
-0.02619619 0.12224889 1.7464126 183 115 84
-0.024449777 0.12224889 1.7464126 179 113 81
-0.022703363 0.12224889 1.7464126 176 112 79
-0.02095695 0.12224889 1.7464126 176 113 80
-0.01921054 0.12224889 1.7464126 174 111 83
-0.017464127 0.12224889 1.7464126 173 111 83
-0.015717713 0.12224889 1.7464126 169 109 80
-0.013971301 0.12224889 1.7464126 171 108 79
-0.012224888 0.12224889 1.7464126 174 108 79
-0.010478475 0.12224889 1.7464126 174 108 78
-0.008762985 0.12268178 1.7525969 173 108 81
-0.0070103873 0.12268178 1.7525969 175 110 83
-0.0052577904 0.12268178 1.7525969 175 112 83
-0.0034928252 0.12224889 1.7464126 174 111 84
-0.0017464126 0.12224889 1.7464126 174 113 87
0.0 0.12173343 1.739049 171 113 85
0.001739049 0.12173343 1.739049 173 115 89
0.003478098 0.12173343 1.739049 173 117 92
0.005217147 0.12173343 1.739049 178 121 95
0.006956196 0.12173343 1.739049 180 123 95
0.008695245 0.12173343 1.739049 184 126 99
0.010515581 0.12268178 1.7525969 186 130 104
0.012268178 0.12268178 1.7525969 187 132 102
0.0140207745 0.12268178 1.7525969 186 129 97
0.01577337 0.12268178 1.7525969 182 122 91
0.01752597 0.12268178 1.7525969 181 117 84
0.019278564 0.12268178 1.7525969 181 116 78
0.0211059 0.123117745 1.758825 181 114 77
0.022864725 0.123117745 1.758825 178 111 77
0.024623549 0.123117745 1.758825 178 111 75
0.026495362 0.12364502 1.7663574 172 108 74
0.028141199 0.123117745 1.758825 169 103 74
0.029900024 0.123117745 1.758825 168 102 73
0.031794433 0.12364502 1.7663574 164 100 72
0.03356079 0.12364502 1.7663574 159 98 73
0.035453677 0.12408787 1.7726839 159 97 72
0.03722636 0.12408787 1.7726839 160 98 71
0.038999047 0.12408787 1.7726839 161 98 72
0.04077173 0.12408787 1.7726839 160 98 72
0.04269734 0.12453392 1.779056 161 99 73
0.044476397 0.12453392 1.779056 164 99 76
0.046255454 0.12453392 1.779056 163 99 76
0.048207793 0.12498317 1.7854738 162 100 76
0.049993265 0.12498317 1.7854738 164 100 75
0.05177874 0.12498317 1.7854738 168 102 77
0.053564217 0.12498317 1.7854738 170 105 78
0.05559034 0.12552658 1.7932367 177 110 82
0.05713516 0.12498317 1.7854738 183 115 84
0.05917681 0.12552658 1.7932367 188 122 88
0.06070611 0.12498317 1.7854738 195 127 91
0.06276329 0.12552658 1.7932367 200 130 96
0.06479128 0.12598303 1.7997576 201 132 100
0.06683407 0.12644283 1.8063262 203 134 100
0.068640396 0.12644283 1.8063262 201 131 97
0.070704766 0.12690598 1.8129426 196 129 93
0.072837874 0.12746628 1.8209468 184 120 85
0.075212255 0.12841117 1.8344454 150 94 74
0.07733334 0.12888889 1.8412699 97 63 50
0.07917461 0.12888889 1.8412699 71 46 36
0.08131841 0.12937018 1.8481455 67 43 37
0.08316655 0.12937018 1.8481455 65 41 38
0.08565438 0.13034363 1.8620517 65 42 39
0.087516434 0.13034363 1.8620517 73 49 43
0.08904348 0.12985507 1.8550725 77 50 41
0.0915851 0.13083586 1.8690836 88 59 46
0.09532614 0.1334566 1.9065229 117 96 85
0.11806174 0.16204554 2.3149362 151 128 113
-0.15345095 0.1491284 2.161281 106 92 82
-0.13083586 0.12896676 1.8690836 68 52 48
-0.12848157 0.12848157 1.8620517 65 49 49
-0.12709768 0.12896676 1.8690836 58 44 37
-0.12522861 0.12896676 1.8690836 57 44 37
-0.12289542 0.12848157 1.8620517 53 41 35
-0.12149044 0.12896676 1.8690836 52 41 36
-0.119171314 0.12848157 1.8620517 52 41 37
-0.11730926 0.12848157 1.8620517 51 40 34
-0.11458502 0.12752204 1.8481455 52 41 34
-0.11273688 0.12752204 1.8481455 60 46 41
-0.110888734 0.12752204 1.8481455 65 50 44
-0.108232275 0.12657672 1.8344454 60 46 40
-0.10639783 0.12657672 1.8344454 57 45 40
-0.10417725 0.12610932 1.8276712 54 41 37
-0.10234959 0.12610932 1.8276712 55 41 36
-0.100152075 0.12564534 1.8209468 56 41 35
-0.09833113 0.12564534 1.8209468 55 41 35
-0.09573528 0.12463651 1.8063262 53 39 33
-0.09392896 0.12463651 1.8063262 54 40 34
-0.09212264 0.12463651 1.8063262 54 40 34
-0.09031631 0.12463651 1.8063262 53 40 35
-0.08850998 0.12463651 1.8063262 52 39 35
-0.08670366 0.12463651 1.8063262 52 39 34
-0.08458861 0.124183275 1.7997576 51 40 35
-0.083091006 0.12463651 1.8063262 51 38 34
-0.08098909 0.124183275 1.7997576 52 39 34
-0.079478346 0.12463651 1.8063262 51 39 34
-0.07738958 0.124183275 1.7997576 51 40 36
-0.07531594 0.123733334 1.7932367 52 40 36
-0.0735227 0.123733334 1.7932367 55 42 37
-0.071418956 0.12319769 1.7854738 66 48 38
-0.06963348 0.12319769 1.7854738 117 79 59
-0.067848004 0.12319769 1.7854738 163 111 74
-0.065825075 0.12275486 1.779056 183 126 86
-0.06381662 0.12231518 1.7726839 188 130 89
-0.062043935 0.12231518 1.7726839 189 132 92
-0.060271252 0.12231518 1.7726839 189 132 94
-0.058498565 0.12231518 1.7726839 192 133 95
-0.05652344 0.12187866 1.7663574 194 135 96
-0.054953203 0.12231518 1.7726839 198 138 97
-0.052990723 0.12187866 1.7663574 198 137 98
-0.051224366 0.12187866 1.7663574 198 137 97
-0.04945801 0.12187866 1.7663574 197 135 96
-0.04769165 0.12187866 1.7663574 196 133 95
-0.04572945 0.12135892 1.758825 197 132 95
-0.043970622 0.12135892 1.758825 197 132 94
-0.0422118 0.12135892 1.758825 195 131 92
-0.040452972 0.12135892 1.758825 194 128 90
-0.03869415 0.12135892 1.758825 191 127 90
-0.036674663 0.12050247 1.7464126 191 123 88
-0.03505194 0.12092918 1.7525969 188 121 86
-0.03318184 0.12050247 1.7464126 186 120 85
-0.031435426 0.12050247 1.7464126 186 119 84
-0.029794147 0.12092918 1.7525969 184 117 83
-0.027942602 0.12050247 1.7464126 182 116 82
-0.02619619 0.12050247 1.7464126 182 114 82
-0.024449777 0.12050247 1.7464126 179 113 80
-0.022703363 0.12050247 1.7464126 176 111 80
-0.02095695 0.12050247 1.7464126 178 113 82
-0.01921054 0.12050247 1.7464126 177 112 84
-0.017464127 0.12050247 1.7464126 172 110 83
-0.015717713 0.12050247 1.7464126 174 111 81
-0.013971301 0.12050247 1.7464126 176 112 81
-0.012224888 0.12050247 1.7464126 176 110 79
-0.010478475 0.12050247 1.7464126 172 111 81
-0.008762985 0.12092918 1.7525969 173 111 82
-0.0070103873 0.12092918 1.7525969 173 111 83
-0.0052577904 0.12092918 1.7525969 172 111 81
-0.0035051936 0.12092918 1.7525969 172 113 83
-0.0017464126 0.12050247 1.7464126 170 111 83
0.0 0.11999438 1.739049 170 111 83
0.001739049 0.11999438 1.739049 171 112 86
0.003478098 0.11999438 1.739049 174 116 89
0.005217147 0.11999438 1.739049 174 119 92
0.0069856504 0.12050247 1.7464126 180 122 93
0.008732064 0.12050247 1.7464126 184 124 96
0.010478475 0.12050247 1.7464126 188 128 100
0.012268178 0.12092918 1.7525969 193 134 103
0.0140207745 0.12092918 1.7525969 190 135 101
0.01577337 0.12092918 1.7525969 185 126 92
0.01752597 0.12092918 1.7525969 180 118 83
0.019347075 0.12135892 1.758825 180 115 76
0.0211059 0.12135892 1.758825 180 113 75
0.022864725 0.12135892 1.758825 181 112 76
0.024623549 0.12135892 1.758825 182 112 77
0.026382374 0.12135892 1.758825 178 110 77
0.028141199 0.12135892 1.758825 169 103 75
0.029900024 0.12135892 1.758825 164 101 73
0.031794433 0.12187866 1.7663574 162 99 71
0.03356079 0.12187866 1.7663574 159 97 72
0.035453677 0.12231518 1.7726839 158 97 71
0.03722636 0.12231518 1.7726839 161 97 70
0.038999047 0.12231518 1.7726839 163 97 71
0.04077173 0.12231518 1.7726839 163 99 73
0.04269734 0.12275486 1.779056 163 99 74
0.044476397 0.12275486 1.779056 163 100 75
0.04608978 0.12231518 1.7726839 165 101 76
0.04803451 0.12275486 1.779056 164 101 74
0.04981357 0.12275486 1.779056 165 103 74
0.051592622 0.12275486 1.779056 169 105 76
0.053564217 0.12319769 1.7854738 173 108 78
0.05559034 0.123733334 1.7932367 180 112 81
0.05713516 0.12319769 1.7854738 185 118 83
0.059392 0.124183275 1.7997576 189 122 87
0.06070611 0.12319769 1.7854738 195 126 90
0.06276329 0.123733334 1.7932367 199 129 94
0.06479128 0.124183275 1.7997576 201 131 98
0.06683407 0.12463651 1.8063262 202 133 99
0.068640396 0.12463651 1.8063262 201 132 98
0.070704766 0.12509304 1.8129426 198 131 95
0.07310685 0.12610932 1.8276712 185 121 87
0.075212255 0.12657672 1.8344454 150 95 77
0.07704671 0.12657672 1.8344454 93 61 48
0.07917461 0.12704763 1.8412699 71 46 38
0.08101588 0.12704763 1.8412699 68 45 40
0.08316655 0.12752204 1.8481455 67 44 39
0.085977845 0.12896676 1.8690836 68 45 41
0.087846935 0.12896676 1.8690836 73 49 42
0.08904348 0.128 1.8550725 75 50 39
0.0915851 0.12896676 1.8690836 87 59 45
0.09532614 0.13155007 1.9065229 120 99 88
0.11806174 0.15973058 2.3149362 158 137 124
-0.15225418 0.1458209 2.1444252 98 85 74
-0.12985507 0.12614493 1.8550725 67 53 49
-0.12752204 0.12567389 1.8481455 64 49 47
-0.12709768 0.12709768 1.8690836 60 45 38
-0.12522861 0.12709768 1.8690836 54 44 37
-0.123359516 0.12709768 1.8690836 52 41 35
-0.12103336 0.12661952 1.8620517 52 41 36
-0.119171314 0.12661952 1.8620517 53 42 37
-0.11730926 0.12661952 1.8620517 52 39 32
-0.11458502 0.12567389 1.8481455 58 43 36
-0.11273688 0.12567389 1.8481455 67 52 45
-0.110888734 0.12567389 1.8481455 61 47 41
-0.108232275 0.124742284 1.8344454 60 46 41
-0.10639783 0.124742284 1.8344454 57 43 37
-0.104563385 0.124742284 1.8344454 55 42 38
-0.10234959 0.12428164 1.8276712 54 40 35
-0.100152075 0.12382439 1.8209468 55 42 36
-0.09833113 0.12382439 1.8209468 55 40 35
-0.09573528 0.122830175 1.8063262 52 39 34
-0.09392896 0.122830175 1.8063262 55 41 36
-0.09212264 0.122830175 1.8063262 54 39 35
-0.09031631 0.122830175 1.8063262 53 40 35
-0.08850998 0.122830175 1.8063262 53 39 35
-0.08670366 0.122830175 1.8063262 53 39 35
-0.08458861 0.12238351 1.7997576 52 40 35
-0.083091006 0.122830175 1.8063262 53 40 34
-0.08098909 0.12238351 1.7997576 53 40 35
-0.079478346 0.122830175 1.8063262 53 39 33
-0.07738958 0.12238351 1.7997576 55 40 34
-0.07531594 0.12194009 1.7932367 55 40 34
-0.0735227 0.12194009 1.7932367 56 41 36
-0.071418956 0.12141222 1.7854738 62 46 39
-0.06963348 0.12141222 1.7854738 107 71 52
-0.067848004 0.12141222 1.7854738 160 108 72
-0.065825075 0.12097581 1.779056 177 122 85
-0.06381662 0.120542504 1.7726839 187 128 89
-0.062043935 0.120542504 1.7726839 191 131 93
-0.060271252 0.120542504 1.7726839 192 133 94
-0.058498565 0.120542504 1.7726839 195 136 95
-0.05652344 0.12011231 1.7663574 197 137 96
-0.054953203 0.120542504 1.7726839 199 137 98
-0.052990723 0.12011231 1.7663574 197 137 98
-0.051224366 0.12011231 1.7663574 198 137 98
-0.04945801 0.12011231 1.7663574 197 135 96
-0.04769165 0.12011231 1.7663574 195 133 94
-0.04572945 0.119600095 1.758825 196 132 95
-0.043970622 0.119600095 1.758825 194 132 96
-0.0422118 0.119600095 1.758825 194 130 95
-0.040452972 0.119600095 1.758825 193 129 93
-0.03869415 0.119600095 1.758825 191 128 91
-0.036674663 0.118756056 1.7464126 191 124 89
-0.03505194 0.11917659 1.7525969 188 121 86
-0.03318184 0.118756056 1.7464126 187 120 83
-0.031435426 0.118756056 1.7464126 186 120 85
-0.029794147 0.11917659 1.7525969 184 118 84
-0.027942602 0.118756056 1.7464126 184 118 83
-0.02619619 0.118756056 1.7464126 184 116 82
-0.024449777 0.118756056 1.7464126 182 116 82
-0.022703363 0.118756056 1.7464126 180 114 84
-0.02095695 0.118756056 1.7464126 180 114 84
-0.01921054 0.118756056 1.7464126 180 114 84
-0.017464127 0.118756056 1.7464126 178 113 83
-0.015717713 0.118756056 1.7464126 178 114 81
-0.013971301 0.118756056 1.7464126 177 112 84
-0.012224888 0.118756056 1.7464126 177 113 85
-0.010515581 0.11917659 1.7525969 177 113 85
-0.008762985 0.11917659 1.7525969 176 114 87
-0.0070103873 0.11917659 1.7525969 176 114 85
-0.0052577904 0.11917659 1.7525969 174 113 83
-0.0035051936 0.11917659 1.7525969 172 110 80
-0.0017525968 0.11917659 1.7525969 170 110 82
0.0 0.118255325 1.739049 169 107 80
0.001739049 0.118255325 1.739049 171 110 83
0.003478098 0.118255325 1.739049 174 115 87
0.0052392376 0.118756056 1.7464126 174 118 89
0.0069856504 0.118756056 1.7464126 180 120 90
0.008732064 0.118756056 1.7464126 182 122 89
0.010478475 0.118756056 1.7464126 186 127 93
0.012268178 0.11917659 1.7525969 190 132 96
0.0140207745 0.11917659 1.7525969 189 131 99
0.01577337 0.11917659 1.7525969 185 124 91
0.017588248 0.119600095 1.758825 182 116 83
0.019347075 0.119600095 1.758825 180 113 76
0.0211059 0.119600095 1.758825 179 110 75
0.022864725 0.119600095 1.758825 181 112 75
0.024623549 0.119600095 1.758825 182 112 79
0.026382374 0.119600095 1.758825 182 112 80
0.028141199 0.119600095 1.758825 174 109 78
0.029900024 0.119600095 1.758825 162 100 73
0.031794433 0.12011231 1.7663574 158 96 70
0.03356079 0.12011231 1.7663574 158 96 70
0.035453677 0.120542504 1.7726839 158 94 69
0.03722636 0.120542504 1.7726839 158 96 70
0.038999047 0.120542504 1.7726839 158 97 71
0.04077173 0.120542504 1.7726839 161 99 74
0.04269734 0.12097581 1.779056 164 101 75
0.044476397 0.12097581 1.779056 164 101 73
0.04608978 0.120542504 1.7726839 166 102 75
0.04803451 0.12097581 1.779056 166 103 72
0.04981357 0.12097581 1.779056 167 104 72
0.051592622 0.12097581 1.779056 173 108 77
0.053564217 0.12141222 1.7854738 177 110 80
0.055792484 0.12238351 1.7997576 183 115 83
0.05713516 0.12141222 1.7854738 189 120 85
0.059392 0.12238351 1.7997576 193 124 88
0.060970046 0.12194009 1.7932367 195 126 92
0.06276329 0.12194009 1.7932367 198 129 94
0.06479128 0.12238351 1.7997576 200 130 97
0.06683407 0.122830175 1.8063262 201 131 98
0.068640396 0.122830175 1.8063262 202 133 99
0.07101692 0.12382439 1.8209468 197 130 97
0.07310685 0.12428164 1.8276712 185 122 89
0.07549207 0.12520635 1.8412699 151 96 79
0.07733334 0.12520635 1.8412699 92 60 47
0.07917461 0.12520635 1.8412699 72 47 38
0.08101588 0.12520635 1.8412699 69 46 41
0.08316655 0.12567389 1.8481455 69 45 40
0.085977845 0.12709768 1.8690836 69 46 41
0.087846935 0.12709768 1.8690836 72 48 39
0.089378476 0.12661952 1.8620517 74 50 37
0.09200202 0.12767628 1.8775923 86 58 43
0.09532614 0.12964356 1.9065229 112 92 81
0.11762163 0.15682882 2.3063064 162 139 126
-0.15159735 0.14305666 2.135174 91 77 65
-0.13083586 0.12522861 1.8690836 64 50 45
-0.128 0.124289855 1.8550725 64 50 46
-0.12709768 0.12522861 1.8690836 59 46 39
-0.12522861 0.12522861 1.8690836 53 42 35
-0.123359516 0.12522861 1.8690836 51 40 33
-0.12149044 0.12522861 1.8690836 51 40 35
-0.119171314 0.12475747 1.8620517 53 42 36
-0.11730926 0.12475747 1.8620517 54 40 34
-0.11458502 0.123825744 1.8481455 66 51 44
-0.11273688 0.123825744 1.8481455 73 56 49
-0.110888734 0.123825744 1.8481455 64 49 41
-0.10863492 0.12336508 1.8412699 60 45 38
-0.10639783 0.12290784 1.8344454 58 42 38
-0.104563385 0.12290784 1.8344454 57 41 38
-0.10234959 0.12245397 1.8276712 55 41 36
-0.100152075 0.122003436 1.8209468 55 41 35
-0.09833113 0.122003436 1.8209468 55 41 35
-0.09573528 0.12102385 1.8063262 55 41 35
-0.09392896 0.12102385 1.8063262 55 41 35
-0.09212264 0.12102385 1.8063262 55 40 35
-0.09031631 0.12102385 1.8063262 54 39 35
-0.08850998 0.12102385 1.8063262 53 39 35
-0.08670366 0.12102385 1.8063262 54 40 35
-0.08489733 0.12102385 1.8063262 54 41 35
-0.08278885 0.12058376 1.7997576 54 41 35
-0.08098909 0.12058376 1.7997576 54 41 35
-0.079478346 0.12102385 1.8063262 54 40 34
-0.07767203 0.12102385 1.8063262 55 40 35
-0.07558982 0.12058376 1.7997576 55 40 34
-0.0735227 0.120146856 1.7932367 55 41 35
-0.07172947 0.120146856 1.7932367 60 44 38
-0.06963348 0.119626746 1.7854738 97 63 45
-0.068142995 0.120146856 1.7932367 152 104 71
-0.065825075 0.11919675 1.779056 174 122 82
-0.06404601 0.11919675 1.779056 184 127 88
-0.062043935 0.118769825 1.7726839 188 131 91
-0.060487904 0.11919675 1.779056 192 133 93
-0.058708847 0.11919675 1.779056 195 134 95
-0.056725882 0.118769825 1.7726839 198 138 97
-0.054953203 0.118769825 1.7726839 199 137 97
-0.052990723 0.118345946 1.7663574 199 136 98
-0.051224366 0.118345946 1.7663574 198 137 97
-0.04945801 0.118345946 1.7663574 198 135 95
-0.04769165 0.118345946 1.7663574 194 133 94
-0.04572945 0.11784127 1.758825 195 132 95
-0.043970622 0.11784127 1.758825 195 131 95
-0.0422118 0.11784127 1.758825 194 131 96
-0.040452972 0.11784127 1.758825 194 128 94
-0.03869415 0.11784127 1.758825 191 127 92
-0.036674663 0.11700965 1.7464126 192 125 90
-0.03505194 0.11742399 1.7525969 189 122 87
-0.033299338 0.11742399 1.7525969 190 121 84
-0.031435426 0.11700965 1.7464126 188 120 86
-0.029794147 0.11742399 1.7525969 187 119 86
-0.027942602 0.11700965 1.7464126 186 118 84
-0.02619619 0.11700965 1.7464126 184 116 83
-0.024449777 0.11700965 1.7464126 184 116 83
-0.022703363 0.11700965 1.7464126 182 115 82
-0.02095695 0.11700965 1.7464126 181 114 83
-0.01921054 0.11700965 1.7464126 181 114 83
-0.017464127 0.11700965 1.7464126 180 114 83
-0.015717713 0.11700965 1.7464126 180 114 82
-0.013971301 0.11700965 1.7464126 183 114 84
-0.012224888 0.11700965 1.7464126 178 114 85
-0.010515581 0.11742399 1.7525969 179 113 85
-0.008762985 0.11742399 1.7525969 177 114 87
-0.0070103873 0.11742399 1.7525969 177 114 85
-0.0052577904 0.11742399 1.7525969 174 110 82
-0.0035051936 0.11742399 1.7525969 169 107 79
-0.0017525968 0.11742399 1.7525969 164 105 76
0.0 0.116516285 1.739049 161 101 74
0.001739049 0.116516285 1.739049 168 106 80
0.003478098 0.116516285 1.739049 174 116 86
0.0052392376 0.11700965 1.7464126 178 119 89
0.0069856504 0.11700965 1.7464126 181 121 91
0.008732064 0.11700965 1.7464126 183 123 91
0.010478475 0.11700965 1.7464126 187 126 93
0.012268178 0.11742399 1.7525969 187 127 91
0.0140207745 0.11742399 1.7525969 186 126 92
0.015829425 0.11784127 1.758825 184 120 86
0.017588248 0.11784127 1.758825 181 114 80
0.019347075 0.11784127 1.758825 181 109 76
0.0211059 0.11784127 1.758825 177 107 75
0.022864725 0.11784127 1.758825 175 106 75
0.024623549 0.11784127 1.758825 182 112 79
0.026382374 0.11784127 1.758825 185 113 80
0.028141199 0.11784127 1.758825 181 114 82
0.029900024 0.11784127 1.758825 170 105 77
0.031794433 0.118345946 1.7663574 157 96 70
0.03356079 0.118345946 1.7663574 155 93 68
0.035453677 0.118769825 1.7726839 155 93 69
0.03722636 0.118769825 1.7726839 158 95 70
0.038999047 0.118769825 1.7726839 159 96 72
0.04077173 0.118769825 1.7726839 162 99 74
0.04269734 0.11919675 1.779056 165 101 75
0.044476397 0.11919675 1.779056 165 101 73
0.04608978 0.118769825 1.7726839 166 103 73
0.04803451 0.11919675 1.779056 167 104 73
0.04981357 0.11919675 1.779056 174 107 79
0.05177874 0.119626746 1.7854738 177 111 79
0.053564217 0.119626746 1.7854738 184 116 82
0.05559034 0.120146856 1.7932367 191 120 85
0.05713516 0.119626746 1.7854738 195 124 90
0.059392 0.12058376 1.7997576 199 128 94
0.060970046 0.120146856 1.7932367 200 130 96
0.06276329 0.120146856 1.7932367 201 131 97
0.06502774 0.12102385 1.8063262 202 132 99
0.06683407 0.12102385 1.8063262 201 132 100
0.06889182 0.12146716 1.8129426 202 133 100
0.07101692 0.122003436 1.8209468 198 131 98
0.07310685 0.12245397 1.8276712 189 123 89
0.07549207 0.12336508 1.8412699 152 97 80
0.07733334 0.12336508 1.8412699 92 59 47
0.079470254 0.123825744 1.8481455 72 47 38
0.08131841 0.123825744 1.8481455 69 46 42
0.083478265 0.124289855 1.8550725 69 46 41
0.08565438 0.12475747 1.8620517 71 47 41
0.087846935 0.12522861 1.8690836 72 48 40
0.089378476 0.12475747 1.8620517 77 52 41
0.09200202 0.12579869 1.8775923 87 60 45
0.09569477 0.12823099 1.9138954 108 89 78
0.11762163 0.15452252 2.3063064 150 128 117
-0.15042923 0.13983561 2.1187215 84 68 54
-0.13143146 0.1239211 1.8775923 66 51 46
-0.12896676 0.123359516 1.8690836 63 49 45
-0.12709768 0.123359516 1.8690836 58 44 38
-0.12522861 0.123359516 1.8690836 50 40 33
-0.123359516 0.123359516 1.8690836 51 40 33
-0.12149044 0.123359516 1.8690836 52 41 36
-0.119171314 0.12289542 1.8620517 53 42 37
-0.11730926 0.12289542 1.8620517 58 42 37
-0.11458502 0.1219776 1.8481455 72 56 50
-0.11273688 0.1219776 1.8481455 74 57 49
-0.110888734 0.1219776 1.8481455 67 52 41
-0.10863492 0.12152381 1.8412699 61 46 37
-0.10639783 0.121073395 1.8344454 58 43 38
-0.104563385 0.121073395 1.8344454 58 41 37
-0.10234959 0.1206263 1.8276712 55 40 36
-0.100152075 0.120182484 1.8209468 57 42 36
-0.09833113 0.120182484 1.8209468 55 39 34
-0.09573528 0.11921753 1.8063262 57 42 36
-0.09392896 0.11921753 1.8063262 59 42 38
-0.09212264 0.11921753 1.8063262 54 39 35
-0.09031631 0.11921753 1.8063262 53 40 34
-0.08850998 0.11921753 1.8063262 54 41 37
-0.08670366 0.11921753 1.8063262 55 40 35
-0.08489733 0.11921753 1.8063262 56 40 36
-0.08278885 0.118784 1.7997576 56 41 36
-0.08098909 0.118784 1.7997576 56 41 36
-0.079478346 0.11921753 1.8063262 56 41 35
-0.07767203 0.11921753 1.8063262 56 41 36
-0.07558982 0.118784 1.7997576 56 41 35
-0.0735227 0.11835362 1.7932367 56 41 36
-0.07172947 0.11835362 1.7932367 59 44 39
-0.06963348 0.11784127 1.7854738 88 56 39
-0.068142995 0.11835362 1.7932367 145 96 69
-0.065825075 0.11741769 1.779056 172 119 78
-0.06404601 0.11741769 1.779056 182 127 89
-0.062043935 0.11699713 1.7726839 190 131 93
-0.06070611 0.11784127 1.7854738 194 133 93
-0.058708847 0.11741769 1.779056 194 134 95
-0.056725882 0.11699713 1.7726839 197 137 95
-0.054953203 0.11699713 1.7726839 199 137 98
-0.052990723 0.11657959 1.7663574 199 137 97
-0.051224366 0.11657959 1.7663574 199 136 97
-0.04945801 0.11657959 1.7663574 199 135 95
-0.04769165 0.11657959 1.7663574 197 135 92
-0.04572945 0.116082445 1.758825 195 132 91
-0.043970622 0.116082445 1.758825 195 131 91
-0.0422118 0.116082445 1.758825 192 129 93
-0.040452972 0.116082445 1.758825 193 127 94
-0.03869415 0.116082445 1.758825 193 126 92
-0.036674663 0.11526324 1.7464126 192 125 92
-0.03505194 0.115671396 1.7525969 189 123 89
-0.03318184 0.11526324 1.7464126 191 123 88
-0.031435426 0.11526324 1.7464126 191 123 87
-0.029794147 0.115671396 1.7525969 189 120 88
-0.027942602 0.11526324 1.7464126 188 119 86
-0.02619619 0.11526324 1.7464126 186 119 86
-0.024449777 0.11526324 1.7464126 186 117 85
-0.022703363 0.11526324 1.7464126 183 116 83
-0.02095695 0.11526324 1.7464126 183 114 83
-0.01921054 0.11526324 1.7464126 183 114 82
-0.017464127 0.11526324 1.7464126 183 115 83
-0.015717713 0.11526324 1.7464126 181 114 84
-0.013971301 0.11526324 1.7464126 182 114 85
-0.012268178 0.115671396 1.7525969 182 113 84
-0.010515581 0.115671396 1.7525969 178 113 83
-0.008762985 0.115671396 1.7525969 175 113 83
-0.0070103873 0.115671396 1.7525969 174 111 82
-0.0052577904 0.115671396 1.7525969 169 107 80
-0.0035051936 0.115671396 1.7525969 166 104 77
-0.0017525968 0.115671396 1.7525969 163 101 72
0.0 0.11477723 1.739049 160 99 71
0.001739049 0.11477723 1.739049 167 106 78
0.0034928252 0.11526324 1.7464126 177 116 86
0.0052392376 0.11526324 1.7464126 182 121 88
0.0069856504 0.11526324 1.7464126 185 124 91
0.008732064 0.11526324 1.7464126 187 126 94
0.010515581 0.115671396 1.7525969 185 124 92
0.012268178 0.115671396 1.7525969 183 122 87
0.0140207745 0.115671396 1.7525969 184 118 84
0.015829425 0.116082445 1.758825 180 113 79
0.017588248 0.116082445 1.758825 179 109 76
0.019278564 0.115671396 1.7525969 179 107 74
0.021031162 0.115671396 1.7525969 173 105 71
0.022864725 0.116082445 1.758825 172 104 70
0.024623549 0.116082445 1.758825 172 105 69
0.026382374 0.116082445 1.758825 176 109 72
0.028141199 0.116082445 1.758825 177 109 79
0.029900024 0.116082445 1.758825 182 112 82
0.031794433 0.11657959 1.7663574 168 103 76
0.03356079 0.11657959 1.7663574 150 92 66
0.035453677 0.11699713 1.7726839 151 90 66
0.037360176 0.11741769 1.779056 154 94 69
0.038999047 0.11699713 1.7726839 159 97 72
0.04077173 0.11699713 1.7726839 165 100 75
0.04269734 0.11741769 1.779056 164 102 76
0.044476397 0.11741769 1.779056 165 102 72
0.04608978 0.11699713 1.7726839 169 105 73
0.04803451 0.11741769 1.779056 174 107 77
0.049993265 0.11784127 1.7854738 178 111 82
0.05177874 0.11784127 1.7854738 183 115 81
0.053564217 0.11784127 1.7854738 186 119 82
0.05559034 0.11835362 1.7932367 194 124 87
0.05713516 0.11784127 1.7854738 199 130 94
0.059392 0.118784 1.7997576 204 133 100
0.060970046 0.11835362 1.7932367 207 136 102
0.06276329 0.11835362 1.7932367 208 137 103
0.06502774 0.11921753 1.8063262 210 138 104
0.06707888 0.119654216 1.8129426 206 137 104
0.06919598 0.120182484 1.8209468 205 135 103
0.071279176 0.1206263 1.8276712 200 132 100
0.07310685 0.1206263 1.8276712 191 125 91
0.07549207 0.12152381 1.8412699 152 97 81
0.07762211 0.1219776 1.8481455 91 58 45
0.07917461 0.12152381 1.8412699 73 47 38
0.08101588 0.12152381 1.8412699 71 48 42
0.083478265 0.12243479 1.8550725 71 47 40
0.08565438 0.12289542 1.8620517 70 46 38
0.087846935 0.123359516 1.8690836 72 47 40
0.08971602 0.123359516 1.8690836 76 52 44
0.092352375 0.124393 1.8847424 86 59 48
0.09569477 0.1263171 1.9138954 102 81 69
0.11762163 0.15221621 2.3063064 139 117 104
-0.14629588 0.13393283 2.0605052 80 60 45
-0.13083586 0.12149044 1.8690836 69 51 45
-0.12896676 0.12149044 1.8690836 61 48 42
-0.12709768 0.12149044 1.8690836 58 44 38
-0.12522861 0.12149044 1.8690836 51 39 33
-0.123359516 0.12149044 1.8690836 52 42 36
-0.12149044 0.12149044 1.8690836 54 43 38
-0.119171314 0.12103336 1.8620517 53 41 36
-0.11730926 0.12103336 1.8620517 59 44 38
-0.11458502 0.12012946 1.8481455 74 57 52
-0.11273688 0.12012946 1.8481455 75 58 50
-0.110888734 0.12012946 1.8481455 65 51 41
-0.10863492 0.11968254 1.8412699 58 45 38
-0.10679365 0.11968254 1.8412699 59 42 38
-0.104563385 0.11923894 1.8344454 58 41 38
-0.10234959 0.11879863 1.8276712 55 40 35
-0.100152075 0.11836154 1.8209468 58 43 36
-0.09833113 0.11836154 1.8209468 56 41 34
-0.09573528 0.1174112 1.8063262 58 43 36
-0.09392896 0.1174112 1.8063262 57 44 36
-0.09212264 0.1174112 1.8063262 58 41 35
-0.09031631 0.1174112 1.8063262 56 39 32
-0.08850998 0.1174112 1.8063262 55 41 35
-0.08670366 0.1174112 1.8063262 56 41 37
-0.08489733 0.1174112 1.8063262 57 41 35
-0.08278885 0.11698425 1.7997576 57 42 35
-0.08098909 0.11698425 1.7997576 58 42 35
-0.079478346 0.1174112 1.8063262 57 42 36
-0.07767203 0.1174112 1.8063262 57 42 36
-0.07558982 0.11698425 1.7997576 57 42 36
-0.0735227 0.116560385 1.7932367 57 42 36
-0.07172947 0.116560385 1.7932367 60 45 40
-0.06963348 0.1160558 1.7854738 80 51 36
-0.068142995 0.116560385 1.7932367 134 92 65
-0.065825075 0.115638636 1.779056 168 116 77
-0.06404601 0.115638636 1.779056 179 126 89
-0.06226696 0.115638636 1.779056 189 130 92
-0.06070611 0.1160558 1.7854738 194 134 93
-0.058708847 0.115638636 1.779056 197 136 96
-0.056725882 0.11522445 1.7726839 197 137 96
-0.054953203 0.11522445 1.7726839 199 137 98
-0.052990723 0.11481323 1.7663574 199 136 97
-0.051224366 0.11481323 1.7663574 199 136 96
-0.04945801 0.11481323 1.7663574 199 135 95
-0.04769165 0.11481323 1.7663574 198 135 93
-0.04572945 0.11432362 1.758825 195 132 91
-0.043970622 0.11432362 1.758825 196 132 91
-0.0422118 0.11432362 1.758825 195 129 93
-0.040452972 0.11432362 1.758825 196 129 95
-0.03869415 0.11432362 1.758825 194 128 92
-0.036674663 0.11351682 1.7464126 193 127 93
-0.03505194 0.113918796 1.7525969 190 124 91
-0.03318184 0.11351682 1.7464126 190 124 90
-0.031435426 0.11351682 1.7464126 192 124 88
-0.029794147 0.113918796 1.7525969 191 122 88
-0.027942602 0.11351682 1.7464126 189 120 87
-0.02619619 0.11351682 1.7464126 189 120 87
-0.024449777 0.11351682 1.7464126 187 119 86
-0.022703363 0.11351682 1.7464126 185 117 84
-0.02095695 0.11351682 1.7464126 183 115 83
-0.01921054 0.11351682 1.7464126 184 113 83
-0.017464127 0.11351682 1.7464126 184 115 84
-0.015717713 0.11351682 1.7464126 181 114 84
-0.013971301 0.11351682 1.7464126 182 114 84
-0.012268178 0.113918796 1.7525969 179 113 82
-0.010515581 0.113918796 1.7525969 176 112 82
-0.008762985 0.113918796 1.7525969 173 111 81
-0.0070103873 0.113918796 1.7525969 172 109 80
-0.0052577904 0.113918796 1.7525969 168 107 78
-0.0035051936 0.113918796 1.7525969 163 103 75
-0.0017525968 0.113918796 1.7525969 161 99 70
0.0 0.11351682 1.7464126 157 99 71
0.001739049 0.11303818 1.739049 172 111 82
0.0034928252 0.11351682 1.7464126 180 118 88
0.0052577904 0.113918796 1.7525969 186 124 92
0.0069856504 0.11351682 1.7464126 190 128 99
0.008732064 0.11351682 1.7464126 190 128 98
0.01055295 0.11432362 1.758825 186 123 92
0.012224888 0.11351682 1.7464126 182 118 84
0.014070599 0.11432362 1.758825 174 110 78
0.01577337 0.113918796 1.7525969 176 107 72
0.017588248 0.11432362 1.758825 177 106 72
0.019278564 0.113918796 1.7525969 170 104 70
0.021031162 0.113918796 1.7525969 167 100 69
0.022864725 0.11432362 1.758825 169 100 67
0.024729004 0.11481323 1.7663574 170 100 66
0.026495362 0.11481323 1.7663574 168 101 65
0.028141199 0.11432362 1.758825 171 105 74
0.029900024 0.11432362 1.758825 181 111 81
0.031794433 0.11481323 1.7663574 183 111 83
0.03356079 0.11481323 1.7663574 162 98 72
0.035453677 0.11522445 1.7726839 147 89 64
0.037360176 0.115638636 1.779056 151 91 67
0.038999047 0.11522445 1.7726839 158 95 70
0.04077173 0.11522445 1.7726839 164 99 73
0.04269734 0.115638636 1.779056 167 102 75
0.044476397 0.115638636 1.779056 170 103 73
0.04608978 0.11522445 1.7726839 168 106 74
0.048207793 0.1160558 1.7854738 176 108 78
0.049993265 0.1160558 1.7854738 184 114 83
0.05177874 0.1160558 1.7854738 188 116 84
0.053564217 0.1160558 1.7854738 193 122 84
0.05559034 0.116560385 1.7932367 196 125 87
0.05713516 0.1160558 1.7854738 205 131 96
0.05917681 0.116560385 1.7932367 209 136 103
0.060970046 0.116560385 1.7932367 213 140 107
0.062991515 0.11698425 1.7997576 215 142 108
0.06502774 0.1174112 1.8063262 216 144 110
0.06707888 0.11784127 1.8129426 213 142 108
0.06889182 0.11784127 1.8129426 211 139 106
0.07101692 0.11836154 1.8209468 205 135 101
0.07310685 0.11879863 1.8276712 191 127 91
0.07549207 0.11968254 1.8412699 150 96 80
0.07762211 0.12012946 1.8481455 89 56 43
0.079470254 0.12012946 1.8481455 73 48 39
0.08131841 0.12012946 1.8481455 73 50 42
0.083478265 0.12057971 1.8550725 72 48 40
0.08565438 0.12103336 1.8620517 72 48 40
0.087846935 0.12149044 1.8690836 72 48 40
0.08971602 0.12149044 1.8690836 81 58 50
0.092352375 0.12250826 1.8847424 91 65 54
0.09569477 0.1244032 1.9138954 100 80 66
0.11718477 0.14935315 2.2977407 132 110 97
-0.14123902 0.12731405 1.9892819 76 58 41
-0.13083586 0.11962135 1.8690836 69 52 42
-0.12955387 0.12016591 1.8775923 60 50 46
-0.12767628 0.12016591 1.8775923 50 42 38
-0.12579869 0.12016591 1.8775923 52 43 38
-0.123359516 0.11962135 1.8690836 55 46 43
-0.12149044 0.11962135 1.8690836 56 42 42
-0.11962135 0.11962135 1.8690836 53 40 39
-0.11775227 0.11962135 1.8690836 57 47 44
-0.11544721 0.119171314 1.8620517 78 64 56
-0.113159426 0.11872464 1.8550725 74 59 49
-0.110888734 0.11828131 1.8481455 64 48 39
-0.10863492 0.11784127 1.8412699 58 41 32
-0.10639783 0.117404506 1.8344454 63 47 38
