ply
format ascii 1.0
element vertex 1087
property float32 x
property float32 y
property float32 z
property uchar red
property uchar green
property uchar blue
element face 0
property list uint8 int32 vertex_indices
end_header
0.0037381672 -0.26914805 1.8690836 79 61 52
0.005607251 -0.26914805 1.8690836 75 57 47
0.0074763345 -0.26914805 1.8690836 74 56 45
0.009345418 -0.26914805 1.8690836 74 57 46
0.011214502 -0.26914805 1.8690836 73 58 48
0.013083586 -0.26914805 1.8690836 77 58 49
0.014952669 -0.26914805 1.8690836 77 59 52
0.016821753 -0.26914805 1.8690836 77 59 51
0.018620517 -0.26813543 1.8620517 77 59 50
0.020482568 -0.26813543 1.8620517 78 58 49
0.022344619 -0.26813543 1.8620517 79 59 49
0.024206672 -0.26813543 1.8620517 77 58 48
0.026068723 -0.26813543 1.8620517 78 59 51
0.027930778 -0.26813543 1.8620517 80 61 54
0.02968116 -0.26713043 1.8550725 81 64 55
0.031536233 -0.26713043 1.8550725 80 64 54
0.03351693 -0.26813543 1.8620517 79 65 56
0.03537898 -0.26813543 1.8620517 80 64 57
0.037101448 -0.26713043 1.8550725 76 62 52
0.038956523 -0.26713043 1.8550725 74 61 53
0.040659204 -0.26613292 1.8481455 72 56 50
0.042666666 -0.26713043 1.8550725 71 56 49
0.044355493 -0.26613292 1.8481455 67 53 49
0.046203636 -0.26613292 1.8481455 65 52 48
0.048051782 -0.26613292 1.8481455 61 51 46
0.049714286 -0.26514286 1.8412699 58 49 46
0.05155556 -0.26514286 1.8412699 55 47 46
0.053396825 -0.26514286 1.8412699 51 42 42
0.055238094 -0.26514286 1.8412699 48 36 36
0.056867804 -0.26416013 1.8344454 44 35 37
0.05848548 -0.26318467 1.8276712 45 35 38
0.060091242 -0.26221633 1.8209468 45 37 37
0.06164005 -0.26106375 1.8129426 46 37 37
0.06345299 -0.26106375 1.8129426 57 47 44
0.06526594 -0.26106375 1.8129426 71 60 55
0.06683407 -0.26011097 1.8063262 52 44 43
0.068640396 -0.26011097 1.8063262 52 44 45
0.07019054 -0.2591651 1.7997576 53 44 46
0.0719903 -0.2591651 1.7997576 52 45 47
0.0735227 -0.25822607 1.7932367 52 44 48
0.0749899 -0.2571082 1.7854738 53 44 45
0.07710917 -0.25822607 1.7932367 55 46 47
0.07856085 -0.2571082 1.7854738 52 46 47
0.08034632 -0.2571082 1.7854738 52 44 42
0.082131796 -0.2571082 1.7854738 50 44 44
0.08361563 -0.25618404 1.779056 52 45 46
0.08539468 -0.25618404 1.779056 53 46 47
0.087173745 -0.25618404 1.779056 56 47 49
0.088952795 -0.25618404 1.779056 58 49 50
0.09073186 -0.25618404 1.779056 57 49 50
0.09251091 -0.25618404 1.779056 58 49 50
0.093952246 -0.2552665 1.7726839 61 51 54
0.09572493 -0.2552665 1.7726839 57 47 50
0.097149655 -0.25435546 1.7663574 57 49 51
0.09891602 -0.25435546 1.7663574 55 46 47
0.10104298 -0.2552665 1.7726839 55 48 50
0.102815665 -0.2552665 1.7726839 55 48 49
0.104588345 -0.2552665 1.7726839 54 47 48
0.10674336 -0.25618404 1.779056 55 47 48
0.1077478 -0.25435546 1.7663574 54 46 47
0.10827758 -0.2514834 1.7464126 58 50 50
0.10634652 -0.24307775 1.68804 109 87 80
0.10447142 -0.2350607 1.632366 169 121 97
0.10568551 -0.23413405 1.6259309 187 128 102
0.10731144 -0.23413405 1.6259309 186 126 101
0.108580664 -0.2333674 1.6206069 180 124 98
0.11020127 -0.2333674 1.6206069 181 123 98
0.111821875 -0.2333674 1.6206069 182 122 99
0.11344248 -0.2333674 1.6206069 180 121 98
0.115063086 -0.2333674 1.6206069 182 120 98
0.11622701 -0.23245402 1.614264 181 119 98
0.11784127 -0.23245402 1.614264 179 117 97
0.11945554 -0.23245402 1.614264 178 117 97
0.121069804 -0.23245402 1.614264 178 116 97
0.12268407 -0.23245402 1.614264 178 118 98
0.124298334 -0.23245402 1.614264 180 119 98
0.12591259 -0.23245402 1.614264 181 120 99
0.12752685 -0.23245402 1.614264 182 120 101
0.12863766 -0.23154776 1.6079706 183 120 101
0.13024563 -0.23154776 1.6079706 185 124 104
0.1318536 -0.23154776 1.6079706 189 127 105
0.13346156 -0.23154776 1.6079706 192 131 109
0.13506953 -0.23154776 1.6079706 198 134 111
0.13721246 -0.23245402 1.614264 201 134 110
0.13882671 -0.23245402 1.614264 203 135 112
0.14044097 -0.23245402 1.614264 203 135 112
0.14205524 -0.23245402 1.614264 203 138 115
0.1436695 -0.23245402 1.614264 202 138 112
0.1458546 -0.2333674 1.6206069 205 138 112
0.14747523 -0.2333674 1.6206069 204 137 112
0.14909583 -0.2333674 1.6206069 200 134 107
0.15071644 -0.2333674 1.6206069 200 134 111
0.15233704 -0.2333674 1.6206069 201 132 113
0.15446344 -0.23413405 1.6259309 196 133 114
0.15608937 -0.23413405 1.6259309 195 132 110
0.1577153 -0.23413405 1.6259309 193 127 106
0.15997186 -0.2350607 1.632366 189 126 105
0.16224635 -0.23599471 1.6388521 188 128 108
0.16686895 -0.24029131 1.6686896 187 131 114
0.17564395 -0.25042304 1.739049 217 177 157
0.18642245 -0.26318467 1.8276712 205 180 161
0.19179133 -0.26813543 1.8620517 215 189 169
0.19438471 -0.26914805 1.8690836 209 186 165
0.19625379 -0.26914805 1.8690836 196 174 156
0.19812286 -0.26914805 1.8690836 195 171 154
0.19923954 -0.26813543 1.8620517 205 182 162
0.20186104 -0.26914805 1.8690836 208 186 166
0.20373012 -0.26914805 1.8690836 209 185 165
0.20653516 -0.27037328 1.8775923 209 187 167
0.20746827 -0.26914805 1.8690836 212 188 168
0.20933737 -0.26914805 1.8690836 215 188 169
0.21120645 -0.26914805 1.8690836 208 184 165
0.21307553 -0.26914805 1.8690836 211 188 168
0.21494463 -0.26914805 1.8690836 210 188 167
0.2168137 -0.26914805 1.8690836 210 189 168
0.21786004 -0.26813543 1.8620517 208 187 166
0.2197221 -0.26813543 1.8620517 210 186 165
0.22158416 -0.26813543 1.8620517 206 183 162
0.22344622 -0.26813543 1.8620517 210 188 166
0.22530825 -0.26813543 1.8620517 208 185 164
0.2271703 -0.26813543 1.8620517 214 191 169
0.22903237 -0.26813543 1.8620517 211 186 165
0.23176637 -0.26914805 1.8690836 204 178 159
0.23363546 -0.26914805 1.8690836 192 169 152
0.23550454 -0.26914805 1.8690836 206 182 163
0.23737362 -0.26914805 1.8690836 206 178 162
0.2392427 -0.26914805 1.8690836 211 187 169
0.24111179 -0.26914805 1.8690836 210 185 168
0.24298088 -0.26914805 1.8690836 208 182 165
0.24484996 -0.26914805 1.8690836 210 187 169
0.24671903 -0.26914805 1.8690836 211 188 171
0.24858811 -0.26914805 1.8690836 213 190 173
0.25045723 -0.26914805 1.8690836 216 194 175
0.25232628 -0.26914805 1.8690836 211 192 173
0.25323904 -0.26813543 1.8620517 213 189 172
0.25510108 -0.26813543 1.8620517 212 191 173
0.25696313 -0.26813543 1.8620517 215 191 174
0.25882518 -0.26813543 1.8620517 205 182 165
0.26068726 -0.26813543 1.8620517 214 191 173
0.26254928 -0.26813543 1.8620517 215 194 175
0.26441136 -0.26813543 1.8620517 212 188 171
0.2662734 -0.26813543 1.8620517 210 188 171
-0.26813543 -0.2699975 1.8620517 122 98 70
-0.2662734 -0.2699975 1.8620517 119 96 68
-0.26441136 -0.2699975 1.8620517 118 95 71
-0.26254928 -0.2699975 1.8620517 116 95 70
-0.26068726 -0.2699975 1.8620517 117 94 69
-0.25882518 -0.2699975 1.8620517 118 95 72
-0.25696313 -0.2699975 1.8620517 118 95 71
-0.25510108 -0.2699975 1.8620517 115 91 67
-0.25323904 -0.2699975 1.8620517 115 92 66
-0.251377 -0.2699975 1.8620517 116 92 68
-0.24857971 -0.2689855 1.8550725 115 91 65
-0.24672464 -0.2689855 1.8550725 114 91 65
-0.24486957 -0.2689855 1.8550725 113 90 63
-0.2430145 -0.2689855 1.8550725 113 90 64
-0.24115942 -0.2689855 1.8550725 111 89 63
-0.23930435 -0.2689855 1.8550725 110 88 63
-0.23744927 -0.2689855 1.8550725 109 88 63
-0.23559421 -0.2689855 1.8550725 107 84 59
-0.23373914 -0.2689855 1.8550725 107 83 59
-0.23188406 -0.2689855 1.8550725 107 82 59
-0.22917004 -0.2679811 1.8481455 105 81 59
-0.2273219 -0.2679811 1.8481455 101 80 58
-0.22547376 -0.2679811 1.8481455 103 81 60
-0.22362562 -0.2679811 1.8481455 113 90 71
-0.22177747 -0.2679811 1.8481455 115 93 75
-0.21992931 -0.2679811 1.8481455 119 103 86
-0.21889856 -0.2689855 1.8550725 146 124 105
-0.21623302 -0.2679811 1.8481455 140 121 103
-0.21518841 -0.2689855 1.8550725 141 123 102
-0.21333334 -0.2689855 1.8550725 142 125 107
-0.21147828 -0.2689855 1.8550725 141 124 104
-0.2096232 -0.2689855 1.8550725 150 133 112
-0.2069923 -0.2679811 1.8481455 148 128 111
-0.20514415 -0.2679811 1.8481455 144 127 108
-0.203296 -0.2679811 1.8481455 140 122 103
-0.20144786 -0.2679811 1.8481455 147 126 109
-0.20034783 -0.2689855 1.8550725 144 126 110
-0.19849275 -0.2689855 1.8550725 145 126 109
-0.19663768 -0.2689855 1.8550725 138 120 103
-0.19478261 -0.2689855 1.8550725 145 126 107
-0.19292754 -0.2689855 1.8550725 144 126 106
-0.19107246 -0.2689855 1.8550725 149 129 109
-0.18921739 -0.2689855 1.8550725 147 127 110
-0.18736231 -0.2689855 1.8550725 147 127 109
-0.18550725 -0.2689855 1.8550725 146 127 109
-0.18365218 -0.2689855 1.8550725 139 124 103
-0.1817971 -0.2689855 1.8550725 140 123 103
-0.17994203 -0.2689855 1.8550725 143 123 102
-0.17808697 -0.2689855 1.8550725 138 120 100
-0.17623189 -0.2689855 1.8550725 142 125 105
-0.17437682 -0.2689855 1.8550725 141 123 102
-0.17252174 -0.2689855 1.8550725 140 120 101
-0.17066666 -0.2689855 1.8550725 140 122 102
-0.1688116 -0.2689855 1.8550725 142 124 105
-0.16695653 -0.2689855 1.8550725 146 127 108
-0.16510145 -0.2689855 1.8550725 140 121 104
-0.16324638 -0.2689855 1.8550725 137 119 100
-0.16139132 -0.2689855 1.8550725 133 114 95
-0.15953624 -0.2689855 1.8550725 135 118 98
-0.15768117 -0.2689855 1.8550725 136 118 99
-0.15582609 -0.2689855 1.8550725 132 117 98
-0.15397102 -0.2689855 1.8550725 131 114 94
-0.15211596 -0.2689855 1.8550725 135 118 101
-0.15026088 -0.2689855 1.8550725 140 122 103
-0.14840579 -0.2689855 1.8550725 139 121 103
-0.14655071 -0.2689855 1.8550725 138 119 98
-0.14415535 -0.2679811 1.8481455 131 113 96
-0.14177777 -0.26698413 1.8412699 135 116 100
-0.13839196 -0.26403728 1.8209468 113 99 87
-0.13449275 -0.26001933 1.7932367 88 77 73
-0.1311786 -0.25703916 1.7726839 83 73 69
-0.12940592 -0.25703916 1.7726839 79 69 66
-0.1266354 -0.25502962 1.758825 77 67 64
-0.12487657 -0.25502962 1.758825 72 63 60
-0.12408787 -0.25703916 1.7726839 77 67 65
-0.12231518 -0.25703916 1.7726839 75 65 64
-0.119600095 -0.25502962 1.758825 73 63 62
-0.115703195 -0.25040242 1.7269133 73 62 61
-0.11141065 -0.2447658 1.68804 102 86 76
-0.10568551 -0.23575997 1.6259309 178 125 99
-0.10291012 -0.23315573 1.6079706 180 124 95
-0.1009741 -0.2324007 1.6027634 182 124 95
-0.09937133 -0.2324007 1.6027634 186 130 101
-0.09739011 -0.23150109 1.5965592 192 134 104
-0.095793545 -0.23150109 1.5965592 202 139 106
-0.09419699 -0.23150109 1.5965592 206 142 109
-0.092243366 -0.23060842 1.5904028 210 144 111
-0.090652965 -0.23060842 1.5904028 211 143 113
-0.089062564 -0.23060842 1.5904028 216 147 116
-0.087472156 -0.23060842 1.5904028 222 150 117
-0.085881755 -0.23060842 1.5904028 219 147 116
-0.084291354 -0.23060842 1.5904028 215 145 114
-0.08243605 -0.22986975 1.5853087 217 142 111
-0.080850735 -0.22986975 1.5853087 216 144 110
-0.07926543 -0.22986975 1.5853087 216 144 110
-0.077680126 -0.22986975 1.5853087 216 144 109
-0.07580345 -0.22898959 1.5792385 218 145 109
-0.07422421 -0.22898959 1.5792385 218 145 112
-0.07264497 -0.22898959 1.5792385 220 146 115
-0.07106573 -0.22898959 1.5792385 221 149 115
-0.0694865 -0.22898959 1.5792385 220 146 111
-0.06790726 -0.22898959 1.5792385 220 145 112
-0.06607502 -0.22811614 1.5732148 224 151 116
-0.06474878 -0.22898959 1.5792385 223 153 122
-0.06316954 -0.22898959 1.5792385 221 153 125
-0.061590303 -0.22898959 1.5792385 221 153 127
-0.060011063 -0.22898959 1.5792385 224 153 127
-0.05865642 -0.22986975 1.5853087 223 151 124
-0.057071112 -0.22986975 1.5853087 224 149 122
-0.0554858 -0.22986975 1.5853087 220 150 123
-0.053900495 -0.22986975 1.5853087 219 148 121
-0.052315187 -0.22986975 1.5853087 221 149 119
-0.05072988 -0.22986975 1.5853087 219 147 118
-0.04914457 -0.22986975 1.5853087 218 145 115
-0.047712084 -0.23060842 1.5904028 214 144 115
-0.046121683 -0.23060842 1.5904028 208 140 109
-0.044531282 -0.23060842 1.5904028 202 135 105
-0.042940877 -0.23060842 1.5904028 202 133 104
-0.041350476 -0.23060842 1.5904028 200 132 105
-0.03976007 -0.23060842 1.5904028 195 131 103
-0.038466323 -0.2324007 1.6027634 191 129 102
-0.036983322 -0.23315573 1.6079706 191 126 103
-0.035260797 -0.2324007 1.6027634 191 126 103
-0.033527743 -0.23150109 1.5965592 190 128 104
-0.032055266 -0.2324007 1.6027634 188 128 101
-0.030892687 -0.23575997 1.6259309 183 126 103
-0.031435426 -0.25322983 1.7464126 102 77 64
-0.030956097 -0.26403728 1.8209468 77 58 51
-0.029905338 -0.27101713 1.8690836 75 56 49
-0.028163886 -0.2722509 1.8775923 74 56 48
-0.026286293 -0.2722509 1.8775923 74 56 48
-0.024408702 -0.2722509 1.8775923 75 57 48
-0.022531109 -0.2722509 1.8775923 76 59 49
-0.020653514 -0.2722509 1.8775923 76 59 49
-0.018690836 -0.27101713 1.8690836 75 58 48
-0.016821753 -0.27101713 1.8690836 76 59 49
-0.014952669 -0.27101713 1.8690836 74 58 47
-0.013083586 -0.27101713 1.8690836 74 59 47
-0.011214502 -0.27101713 1.8690836 74 58 49
-0.009345418 -0.27101713 1.8690836 77 61 50
-0.0074763345 -0.27101713 1.8690836 77 60 50
-0.005607251 -0.27101713 1.8690836 78 60 50
-0.0037241036 -0.2699975 1.8620517 76 60 49
-0.0018620518 -0.2699975 1.8620517 78 61 50
0.0 -0.2699975 1.8620517 79 62 52
0.0018620518 -0.2699975 1.8620517 78 62 52
0.0037241036 -0.2699975 1.8620517 78 60 51
0.0055861548 -0.2699975 1.8620517 77 59 50
0.007448207 -0.2699975 1.8620517 76 58 48
0.009310259 -0.2699975 1.8620517 76 58 47
0.0111723095 -0.2699975 1.8620517 74 57 45
0.013034361 -0.2699975 1.8620517 76 58 47
0.014896414 -0.2699975 1.8620517 79 60 50
0.016758464 -0.2699975 1.8620517 79 60 50
0.018620517 -0.2699975 1.8620517 78 59 50
0.020482568 -0.2699975 1.8620517 79 61 53
0.02226087 -0.2689855 1.8550725 79 61 52
0.024115942 -0.2689855 1.8550725 79 62 53
0.025971016 -0.2689855 1.8550725 82 65 57
0.027826088 -0.2689855 1.8550725 82 67 57
0.02968116 -0.2689855 1.8550725 87 70 61
0.031536233 -0.2689855 1.8550725 84 67 58
0.033391304 -0.2689855 1.8550725 83 66 57
0.035114765 -0.2679811 1.8481455 83 67 58
0.03696291 -0.2679811 1.8481455 81 67 59
0.038811054 -0.2679811 1.8481455 75 60 53
0.040659204 -0.2679811 1.8481455 76 60 54
0.042507347 -0.2679811 1.8481455 75 60 54
0.044355493 -0.2679811 1.8481455 69 56 49
0.046203636 -0.2679811 1.8481455 68 56 43
0.048051782 -0.2679811 1.8481455 65 54 43
0.049714286 -0.26698413 1.8412699 60 50 41
0.05155556 -0.26698413 1.8412699 62 53 44
0.053396825 -0.26698413 1.8412699 55 47 45
0.055238094 -0.26698413 1.8412699 49 39 38
0.056657806 -0.26501232 1.8276712 45 34 34
0.058270298 -0.26403728 1.8209468 44 34 36
0.060091242 -0.26403728 1.8209468 46 35 39
0.06164005 -0.2628767 1.8129426 48 36 39
0.06345299 -0.2628767 1.8129426 61 53 53
0.06526594 -0.2628767 1.8129426 65 58 55
0.06683407 -0.2619173 1.8063262 50 44 43
0.068640396 -0.2619173 1.8063262 51 44 44
0.070446715 -0.2619173 1.8063262 52 44 46
0.0719903 -0.26096484 1.7997576 52 44 47
0.07320443 -0.2588937 1.7854738 53 44 46
0.0749899 -0.2588937 1.7854738 53 44 44
0.07677537 -0.2588937 1.7854738 53 44 42
0.07856085 -0.2588937 1.7854738 52 43 44
0.08034632 -0.2588937 1.7854738 53 45 47
0.082131796 -0.2588937 1.7854738 54 46 49
0.08391727 -0.2588937 1.7854738 53 47 48
0.08539468 -0.2579631 1.779056 56 47 47
0.087173745 -0.2579631 1.779056 57 49 48
0.08863419 -0.25703916 1.7726839 57 50 51
0.09073186 -0.2579631 1.779056 60 51 53
0.09251091 -0.2579631 1.779056 61 53 54
0.093952246 -0.25703916 1.7726839 60 52 54
0.09572493 -0.25703916 1.7726839 57 50 51
0.097149655 -0.2561218 1.7663574 58 49 51
0.09891602 -0.2561218 1.7663574 60 51 51
0.10104298 -0.25703916 1.7726839 64 53 55
0.102815665 -0.25703916 1.7726839 64 53 55
0.104588345 -0.25703916 1.7726839 60 52 53
0.10636103 -0.25703916 1.7726839 59 52 52
0.10728832 -0.25502962 1.758825 53 47 49
0.10706863 -0.25040242 1.7269133 56 43 39
0.10512745 -0.24195999 1.6686896 151 113 95
0.10405958 -0.23575997 1.6259309 182 126 99
0.10568551 -0.23575997 1.6259309 188 129 102
0.10696005 -0.234988 1.6206069 184 125 98
0.108580664 -0.234988 1.6206069 179 120 92
0.11020127 -0.234988 1.6206069 176 118 90
0.111821875 -0.234988 1.6206069 176 115 90
0.11344248 -0.234988 1.6206069 177 116 92
0.11461275 -0.23406829 1.614264 178 117 93
0.11622701 -0.23406829 1.614264 176 114 93
0.11784127 -0.23406829 1.614264 174 113 94
0.11945554 -0.23406829 1.614264 175 114 94
0.121069804 -0.23406829 1.614264 176 116 94
0.12268407 -0.23406829 1.614264 177 115 97
0.124298334 -0.23406829 1.614264 178 117 99
0.12591259 -0.23406829 1.614264 181 118 101
0.12752685 -0.23406829 1.614264 182 119 102
0.12863766 -0.23315573 1.6079706 181 120 102
0.13024563 -0.23315573 1.6079706 185 123 102
0.1318536 -0.23315573 1.6079706 190 128 105
0.13346156 -0.23315573 1.6079706 192 131 108
0.13506953 -0.23315573 1.6079706 197 133 110
0.1366775 -0.23315573 1.6079706 198 134 111
0.13828547 -0.23315573 1.6079706 203 135 112
0.14044097 -0.23406829 1.614264 202 137 112
0.14205524 -0.23406829 1.614264 203 139 112
0.1436695 -0.23406829 1.614264 204 137 112
0.14528377 -0.23406829 1.614264 204 137 112
0.14689803 -0.23406829 1.614264 205 135 112
0.14851229 -0.23406829 1.614264 203 136 111
0.15071644 -0.234988 1.6206069 200 136 111
0.15233704 -0.234988 1.6206069 201 136 112
0.15395765 -0.234988 1.6206069 201 136 114
0.15608937 -0.23575997 1.6259309 199 133 114
0.1577153 -0.23575997 1.6259309 194 127 107
0.15997186 -0.23669305 1.632366 188 126 105
0.16160423 -0.23669305 1.632366 189 127 107
0.16508785 -0.23937736 1.6508784 183 125 107
0.17107552 -0.24560347 1.693817 182 138 118
0.18211833 -0.2588937 1.7854738 212 180 160
0.19107246 -0.2689855 1.8550725 213 191 169
0.19292754 -0.2689855 1.8550725 215 189 169
0.19478261 -0.2689855 1.8550725 204 182 163
0.19737749 -0.2699975 1.8620517 205 180 161
0.19923954 -0.2699975 1.8620517 210 184 166
0.20110159 -0.2699975 1.8620517 211 185 167
0.20373012 -0.27101713 1.8690836 209 183 164
0.2055992 -0.27101713 1.8690836 199 176 158
0.20746827 -0.27101713 1.8690836 210 187 167
0.20933737 -0.27101713 1.8690836 213 188 169
0.21120645 -0.27101713 1.8690836 206 184 163
0.21307553 -0.27101713 1.8690836 214 188 168
0.21413596 -0.2699975 1.8620517 215 191 171
0.2168137 -0.27101713 1.8690836 216 193 172
0.21786004 -0.2699975 1.8620517 214 191 171
0.2197221 -0.2699975 1.8620517 216 192 172
0.22158416 -0.2699975 1.8620517 210 186 165
0.22344622 -0.2699975 1.8620517 209 185 164
0.22530825 -0.2699975 1.8620517 214 190 169
0.2271703 -0.2699975 1.8620517 208 184 162
0.22903237 -0.2699975 1.8620517 210 183 162
0.23089442 -0.2699975 1.8620517 202 177 156
0.23275647 -0.2699975 1.8620517 212 186 165
0.23461851 -0.2699975 1.8620517 209 184 163
0.23648058 -0.2699975 1.8620517 207 181 163
0.23834263 -0.2699975 1.8620517 210 182 165
0.24020466 -0.2699975 1.8620517 210 184 167
0.24206673 -0.2699975 1.8620517 204 182 163
0.24392878 -0.2699975 1.8620517 209 184 166
0.24579084 -0.2699975 1.8620517 209 186 168
0.24765287 -0.2699975 1.8620517 210 189 170
0.24951494 -0.2699975 1.8620517 215 192 174
0.251377 -0.2699975 1.8620517 214 190 172
0.25323904 -0.2699975 1.8620517 220 193 177
0.25510108 -0.2699975 1.8620517 208 184 167
0.25696313 -0.2699975 1.8620517 185 165 150
0.25785506 -0.2689855 1.8550725 209 186 169
0.25971013 -0.2689855 1.8550725 215 193 175
0.2615652 -0.2689855 1.8550725 214 190 173
0.26342028 -0.2689855 1.8550725 213 187 172
0.26527536 -0.2689855 1.8550725 209 186 168
-0.26813543 -0.27185956 1.8620517 109 87 56
-0.2662734 -0.27185956 1.8620517 117 95 65
-0.26441136 -0.27185956 1.8620517 118 96 71
-0.2615652 -0.2708406 1.8550725 117 95 70
-0.25971013 -0.2708406 1.8550725 117 94 69
-0.25785506 -0.2708406 1.8550725 118 95 72
-0.256 -0.2708406 1.8550725 117 94 69
-0.25414494 -0.2708406 1.8550725 114 90 65
-0.25228986 -0.2708406 1.8550725 114 91 65
-0.2504348 -0.2708406 1.8550725 114 91 66
-0.24857971 -0.2708406 1.8550725 117 93 67
-0.24672464 -0.2708406 1.8550725 116 93 66
-0.24486957 -0.2708406 1.8550725 114 90 63
-0.2430145 -0.2708406 1.8550725 110 87 61
-0.24115942 -0.2708406 1.8550725 113 90 64
-0.23930435 -0.2708406 1.8550725 111 89 64
-0.23656262 -0.26982924 1.8481455 106 84 60
-0.23471448 -0.26982924 1.8481455 107 84 60
-0.23286633 -0.26982924 1.8481455 107 84 60
-0.23101819 -0.26982924 1.8481455 106 83 60
-0.22917004 -0.26982924 1.8481455 106 83 62
-0.2273219 -0.26982924 1.8481455 103 81 59
-0.22547376 -0.26982924 1.8481455 101 78 56
-0.22362562 -0.26982924 1.8481455 105 82 62
-0.22177747 -0.26982924 1.8481455 120 97 82
-0.21992931 -0.26982924 1.8481455 148 125 107
-0.21808116 -0.26982924 1.8481455 142 124 109
-0.21623302 -0.26982924 1.8481455 141 122 105
-0.21438487 -0.26982924 1.8481455 141 124 105
-0.21253672 -0.26982924 1.8481455 144 128 109
-0.21068858 -0.26982924 1.8481455 149 131 109
-0.20884044 -0.26982924 1.8481455 148 130 108
-0.20622224 -0.2688254 1.8412699 145 129 109
-0.20438094 -0.2688254 1.8412699 143 126 106
-0.20253968 -0.2688254 1.8412699 145 126 106
-0.2006984 -0.2688254 1.8412699 144 128 108
-0.19885714 -0.2688254 1.8412699 144 126 109
-0.19701587 -0.2688254 1.8412699 145 126 107
-0.19590342 -0.26982924 1.8481455 145 124 102
-0.19405529 -0.26982924 1.8481455 141 123 101
-0.19220713 -0.26982924 1.8481455 146 126 104
-0.19035898 -0.26982924 1.8481455 149 129 108
-0.18851084 -0.26982924 1.8481455 145 127 109
-0.18666269 -0.26982924 1.8481455 146 128 110
-0.18481454 -0.26982924 1.8481455 145 125 108
-0.1829664 -0.26982924 1.8481455 144 127 108
-0.18111825 -0.26982924 1.8481455 141 124 106
-0.17927012 -0.26982924 1.8481455 136 118 101
-0.17742197 -0.26982924 1.8481455 141 123 104
-0.17557383 -0.26982924 1.8481455 142 127 106
-0.17372568 -0.26982924 1.8481455 142 125 105
-0.17187753 -0.26982924 1.8481455 137 119 100
-0.17002939 -0.26982924 1.8481455 143 126 106
-0.16818124 -0.26982924 1.8481455 140 124 105
-0.1663331 -0.26982924 1.8481455 144 125 107
-0.16448495 -0.26982924 1.8481455 139 121 102
-0.16263682 -0.26982924 1.8481455 141 120 102
-0.16139132 -0.2708406 1.8550725 133 117 100
-0.15953624 -0.2708406 1.8550725 132 117 96
-0.15768117 -0.2708406 1.8550725 135 116 96
-0.15524422 -0.26982924 1.8481455 129 113 95
-0.15339607 -0.26982924 1.8481455 132 115 92
-0.15154792 -0.26982924 1.8481455 136 118 101
-0.14969978 -0.26982924 1.8481455 132 115 96
-0.14840579 -0.2708406 1.8550725 130 113 96
-0.14546031 -0.2688254 1.8412699 136 118 97
-0.14308673 -0.267829 1.8344454 131 113 95
-0.14177777 -0.2688254 1.8412699 135 115 99
-0.13839196 -0.26585823 1.8209468 120 104 91
-0.13391054 -0.26067916 1.7854738 89 77 72
-0.13165015 -0.25974217 1.779056 83 73 69
-0.12940592 -0.25881183 1.7726839 80 70 67
-0.1266354 -0.25678846 1.758825 77 67 64
-0.12487657 -0.25678846 1.758825 75 65 62
-0.12364502 -0.2578882 1.7663574 76 66 65
-0.12092918 -0.25587913 1.7525969 75 65 64
-0.118255325 -0.25390115 1.739049 75 64 63
-0.11395372 -0.24831708 1.7008018 79 64 58
-0.108164236 -0.23927242 1.6388521 174 126 100
-0.10417962 -0.23400347 1.6027634 176 120 95
-0.10257686 -0.23400347 1.6027634 177 118 92
-0.1009741 -0.23400347 1.6027634 175 120 92
-0.09937133 -0.23400347 1.6027634 183 125 101
-0.09739011 -0.23309764 1.5965592 190 132 102
-0.095793545 -0.23309764 1.5965592 199 137 103
-0.093833774 -0.23219882 1.5904028 204 140 106
-0.092243366 -0.23219882 1.5904028 209 141 108
-0.090652965 -0.23219882 1.5904028 209 141 109
-0.089062564 -0.23219882 1.5904028 211 143 111
-0.087472156 -0.23219882 1.5904028 215 143 111
-0.085606664 -0.23145506 1.5853087 211 141 111
-0.08402136 -0.23145506 1.5853087 213 141 112
-0.08243605 -0.23145506 1.5853087 213 142 110
-0.080850735 -0.23145506 1.5853087 214 141 108
-0.07926543 -0.23145506 1.5853087 213 142 108
-0.077680126 -0.23145506 1.5853087 214 140 107
-0.07580345 -0.23056883 1.5792385 215 141 107
-0.07422421 -0.23056883 1.5792385 215 141 108
-0.07264497 -0.23056883 1.5792385 217 143 109
-0.07106573 -0.23056883 1.5792385 219 144 110
-0.0694865 -0.23056883 1.5792385 221 145 109
-0.06790726 -0.23056883 1.5792385 220 145 112
-0.06607502 -0.22968936 1.5732148 219 149 117
-0.06450181 -0.22968936 1.5732148 225 157 128
-0.06316954 -0.23056883 1.5792385 224 160 133
-0.061590303 -0.23056883 1.5792385 223 157 133
-0.060011063 -0.23056883 1.5792385 221 153 129
-0.058431827 -0.23056883 1.5792385 223 153 125
-0.05685259 -0.23056883 1.5792385 224 151 123
-0.05527335 -0.23056883 1.5792385 219 148 121
-0.053900495 -0.23145506 1.5853087 217 145 118
-0.052315187 -0.23145506 1.5853087 219 146 118
-0.05072988 -0.23145506 1.5853087 218 145 117
-0.04914457 -0.23145506 1.5853087 217 145 114
-0.047712084 -0.23219882 1.5904028 214 143 113
-0.046121683 -0.23219882 1.5904028 209 138 109
-0.044531282 -0.23219882 1.5904028 204 135 107
-0.042940877 -0.23219882 1.5904028 201 132 103
-0.041350476 -0.23219882 1.5904028 198 130 103
-0.03976007 -0.23219882 1.5904028 194 130 104
-0.038466323 -0.23400347 1.6027634 188 126 103
-0.036983322 -0.2347637 1.6079706 186 125 102
-0.035260797 -0.23400347 1.6027634 184 125 102
-0.03365803 -0.23400347 1.6027634 187 127 103
-0.032055266 -0.23400347 1.6027634 190 128 102
-0.030892687 -0.23738591 1.6259309 182 126 100
-0.030954832 -0.25107807 1.7197129 127 98 86
-0.030707544 -0.26372364 1.8063262 78 58 50
-0.029905338 -0.2728862 1.8690836 75 56 48
-0.028036255 -0.2728862 1.8690836 74 56 47
-0.026167171 -0.2728862 1.8690836 73 55 45
-0.024298089 -0.2728862 1.8690836 76 58 49
-0.022429004 -0.2728862 1.8690836 76 59 50
-0.02055992 -0.2728862 1.8690836 76 60 50
-0.018690836 -0.2728862 1.8690836 76 59 50
-0.016821753 -0.2728862 1.8690836 72 54 44
-0.014952669 -0.2728862 1.8690836 74 57 46
-0.013034361 -0.27185956 1.8620517 79 61 51
-0.0111723095 -0.27185956 1.8620517 74 56 47
-0.009310259 -0.27185956 1.8620517 76 59 48
-0.007448207 -0.27185956 1.8620517 77 61 50
-0.0055861548 -0.27185956 1.8620517 76 58 48
-0.0037241036 -0.27185956 1.8620517 80 62 53
-0.0018550724 -0.2708406 1.8550725 82 63 52
0.0 -0.2708406 1.8550725 80 62 50
0.0018550724 -0.2708406 1.8550725 78 62 51
0.003710145 -0.2708406 1.8550725 80 62 52
0.0055652177 -0.2708406 1.8550725 79 62 52
0.00742029 -0.2708406 1.8550725 77 61 50
0.009275362 -0.2708406 1.8550725 77 61 50
0.011130435 -0.2708406 1.8550725 77 60 48
0.012985508 -0.2708406 1.8550725 77 60 49
0.01484058 -0.2708406 1.8550725 80 61 51
0.016758464 -0.27185956 1.8620517 79 61 51
0.018620517 -0.27185956 1.8620517 78 60 51
0.020482568 -0.27185956 1.8620517 79 61 51
0.02226087 -0.2708406 1.8550725 79 62 53
0.024115942 -0.2708406 1.8550725 80 62 54
0.026068723 -0.27185956 1.8620517 80 63 54
0.027826088 -0.2708406 1.8550725 84 67 59
0.029570328 -0.26982924 1.8481455 87 70 61
0.031418473 -0.26982924 1.8481455 86 68 60
0.033266615 -0.26982924 1.8481455 85 68 59
0.035114765 -0.26982924 1.8481455 85 69 61
0.03696291 -0.26982924 1.8481455 83 68 59
0.03866667 -0.2688254 1.8412699 77 63 53
0.04050794 -0.2688254 1.8412699 80 64 55
0.042349204 -0.2688254 1.8412699 78 64 54
0.044190474 -0.2688254 1.8412699 76 63 51
0.046203636 -0.26982924 1.8481455 73 59 48
0.048051782 -0.26982924 1.8481455 71 59 46
0.049530026 -0.267829 1.8344454 63 51 42
0.05136447 -0.267829 1.8344454 61 50 41
0.053198915 -0.267829 1.8344454 59 50 46
0.05503336 -0.267829 1.8344454 55 47 44
0.056657806 -0.26684 1.8276712 47 38 36
0.058270298 -0.26585823 1.8209468 45 35 36
0.060091242 -0.26585823 1.8209468 45 34 38
0.06164005 -0.26468962 1.8129426 49 37 40
0.06345299 -0.26468962 1.8129426 58 49 50
0.06526594 -0.26468962 1.8129426 63 55 52
0.06683407 -0.26372364 1.8063262 50 43 43
0.068640396 -0.26372364 1.8063262 52 44 46
0.07019054 -0.26276463 1.7997576 52 44 48
0.0719903 -0.26276463 1.7997576 52 44 46
0.07379006 -0.26276463 1.7997576 53 45 46
0.07531594 -0.26181257 1.7932367 51 44 44
0.07677537 -0.26067916 1.7854738 52 43 44
0.07856085 -0.26067916 1.7854738 51 44 46
0.08034632 -0.26067916 1.7854738 52 46 46
0.081836574 -0.25974217 1.779056 56 47 50
0.08361563 -0.25974217 1.779056 56 48 48
0.08539468 -0.25974217 1.779056 56 47 46
0.08686151 -0.25881183 1.7726839 57 49 49
0.08863419 -0.25881183 1.7726839 58 52 53
0.09040687 -0.25881183 1.7726839 61 52 56
0.09217956 -0.25881183 1.7726839 62 53 55
0.093952246 -0.25881183 1.7726839 60 53 57
0.09572493 -0.25881183 1.7726839 62 54 56
0.09749761 -0.25881183 1.7726839 63 54 57
0.09927029 -0.25881183 1.7726839 66 57 58
0.10104298 -0.25881183 1.7726839 69 59 60
0.102815665 -0.25881183 1.7726839 69 59 61
0.104215086 -0.2578882 1.7663574 66 58 60
0.10515581 -0.25587913 1.7525969 63 56 56
0.106081985 -0.25390115 1.739049 63 57 56
0.105016656 -0.24729729 1.693817 81 63 51
0.10435341 -0.2418349 1.6564034 188 131 105
0.10405958 -0.23738591 1.6259309 189 130 105
0.105339445 -0.23660861 1.6206069 185 126 99
0.10696005 -0.23660861 1.6206069 179 122 95
0.108580664 -0.23660861 1.6206069 176 117 90
0.11020127 -0.23660861 1.6206069 174 115 89
0.111821875 -0.23660861 1.6206069 173 113 89
0.11299848 -0.23568255 1.614264 172 113 91
0.11461275 -0.23568255 1.614264 173 114 93
0.11622701 -0.23568255 1.614264 172 113 92
0.11784127 -0.23568255 1.614264 171 113 94
0.11945554 -0.23568255 1.614264 171 112 93
0.121069804 -0.23568255 1.614264 173 114 94
0.12268407 -0.23568255 1.614264 173 112 94
0.124298334 -0.23568255 1.614264 176 115 96
0.12591259 -0.23568255 1.614264 178 117 99
0.12752685 -0.23568255 1.614264 180 118 100
0.12863766 -0.2347637 1.6079706 184 122 103
0.13024563 -0.2347637 1.6079706 186 125 104
0.1318536 -0.2347637 1.6079706 191 126 105
0.13346156 -0.2347637 1.6079706 194 132 110
0.13506953 -0.2347637 1.6079706 198 134 111
0.1366775 -0.2347637 1.6079706 199 136 112
0.13828547 -0.2347637 1.6079706 201 136 112
0.13989344 -0.2347637 1.6079706 202 137 112
0.14205524 -0.23568255 1.614264 205 139 113
0.1436695 -0.23568255 1.614264 204 138 112
0.14528377 -0.23568255 1.614264 204 137 112
0.14689803 -0.23568255 1.614264 203 135 112
0.14851229 -0.23568255 1.614264 203 136 111
0.15012656 -0.23568255 1.614264 202 136 112
0.15233704 -0.23660861 1.6206069 202 137 114
0.15395765 -0.23660861 1.6206069 201 136 115
0.15608937 -0.23738591 1.6259309 197 134 115
0.1577153 -0.23738591 1.6259309 195 128 109
0.15934123 -0.23738591 1.6259309 188 125 107
0.16160423 -0.23832542 1.632366 193 126 108
0.1638852 -0.23927242 1.6388521 189 124 108
0.16853765 -0.24362868 1.6686896 187 128 110
0.1767619 -0.25301215 1.7329599 202 157 136
0.18755752 -0.26585823 1.8209468 210 185 165
0.19292754 -0.2708406 1.8550725 207 183 164
0.19551542 -0.27185956 1.8620517 208 183 164
0.19663768 -0.2708406 1.8550725 207 181 161
0.19849275 -0.2708406 1.8550725 203 180 158
0.20110159 -0.27185956 1.8620517 208 185 164
0.20296364 -0.27185956 1.8620517 207 182 164
0.20482568 -0.27185956 1.8620517 216 192 170
0.20668775 -0.27185956 1.8620517 212 188 168
0.20854978 -0.27185956 1.8620517 209 186 165
0.21041185 -0.27185956 1.8620517 212 189 169
0.2122739 -0.27185956 1.8620517 212 188 167
0.21413596 -0.27185956 1.8620517 214 188 169
0.215998 -0.27185956 1.8620517 214 190 169
0.21704349 -0.2708406 1.8550725 215 191 171
0.21889856 -0.2708406 1.8550725 211 188 168
0.22075363 -0.2708406 1.8550725 208 185 166
0.2226087 -0.2708406 1.8550725 209 186 165
0.22446378 -0.2708406 1.8550725 214 187 168
0.22631885 -0.2708406 1.8550725 213 187 166
0.22817393 -0.2708406 1.8550725 208 185 164
0.23002899 -0.2708406 1.8550725 209 185 163
0.23188406 -0.2708406 1.8550725 205 182 161
0.23373914 -0.2708406 1.8550725 206 183 163
0.23559421 -0.2708406 1.8550725 206 179 162
0.23744927 -0.2708406 1.8550725 207 181 163
0.23930435 -0.2708406 1.8550725 208 183 166
0.24115942 -0.2708406 1.8550725 210 187 168
0.2430145 -0.2708406 1.8550725 209 186 168
0.24486957 -0.2708406 1.8550725 206 183 165
0.24672464 -0.2708406 1.8550725 211 188 170
0.24857971 -0.2708406 1.8550725 215 192 173
0.2504348 -0.2708406 1.8550725 212 189 171
0.25228986 -0.2708406 1.8550725 214 192 174
0.25414494 -0.2708406 1.8550725 215 192 174
0.256 -0.2708406 1.8550725 213 190 172
0.25785506 -0.2708406 1.8550725 212 188 171
0.25971013 -0.2708406 1.8550725 212 192 173
0.2615652 -0.2708406 1.8550725 214 190 173
0.26342028 -0.2708406 1.8550725 214 191 173
0.26527536 -0.2708406 1.8550725 209 187 169
-0.26613292 -0.2716774 1.8481455 113 92 67
-0.2642848 -0.2716774 1.8481455 116 94 70
-0.26342028 -0.27269566 1.8550725 114 93 68
-0.2615652 -0.27269566 1.8550725 115 93 68
-0.25971013 -0.27269566 1.8550725 113 91 67
-0.25785506 -0.27269566 1.8550725 110 89 64
-0.256 -0.27269566 1.8550725 113 91 66
-0.25414494 -0.27269566 1.8550725 113 89 64
-0.25228986 -0.27269566 1.8550725 116 92 67
-0.2504348 -0.27269566 1.8550725 114 91 67
-0.24857971 -0.27269566 1.8550725 115 91 65
-0.24580334 -0.2716774 1.8481455 115 91 65
-0.2439552 -0.2716774 1.8481455 116 92 66
-0.24210705 -0.2716774 1.8481455 113 90 64
-0.24025892 -0.2716774 1.8481455 112 90 64
-0.23841077 -0.2716774 1.8481455 109 87 62
-0.23568255 -0.27066666 1.8412699 108 86 61
-0.23384129 -0.27066666 1.8412699 105 82 57
-0.232 -0.27066666 1.8412699 106 82 58
-0.23015873 -0.27066666 1.8412699 105 83 59
-0.22831745 -0.27066666 1.8412699 107 84 62
-0.22647619 -0.27066666 1.8412699 105 81 60
-0.22463492 -0.27066666 1.8412699 105 81 61
-0.22279365 -0.27066666 1.8412699 107 83 62
-0.22095238 -0.27066666 1.8412699 108 88 67
-0.21911111 -0.27066666 1.8412699 122 104 89
-0.21726984 -0.27066666 1.8412699 149 128 110
-0.21542858 -0.27066666 1.8412699 142 124 105
-0.2135873 -0.27066666 1.8412699 144 126 106
-0.21174604 -0.27066666 1.8412699 145 127 107
-0.20990478 -0.27066666 1.8412699 149 131 113
-0.2080635 -0.27066666 1.8412699 149 131 111
-0.20545788 -0.26966348 1.8344454 149 131 112
-0.20362343 -0.26966348 1.8344454 149 131 111
-0.20178899 -0.26966348 1.8344454 147 127 108
-0.19995454 -0.26966348 1.8344454 142 124 106
-0.1981201 -0.26966348 1.8344454 143 123 104
-0.19628567 -0.26966348 1.8344454 139 122 101
-0.1951746 -0.27066666 1.8412699 144 124 100
-0.19333333 -0.27066666 1.8412699 132 114 94
-0.19149207 -0.27066666 1.8412699 138 119 99
-0.18965079 -0.27066666 1.8412699 144 125 105
-0.18780953 -0.27066666 1.8412699 148 128 109
-0.18596826 -0.27066666 1.8412699 151 131 114
-0.18412699 -0.27066666 1.8412699 147 125 107
-0.18228573 -0.27066666 1.8412699 142 123 104
-0.18044445 -0.27066666 1.8412699 141 123 104
-0.17860319 -0.27066666 1.8412699 137 119 101
-0.1767619 -0.27066666 1.8412699 141 123 103
-0.17492063 -0.27066666 1.8412699 145 126 105
-0.17307936 -0.27066666 1.8412699 146 128 106
-0.1712381 -0.27066666 1.8412699 138 120 100
-0.16939682 -0.27066666 1.8412699 141 125 104
-0.16755556 -0.27066666 1.8412699 145 127 107
-0.16571428 -0.27066666 1.8412699 145 126 107
-0.16387302 -0.27066666 1.8412699 140 122 103
-0.16203175 -0.27066666 1.8412699 132 114 98
-0.16019048 -0.27066666 1.8412699 130 115 99
-0.15834922 -0.27066666 1.8412699 131 116 98
-0.15650794 -0.27066666 1.8412699 128 111 94
-0.15524422 -0.2716774 1.8481455 132 114 95
-0.1528254 -0.27066666 1.8412699 120 105 83
-0.15098414 -0.27066666 1.8412699 125 109 93
-0.14914285 -0.27066666 1.8412699 132 113 95
-0.14840579 -0.27269566 1.8550725 130 114 97
-0.1460035 -0.2716774 1.8481455 130 112 95
-0.14361905 -0.27066666 1.8412699 132 113 97
-0.1412523 -0.26966348 1.8344454 130 111 96
-0.13778365 -0.26650256 1.8129426 126 109 94
-0.13391054 -0.26246467 1.7854738 94 81 75
-0.13165015 -0.26152125 1.779056 84 74 71
-0.12940592 -0.26058453 1.7726839 81 72 69
-0.1266354 -0.25854728 1.758825 78 68 65
-0.12487657 -0.25854728 1.758825 77 67 64
-0.12268178 -0.25763175 1.7525969 76 67 65
-0.12050247 -0.25672266 1.7464126 76 66 65
-0.116940476 -0.25279778 1.7197129 76 65 63
-0.11142653 -0.24447313 1.6630825 150 113 93
-0.10578239 -0.23560622 1.6027634 176 121 96
-0.10377634 -0.2346942 1.5965592 174 115 91
-0.10217979 -0.2346942 1.5965592 172 113 89
-0.100583225 -0.2346942 1.5965592 171 116 91
-0.09937133 -0.23560622 1.6027634 182 126 102
-0.09739011 -0.2346942 1.5965592 193 133 105
-0.09542417 -0.23378922 1.5904028 199 135 103
-0.093833774 -0.23378922 1.5904028 200 135 103
-0.091947906 -0.23304038 1.5853087 198 134 102
-0.09036259 -0.23304038 1.5853087 199 133 102
-0.08877728 -0.23304038 1.5853087 203 136 105
-0.08719198 -0.23304038 1.5853087 203 136 106
-0.085606664 -0.23304038 1.5853087 206 139 108
-0.08402136 -0.23304038 1.5853087 208 138 109
-0.08243605 -0.23304038 1.5853087 211 140 107
-0.080850735 -0.23304038 1.5853087 211 141 106
-0.07926543 -0.23304038 1.5853087 212 140 105
-0.077680126 -0.23304038 1.5853087 210 138 101
-0.07580345 -0.23214807 1.5792385 211 137 100
-0.07422421 -0.23214807 1.5792385 211 137 100
-0.07264497 -0.23214807 1.5792385 212 137 102
-0.07106573 -0.23214807 1.5792385 214 137 103
-0.0694865 -0.23214807 1.5792385 210 137 104
-0.06790726 -0.23214807 1.5792385 216 141 110
-0.06607502 -0.23126258 1.5732148 224 151 122
-0.06450181 -0.23126258 1.5732148 231 163 137
-0.06316954 -0.23214807 1.5792385 238 173 149
-0.061590303 -0.23214807 1.5792385 242 177 154
-0.059782162 -0.23126258 1.5732148 228 160 138
-0.058431827 -0.23214807 1.5792385 222 153 129
-0.05685259 -0.23214807 1.5792385 222 151 125
-0.05527335 -0.23214807 1.5792385 219 148 121
-0.05369411 -0.23214807 1.5792385 219 146 118
-0.05211487 -0.23214807 1.5792385 217 145 116
-0.05072988 -0.23304038 1.5853087 215 144 115
-0.04914457 -0.23304038 1.5853087 215 143 112
-0.04755926 -0.23304038 1.5853087 212 141 110
-0.046121683 -0.23378922 1.5904028 205 136 108
-0.044531282 -0.23378922 1.5904028 201 133 105
-0.042940877 -0.23378922 1.5904028 200 130 103
-0.041350476 -0.23378922 1.5904028 194 128 103
-0.03976007 -0.23378922 1.5904028 193 128 104
-0.038466323 -0.23560622 1.6027634 188 125 102
-0.036863558 -0.23560622 1.6027634 185 123 101
-0.035260797 -0.23560622 1.6027634 185 122 101
-0.03365803 -0.23560622 1.6027634 188 126 103
-0.032055266 -0.23560622 1.6027634 187 127 103
-0.03079153 -0.23822922 1.6206069 182 126 101
-0.030488707 -0.2489911 1.693817 139 106 92
-0.030595878 -0.26456437 1.7997576 76 55 47
-0.02968116 -0.27269566 1.8550725 75 56 49
-0.027826088 -0.27269566 1.8550725 74 56 47
-0.025971016 -0.27269566 1.8550725 74 56 46
-0.024115942 -0.27269566 1.8550725 74 56 46
-0.02226087 -0.27269566 1.8550725 77 59 50
-0.020482568 -0.2737216 1.8620517 78 61 52
-0.018620517 -0.2737216 1.8620517 79 60 51
-0.016758464 -0.2737216 1.8620517 80 62 52
-0.014896414 -0.2737216 1.8620517 78 60 50
-0.013034361 -0.2737216 1.8620517 76 60 49
-0.011130435 -0.27269566 1.8550725 77 60 48
-0.009275362 -0.27269566 1.8550725 79 63 52
-0.00742029 -0.27269566 1.8550725 80 63 53
-0.0055652177 -0.27269566 1.8550725 82 64 56
-0.003710145 -0.27269566 1.8550725 82 66 57
-0.0018481455 -0.2716774 1.8481455 86 65 52
0.0 -0.2716774 1.8481455 85 66 53
0.0018481455 -0.2716774 1.8481455 80 63 51
0.003696291 -0.2716774 1.8481455 80 63 52
0.0055444366 -0.2716774 1.8481455 81 65 53
0.007392582 -0.2716774 1.8481455 80 63 52
0.009240728 -0.2716774 1.8481455 78 61 50
0.011088873 -0.2716774 1.8481455 79 61 49
0.012937019 -0.2716774 1.8481455 78 62 50
0.014785164 -0.2716774 1.8481455 81 64 54
0.016695652 -0.27269566 1.8550725 81 64 54
0.018550724 -0.27269566 1.8550725 81 64 55
0.020405797 -0.27269566 1.8550725 81 65 55
0.02226087 -0.27269566 1.8550725 81 62 53
0.024115942 -0.27269566 1.8550725 82 64 54
0.025971016 -0.27269566 1.8550725 81 64 54
0.027722184 -0.2716774 1.8481455 83 65 55
0.029570328 -0.2716774 1.8481455 85 68 59
0.031301588 -0.27066666 1.8412699 84 68 59
0.033142857 -0.27066666 1.8412699 84 67 59
0.035114765 -0.2716774 1.8481455 84 67 59
0.036825396 -0.27066666 1.8412699 84 68 58
0.03866667 -0.27066666 1.8412699 83 68 59
0.04050794 -0.27066666 1.8412699 82 67 59
0.042349204 -0.27066666 1.8412699 81 66 58
0.044190474 -0.27066666 1.8412699 78 63 53
0.046203636 -0.2716774 1.8481455 77 63 52
0.047873016 -0.27066666 1.8412699 78 64 55
0.049530026 -0.26966348 1.8344454 72 58 49
0.05136447 -0.26966348 1.8344454 69 56 48
0.053198915 -0.26966348 1.8344454 64 53 51
0.05503336 -0.26966348 1.8344454 58 50 46
0.056657806 -0.26866767 1.8276712 50 41 39
0.058270298 -0.26767915 1.8209468 44 36 37
0.060091242 -0.26767915 1.8209468 44 35 37
0.06164005 -0.26650256 1.8129426 48 39 39
0.06345299 -0.26650256 1.8129426 55 45 45
0.06526594 -0.26650256 1.8129426 60 51 49
0.06683407 -0.26552993 1.8063262 50 41 42
0.068640396 -0.26552993 1.8063262 50 42 45
0.07019054 -0.26456437 1.7997576 53 45 48
0.0719903 -0.26456437 1.7997576 52 44 47
0.07379006 -0.26456437 1.7997576 53 45 48
0.07531594 -0.2636058 1.7932367 51 43 46
0.07710917 -0.2636058 1.7932367 53 44 45
0.07827847 -0.26152125 1.779056 53 45 46
0.08034632 -0.26246467 1.7854738 53 45 45
0.08154346 -0.26058453 1.7726839 55 47 49
0.08331614 -0.26058453 1.7726839 56 47 50
0.08539468 -0.26152125 1.779056 57 47 49
0.08686151 -0.26058453 1.7726839 58 49 51
0.08863419 -0.26058453 1.7726839 60 50 52
0.09040687 -0.26058453 1.7726839 60 51 54
0.09217956 -0.26058453 1.7726839 59 50 51
0.093952246 -0.26058453 1.7726839 63 55 58
0.09572493 -0.26058453 1.7726839 63 55 57
0.09749761 -0.26058453 1.7726839 65 58 59
0.09927029 -0.26058453 1.7726839 69 60 61
0.10104298 -0.26058453 1.7726839 70 61 62
0.10244873 -0.25965455 1.7663574 69 60 61
0.103770666 -0.25854728 1.758825 67 59 60
0.10478476 -0.25672266 1.7464126 67 59 59
0.104539245 -0.25192243 1.7137581 64 51 45
0.10311112 -0.24447313 1.6630825 177 131 108
0.10324768 -0.24091126 1.6388521 194 132 101
0.10371884 -0.23822922 1.6206069 195 133 102
0.105339445 -0.23822922 1.6206069 190 132 106
0.10696005 -0.23822922 1.6206069 185 126 103
0.108580664 -0.23822922 1.6206069 178 120 94
0.11020127 -0.23822922 1.6206069 174 115 91
0.11138421 -0.23729682 1.614264 171 113 89
0.11299848 -0.23729682 1.614264 169 112 89
0.11461275 -0.23729682 1.614264 168 111 90
0.11622701 -0.23729682 1.614264 168 110 92
0.11784127 -0.23729682 1.614264 166 110 92
0.11945554 -0.23729682 1.614264 166 109 93
0.121069804 -0.23729682 1.614264 170 111 94
0.12268407 -0.23729682 1.614264 169 112 95
0.124298334 -0.23729682 1.614264 172 113 95
0.12591259 -0.23729682 1.614264 177 116 97
0.12752685 -0.23729682 1.614264 177 117 98
0.12863766 -0.23637167 1.6079706 183 122 102
0.13024563 -0.23637167 1.6079706 185 123 103
0.1318536 -0.23637167 1.6079706 189 126 105
0.13346156 -0.23637167 1.6079706 194 132 110
0.13506953 -0.23637167 1.6079706 198 134 112
0.1366775 -0.23637167 1.6079706 201 136 112
0.13828547 -0.23637167 1.6079706 203 137 113
0.13989344 -0.23637167 1.6079706 203 139 114
0.14150141 -0.23637167 1.6079706 204 141 115
0.1431094 -0.23637167 1.6079706 204 138 113
0.14528377 -0.23729682 1.614264 205 135 112
0.14689803 -0.23729682 1.614264 201 134 111
0.14851229 -0.23729682 1.614264 200 133 110
0.15012656 -0.23729682 1.614264 201 135 112
0.15174082 -0.23729682 1.614264 203 135 113
0.15395765 -0.23822922 1.6206069 201 136 114
0.15608937 -0.23901184 1.6259309 201 136 115
0.1577153 -0.23901184 1.6259309 199 132 112
0.15934123 -0.23901184 1.6259309 191 128 110
0.16160423 -0.2399578 1.632366 191 126 109
0.16323659 -0.2399578 1.632366 192 127 111
0.16673872 -0.24267912 1.6508784 190 128 109
0.17218009 -0.24814187 1.68804 186 131 113
0.18324277 -0.26152125 1.779056 213 175 153
0.19078232 -0.26966348 1.8344454 207 183 164
0.19478261 -0.27269566 1.8550725 199 175 156
0.19590342 -0.2716774 1.8481455 200 174 151
0.19849275 -0.27269566 1.8550725 205 179 157
0.20034783 -0.27269566 1.8550725 207 182 161
0.2022029 -0.27269566 1.8550725 210 187 167
0.20405796 -0.27269566 1.8550725 208 184 165
0.20591304 -0.27269566 1.8550725 213 187 168
0.20776813 -0.27269566 1.8550725 213 191 170
0.2096232 -0.27269566 1.8550725 219 193 172
0.21147828 -0.27269566 1.8550725 200 178 159
0.21333334 -0.27269566 1.8550725 201 177 159
0.21518841 -0.27269566 1.8550725 210 186 166
0.21704349 -0.27269566 1.8550725 215 191 171
0.21889856 -0.27269566 1.8550725 214 191 171
0.22075363 -0.27269566 1.8550725 211 187 168
0.22177747 -0.2716774 1.8481455 199 176 157
0.22362562 -0.2716774 1.8481455 213 186 167
0.22547376 -0.2716774 1.8481455 206 182 162
0.2273219 -0.2716774 1.8481455 207 184 163
0.22917004 -0.2716774 1.8481455 215 189 167
0.23101819 -0.2716774 1.8481455 223 197 174
0.23373914 -0.27269566 1.8550725 208 184 162
0.23559421 -0.27269566 1.8550725 189 165 149
0.23656262 -0.2716774 1.8481455 203 178 160
0.23841077 -0.2716774 1.8481455 206 183 164
0.24025892 -0.2716774 1.8481455 210 188 169
0.24210705 -0.2716774 1.8481455 214 190 171
0.2439552 -0.2716774 1.8481455 206 183 165
0.24580334 -0.2716774 1.8481455 206 182 164
0.24765149 -0.2716774 1.8481455 214 190 172
0.24949963 -0.2716774 1.8481455 212 190 170
0.25134778 -0.2716774 1.8481455 208 186 168
0.25319594 -0.2716774 1.8481455 207 182 167
0.25504407 -0.2716774 1.8481455 211 188 171
0.2568922 -0.2716774 1.8481455 212 189 172
0.25874037 -0.2716774 1.8481455 213 192 174
0.2605885 -0.2716774 1.8481455 211 191 173
0.26243666 -0.2716774 1.8481455 211 188 171
0.2642848 -0.2716774 1.8481455 213 190 172
-0.26514286 -0.27250794 1.8412699 109 88 64
-0.26330158 -0.27250794 1.8412699 114 92 69
-0.26146033 -0.27250794 1.8412699 116 94 70
-0.25961906 -0.27250794 1.8412699 115 93 68
-0.25777778 -0.27250794 1.8412699 115 93 68
-0.2559365 -0.27250794 1.8412699 113 92 67
-0.25504407 -0.27352554 1.8481455 118 94 70
-0.25319594 -0.27352554 1.8481455 115 92 67
-0.2504127 -0.27250794 1.8412699 112 89 65
-0.24857143 -0.27250794 1.8412699 112 89 63
-0.24673016 -0.27250794 1.8412699 114 90 64
-0.24488889 -0.27250794 1.8412699 114 92 64
-0.24304762 -0.27250794 1.8412699 114 91 64
-0.24120635 -0.27250794 1.8412699 111 89 62
-0.23936509 -0.27250794 1.8412699 112 89 63
-0.23752381 -0.27250794 1.8412699 109 87 62
-0.23568255 -0.27250794 1.8412699 107 84 60
-0.23384129 -0.27250794 1.8412699 107 83 59
-0.232 -0.27250794 1.8412699 107 83 59
-0.23015873 -0.27250794 1.8412699 108 86 63
-0.22831745 -0.27250794 1.8412699 107 83 62
-0.22647619 -0.27250794 1.8412699 107 83 62
-0.22463492 -0.27250794 1.8412699 109 86 66
-0.22279365 -0.27250794 1.8412699 129 106 84
-0.22095238 -0.27250794 1.8412699 130 107 85
-0.21911111 -0.27250794 1.8412699 129 109 90
-0.21726984 -0.27250794 1.8412699 144 127 106
-0.21542858 -0.27250794 1.8412699 141 125 104
-0.2135873 -0.27250794 1.8412699 142 125 103
-0.21174604 -0.27250794 1.8412699 143 127 104
-0.20990478 -0.27250794 1.8412699 150 132 112
-0.2080635 -0.27250794 1.8412699 148 132 111
-0.20545788 -0.27149794 1.8344454 148 130 109
-0.20362343 -0.27149794 1.8344454 144 126 108
-0.20178899 -0.27149794 1.8344454 148 130 110
-0.19995454 -0.27149794 1.8344454 144 124 106
-0.1981201 -0.27149794 1.8344454 140 121 102
-0.19628567 -0.27149794 1.8344454 137 118 99
-0.1944512 -0.27149794 1.8344454 137 118 99
-0.19261676 -0.27149794 1.8344454 140 121 102
-0.19149207 -0.27250794 1.8412699 147 127 107
-0.18965079 -0.27250794 1.8412699 144 125 106
-0.18780953 -0.27250794 1.8412699 147 128 111
-0.18596826 -0.27250794 1.8412699 147 129 111
-0.18412699 -0.27250794 1.8412699 142 123 102
-0.18161009 -0.27149794 1.8344454 135 117 100
-0.17977566 -0.27149794 1.8344454 140 122 105
-0.17794119 -0.27149794 1.8344454 140 121 106
-0.1767619 -0.27250794 1.8412699 136 120 105
-0.17492063 -0.27250794 1.8412699 141 123 104
-0.17307936 -0.27250794 1.8412699 142 124 105
-0.1712381 -0.27250794 1.8412699 142 123 105
-0.16939682 -0.27250794 1.8412699 141 125 104
-0.16755556 -0.27250794 1.8412699 140 125 104
-0.16571428 -0.27250794 1.8412699 143 124 104
-0.16387302 -0.27250794 1.8412699 146 126 105
-0.16203175 -0.27250794 1.8412699 135 116 97
-0.16019048 -0.27250794 1.8412699 134 117 98
-0.15834922 -0.27250794 1.8412699 136 119 100
-0.15650794 -0.27250794 1.8412699 132 115 97
-0.15466668 -0.27250794 1.8412699 131 113 93
-0.15339607 -0.27352554 1.8481455 122 104 82
-0.15098414 -0.27250794 1.8412699 117 102 87
-0.14914285 -0.27250794 1.8412699 116 101 85
-0.14730158 -0.27250794 1.8412699 125 109 93
-0.14546031 -0.27250794 1.8412699 128 110 94
-0.14308673 -0.27149794 1.8344454 128 110 95
-0.14073068 -0.27049533 1.8276712 131 113 97
-0.13778365 -0.26831552 1.8129426 126 108 94
-0.13449275 -0.26539904 1.7932367 98 86 79
-0.13165015 -0.2633003 1.779056 87 75 72
-0.13033958 -0.26425013 1.7854738 81 72 69
-0.12763324 -0.2623572 1.7726839 80 70 68
-0.12487657 -0.2603061 1.758825 77 67 64
-0.12268178 -0.25938433 1.7525969 78 67 66
-0.119157024 -0.25558317 1.7269133 76 65 64
-0.11393185 -0.24796931 1.6754683 103 84 73
-0.108580664 -0.23984982 1.6206069 177 122 97
-0.10578239 -0.23720898 1.6027634 175 117 92
-0.10337618 -0.23537962 1.5904028 171 112 87
-0.10217979 -0.23629075 1.5965592 170 111 86
