ply
format ascii 1.0
element vertex 1075
property float32 x
property float32 y
property float32 z
property uchar red
property uchar green
property uchar blue
element face 0
property list uint8 int32 vertex_indices
end_header
0.17220236 -0.28502458 1.4845031 132 77 61
0.17558278 -0.28813583 1.5007075 132 78 66
0.1783816 -0.29024804 1.5117085 138 88 76
0.18382356 -0.29658926 1.5447358 180 140 122
0.1880684 -0.30090943 1.5672367 192 174 151
0.19243875 -0.30535737 1.5904028 201 178 158
0.19340765 -0.30437928 1.5853087 209 187 165
0.19424634 -0.3032138 1.5792385 164 143 129
0.19657828 -0.30437928 1.5853087 203 177 158
0.1995699 -0.30653936 1.5965592 197 176 155
0.2019482 -0.3077306 1.6027634 180 138 125
0.20355095 -0.3077306 1.6027634 140 84 77
0.20435958 -0.30653936 1.5965592 148 80 74
0.20675649 -0.3077306 1.6027634 152 80 68
0.20835924 -0.3077306 1.6027634 152 80 68
0.21064416 -0.30873033 1.6079706 159 87 71
0.21225213 -0.30873033 1.6079706 171 97 82
0.21624881 -0.31217873 1.6259309 178 108 94
0.21787474 -0.31217873 1.6259309 170 122 108
0.21950068 -0.31217873 1.6259309 208 178 155
0.2211266 -0.31217873 1.6259309 212 188 170
0.22363414 -0.31341425 1.632366 216 195 176
0.2252665 -0.31341425 1.632366 210 191 173
0.22689886 -0.31341425 1.632366 206 188 169
0.22763033 -0.31217873 1.6259309 209 187 167
0.22925626 -0.31217873 1.6259309 205 182 163
0.23088218 -0.31217873 1.6259309 213 191 170
0.23250812 -0.31217873 1.6259309 217 194 172
-0.23154776 -0.31033832 1.6079706 173 154 136
-0.22993979 -0.31033832 1.6079706 175 156 137
-0.22833182 -0.31033832 1.6079706 184 164 146
-0.22672385 -0.31033832 1.6079706 184 163 146
-0.2251159 -0.31033832 1.6079706 187 168 149
-0.22350793 -0.31033832 1.6079706 185 165 146
-0.22189994 -0.31033832 1.6079706 186 165 147
-0.22029197 -0.31033832 1.6079706 182 162 144
-0.218684 -0.31033832 1.6079706 183 162 143
-0.21707603 -0.31033832 1.6079706 180 161 142
-0.21546806 -0.31033832 1.6079706 185 164 144
-0.2138601 -0.31033832 1.6079706 183 163 142
-0.21225213 -0.31033832 1.6079706 182 162 140
-0.21064416 -0.31033832 1.6079706 182 161 139
-0.20985432 -0.31155294 1.614264 182 160 140
-0.20905828 -0.31277713 1.6206069 179 159 137
-0.20743768 -0.31277713 1.6206069 177 157 136
-0.20581707 -0.31277713 1.6206069 182 160 139
-0.20339726 -0.31155294 1.614264 177 156 136
-0.201783 -0.31155294 1.614264 184 162 141
-0.20016873 -0.31155294 1.614264 181 159 138
-0.19855447 -0.31155294 1.614264 176 157 135
-0.19694021 -0.31155294 1.614264 174 153 132
-0.19532594 -0.31155294 1.614264 177 157 135
-0.19371168 -0.31155294 1.614264 172 153 131
-0.19209741 -0.31155294 1.614264 170 152 131
-0.19048315 -0.31155294 1.614264 166 148 127
-0.1888689 -0.31155294 1.614264 165 145 124
-0.18725462 -0.31155294 1.614264 172 150 129
-0.18564036 -0.31155294 1.614264 173 154 132
-0.18402609 -0.31155294 1.614264 169 150 127
-0.18241183 -0.31155294 1.614264 172 150 128
-0.18079758 -0.31155294 1.614264 169 147 127
-0.1791833 -0.31155294 1.614264 172 151 132
-0.17756905 -0.31155294 1.614264 180 158 136
-0.17595477 -0.31155294 1.614264 174 153 132
-0.17434052 -0.31155294 1.614264 183 161 139
-0.17272624 -0.31155294 1.614264 176 155 135
-0.17111199 -0.31155294 1.614264 174 153 133
-0.16949773 -0.31155294 1.614264 176 153 133
-0.16788346 -0.31155294 1.614264 173 152 131
-0.1662692 -0.31155294 1.614264 174 153 129
-0.16465493 -0.31155294 1.614264 175 154 132
-0.16304067 -0.31155294 1.614264 166 148 128
-0.16142641 -0.31155294 1.614264 169 148 130
-0.15981214 -0.31155294 1.614264 174 152 136
-0.15819788 -0.31155294 1.614264 176 157 138
-0.1565836 -0.31155294 1.614264 178 158 139
-0.15436517 -0.31033832 1.6079706 178 156 137
-0.1527572 -0.31033832 1.6079706 179 160 137
-0.15114923 -0.31033832 1.6079706 174 153 133
-0.14954126 -0.31033832 1.6079706 175 154 134
-0.14793329 -0.31033832 1.6079706 176 157 135
-0.14632532 -0.31033832 1.6079706 182 162 138
-0.14471735 -0.31033832 1.6079706 175 155 133
-0.1431094 -0.31033832 1.6079706 180 160 137
-0.14150141 -0.31033832 1.6079706 169 151 130
-0.13989344 -0.31033832 1.6079706 166 150 127
-0.13882671 -0.31155294 1.614264 158 141 122
-0.13721246 -0.31155294 1.614264 154 134 115
-0.13559817 -0.31155294 1.614264 142 124 107
-0.13398391 -0.31155294 1.614264 130 114 99
-0.1318536 -0.31033832 1.6079706 131 110 95
-0.12982383 -0.30933335 1.6027634 127 108 92
-0.12772474 -0.30813593 1.5965592 115 100 84
-0.12612817 -0.30813593 1.5965592 101 90 77
-0.123654075 -0.30596456 1.5853087 88 75 71
-0.12113754 -0.30363047 1.5732148 88 76 74
-0.119564325 -0.30363047 1.5732148 80 68 62
-0.117991105 -0.30363047 1.5732148 83 73 67
-0.11641789 -0.30363047 1.5732148 77 66 62
-0.11484468 -0.30363047 1.5732148 79 67 65
-0.11284104 -0.30247667 1.5672367 104 93 89
-0.1112738 -0.30247667 1.5672367 91 79 69
-0.109706566 -0.30247667 1.5672367 104 94 87
-0.10813933 -0.30247667 1.5672367 76 66 61
-0.10657209 -0.30247667 1.5672367 73 63 59
-0.104607366 -0.30133167 1.561304 71 60 56
-0.10304606 -0.30133167 1.561304 82 70 66
-0.10148475 -0.30133167 1.561304 75 68 63
-0.09923476 -0.29925483 1.5505431 76 67 64
-0.09768421 -0.29925483 1.5505431 80 67 65
-0.09541626 -0.29702157 1.5389719 92 74 67
-0.0935283 -0.29591742 1.5332508 149 104 81
-0.09131612 -0.29373348 1.5219352 171 110 82
-0.0891908 -0.29175973 1.5117085 170 109 80
-0.0873589 -0.29069427 1.5061879 168 107 78
-0.08585271 -0.29069427 1.5061879 166 101 73
-0.083734944 -0.28858653 1.4952669 159 97 69
-0.08223968 -0.28858653 1.4952669 160 94 67
-0.080744416 -0.28858653 1.4952669 155 88 61
-0.07867867 -0.2865091 1.4845031 152 87 62
-0.07719416 -0.2865091 1.4845031 162 103 77
-0.075438134 -0.28548157 1.4791791 180 125 93
-0.07422516 -0.2865091 1.4845031 190 133 100
-0.07247978 -0.28548157 1.4791791 188 129 97
-0.0710006 -0.28548157 1.4791791 181 121 97
-0.06952142 -0.28548157 1.4791791 176 114 91
-0.06775873 -0.28429207 1.4730159 174 112 87
-0.06656306 -0.28548157 1.4791791 170 107 83
-0.06508388 -0.28548157 1.4791791 167 105 78
-0.06333968 -0.28429207 1.4730159 163 102 75
-0.062125523 -0.28548157 1.4791791 164 102 76
-0.060393654 -0.28429207 1.4730159 162 102 77
-0.058920637 -0.28429207 1.4730159 162 100 76
-0.057243183 -0.28328037 1.4677739 160 100 74
-0.05577541 -0.28328037 1.4677739 163 101 75
-0.05411505 -0.28227583 1.462569 166 104 79
-0.052281693 -0.28028795 1.4522692 175 112 85
-0.05082942 -0.28028795 1.4522692 182 118 93
-0.049551632 -0.28127837 1.4574009 190 124 97
-0.04809423 -0.28127837 1.4574009 194 128 99
-0.04663683 -0.28127837 1.4574009 192 126 98
-0.045020346 -0.28028795 1.4522692 191 125 102
-0.04356808 -0.28028795 1.4522692 189 121 97
-0.042115808 -0.28028795 1.4522692 184 118 94
-0.040663537 -0.28028795 1.4522692 181 115 90
-0.03921127 -0.28028795 1.4522692 181 111 85
-0.037892427 -0.28127837 1.4574009 178 110 82
-0.036435023 -0.28127837 1.4574009 174 108 81
-0.034977622 -0.28127837 1.4574009 174 107 81
-0.03352022 -0.28127837 1.4574009 178 108 83
-0.03206282 -0.28127837 1.4574009 179 110 83
-0.030497653 -0.28028795 1.4522692 181 112 85
-0.029045384 -0.28028795 1.4522692 178 111 84
-0.027496297 -0.2793045 1.4471736 182 112 84
-0.026049126 -0.2793045 1.4471736 184 115 85
-0.024601951 -0.2793045 1.4471736 188 119 89
-0.023236306 -0.28028795 1.4522692 193 125 93
-0.02178404 -0.28028795 1.4522692 198 129 94
-0.020331768 -0.28028795 1.4522692 201 131 98
-0.018946214 -0.28127837 1.4574009 195 127 88
-0.017488811 -0.28127837 1.4574009 192 123 84
-0.01603141 -0.28127837 1.4574009 180 114 81
-0.014625691 -0.28227583 1.462569 171 106 79
-0.013257143 -0.28429207 1.4730159 162 102 76
-0.011876025 -0.2865091 1.4845031 144 95 77
-0.010543316 -0.29069427 1.5061879 116 77 66
-0.009037128 -0.29069427 1.5061879 113 72 66
-0.0075035375 -0.28963652 1.5007075 122 76 67
-0.006087741 -0.29373348 1.5219352 130 83 71
-0.004551809 -0.29283303 1.5172696 140 93 80
-0.0030665016 -0.29591742 1.5332508 153 106 89
-0.0015792386 -0.30479303 1.5792385 163 115 99
0.0 -0.30479303 1.5792385 168 131 108
0.0015965592 -0.30813593 1.5965592 165 137 118
0.0032412137 -0.31277713 1.6206069 168 147 130
0.0048970976 -0.31504664 1.632366 155 134 120
0.006529464 -0.31504664 1.632366 144 124 110
0.008129654 -0.31380466 1.6259309 146 123 110
0.009755585 -0.31380466 1.6259309 160 138 123
0.011381516 -0.31380466 1.6259309 168 148 130
0.013058928 -0.31504664 1.632366 167 148 130
0.014633378 -0.31380466 1.6259309 167 147 129
0.016259309 -0.31380466 1.6259309 168 148 131
0.01788524 -0.31380466 1.6259309 163 143 127
0.01951117 -0.31380466 1.6259309 165 145 128
0.021137102 -0.31380466 1.6259309 173 152 135
0.022763032 -0.31380466 1.6259309 168 147 130
0.02448549 -0.31504664 1.632366 187 166 146
0.02592971 -0.31277713 1.6206069 187 168 148
0.027550317 -0.31277713 1.6206069 182 160 141
0.029170925 -0.31277713 1.6206069 173 152 135
0.03079153 -0.31277713 1.6206069 190 167 148
0.03241214 -0.31277713 1.6206069 196 174 153
0.033899542 -0.31155294 1.614264 185 165 146
0.03551381 -0.31155294 1.614264 179 159 140
0.037128072 -0.31155294 1.614264 189 167 148
0.038742337 -0.31155294 1.614264 189 168 148
0.040356603 -0.31155294 1.614264 188 165 147
0.041970864 -0.31155294 1.614264 194 173 152
0.04358513 -0.31155294 1.614264 190 169 148
0.045199394 -0.31155294 1.614264 188 167 147
0.046813656 -0.31155294 1.614264 191 173 150
0.04842792 -0.31155294 1.614264 184 166 146
0.050042182 -0.31155294 1.614264 168 152 133
0.051656447 -0.31155294 1.614264 162 143 127
0.053270712 -0.31155294 1.614264 153 139 122
0.054671 -0.31033832 1.6079706 163 145 128
0.05649924 -0.31155294 1.614264 156 139 123
0.058113504 -0.31155294 1.614264 160 143 126
0.05972777 -0.31155294 1.614264 160 143 124
0.061342034 -0.31155294 1.614264 158 139 120
0.062956296 -0.31155294 1.614264 152 134 116
0.06431883 -0.31033832 1.6079706 147 129 111
0.0659268 -0.31033832 1.6079706 154 133 115
0.06753477 -0.31033832 1.6079706 151 133 114
0.06914274 -0.31033832 1.6079706 144 127 110
0.07102762 -0.31155294 1.614264 132 116 100
0.07264189 -0.31155294 1.614264 122 107 92
0.074256144 -0.31155294 1.614264 118 101 84
0.075574614 -0.31033832 1.6079706 114 99 83
0.07693265 -0.30933335 1.6027634 114 98 82
0.07853541 -0.30933335 1.6027634 110 95 79
0.07982796 -0.30813593 1.5965592 108 94 79
0.08174094 -0.30933335 1.6027634 109 95 80
0.0833437 -0.30933335 1.6027634 117 100 86
0.08555599 -0.31155294 1.614264 111 96 82
0.08654922 -0.30933335 1.6027634 110 95 80
0.08560169 -0.3003841 1.5563942 124 98 80
0.0849671 -0.29283303 1.5172696 150 103 81
0.08554033 -0.28963652 1.5007075 167 110 83
0.0873589 -0.29069427 1.5061879 176 118 87
0.08854174 -0.28963652 1.5007075 178 119 89
0.09004245 -0.28963652 1.5007075 168 113 83
0.09187747 -0.29069427 1.5061879 166 111 81
0.09304387 -0.28963652 1.5007075 164 110 79
0.094544575 -0.28963652 1.5007075 158 105 77
0.0953514 -0.28754404 1.4898655 147 98 73
0.097192355 -0.28858653 1.4952669 135 89 69
0.09797721 -0.2865091 1.4845031 112 72 58
0.099461704 -0.2865091 1.4845031 88 61 56
0.10131086 -0.28754404 1.4898655 82 64 61
0.102430716 -0.2865091 1.4845031 89 73 74
0.10391522 -0.2865091 1.4845031 97 81 82
0.10539973 -0.2865091 1.4845031 101 86 85
0.106884226 -0.2865091 1.4845031 102 86 85
0.10836873 -0.2865091 1.4845031 101 85 82
0.10985323 -0.2865091 1.4845031 97 83 79
0.111337736 -0.2865091 1.4845031 94 78 76
0.11282224 -0.2865091 1.4845031 92 77 75
0.11430674 -0.2865091 1.4845031 91 76 75
0.11489524 -0.28429207 1.4730159 91 76 74
0.11636826 -0.28429207 1.4730159 90 75 74
0.11784127 -0.28429207 1.4730159 90 75 74
0.11888969 -0.28328037 1.4677739 89 75 74
0.12035746 -0.28328037 1.4677739 96 80 73
0.12182523 -0.28328037 1.4677739 130 97 83
0.1228558 -0.28227583 1.462569 165 109 89
0.12431837 -0.28227583 1.462569 173 110 86
0.12533648 -0.28127837 1.4574009 173 109 84
0.12634742 -0.28028795 1.4522692 174 108 84
0.12779969 -0.28028795 1.4522692 173 109 84
0.12925196 -0.28028795 1.4522692 177 112 88
0.13070422 -0.28028795 1.4522692 185 117 94
0.13215649 -0.28028795 1.4522692 189 123 101
0.13360876 -0.28028795 1.4522692 196 129 106
0.13458714 -0.2793045 1.4471736 200 132 108
0.13603431 -0.2793045 1.4471736 204 135 109
0.1374815 -0.2793045 1.4471736 205 136 110
0.13941784 -0.28028795 1.4522692 206 137 110
0.14087012 -0.28028795 1.4522692 205 133 108
0.14232239 -0.28028795 1.4522692 135 84 73
0.14428268 -0.28127837 1.4574009 108 54 40
0.1462569 -0.28227583 1.462569 136 77 63
0.14771947 -0.28227583 1.462569 157 91 75
0.14918204 -0.28227583 1.462569 164 98 80
0.15118071 -0.28328037 1.4677739 168 102 82
0.15319365 -0.28429207 1.4730159 167 103 83
0.15531382 -0.28548157 1.4791791 167 104 86
0.15613967 -0.28429207 1.4730159 169 106 87
0.1576127 -0.28429207 1.4730159 177 110 91
0.15908572 -0.28429207 1.4730159 183 116 96
0.16055873 -0.28429207 1.4730159 190 123 102
0.16203175 -0.28429207 1.4730159 192 127 105
0.16350476 -0.28429207 1.4730159 188 126 104
0.16566806 -0.28548157 1.4791791 187 125 101
0.16774885 -0.2865091 1.4845031 146 92 76
0.16862641 -0.28548157 1.4791791 125 70 54
0.17071787 -0.2865091 1.4845031 126 71 54
0.17220236 -0.2865091 1.4845031 126 71 56
0.17558278 -0.28963652 1.5007075 127 73 61
0.1783816 -0.29175973 1.5117085 129 83 70
0.18382356 -0.298134 1.5447358 170 133 115
0.1880684 -0.30247667 1.5672367 219 198 172
0.19108786 -0.30479303 1.5792385 211 188 166
0.1926671 -0.30479303 1.5792385 209 186 165
0.19424634 -0.30479303 1.5792385 211 188 167
0.19657828 -0.30596456 1.5853087 209 187 166
0.19880036 -0.30694777 1.5904028 215 189 167
0.20116645 -0.30813593 1.5965592 195 169 149
0.20355095 -0.30933335 1.6027634 161 113 100
0.20435958 -0.30813593 1.5965592 141 84 74
0.20595613 -0.30813593 1.5965592 151 81 69
0.20835924 -0.30933335 1.6027634 151 80 65
0.20996201 -0.30933335 1.6027634 154 81 66
0.21225213 -0.31033832 1.6079706 163 88 73
0.2155407 -0.31277713 1.6206069 170 98 84
0.21716133 -0.31277713 1.6206069 177 117 102
0.21878193 -0.31277713 1.6206069 190 157 138
0.22040254 -0.31277713 1.6206069 208 184 166
0.22275253 -0.31380466 1.6259309 218 197 179
0.22437847 -0.31380466 1.6259309 218 197 180
0.22600439 -0.31380466 1.6259309 213 195 175
0.22688496 -0.31277713 1.6206069 208 186 165
0.22850557 -0.31277713 1.6206069 195 174 154
0.23012617 -0.31277713 1.6206069 205 185 164
0.23250812 -0.31380466 1.6259309 214 191 169
-0.23079793 -0.3109361 1.6027634 173 153 135
-0.22919518 -0.3109361 1.6027634 176 154 137
-0.22759241 -0.3109361 1.6027634 179 159 140
-0.22598964 -0.3109361 1.6027634 177 155 138
-0.22438687 -0.3109361 1.6027634 173 152 136
-0.22278412 -0.3109361 1.6027634 170 150 133
-0.22118135 -0.3109361 1.6027634 175 155 137
-0.21957858 -0.3109361 1.6027634 180 159 142
-0.21797583 -0.3109361 1.6027634 182 162 144
-0.21707603 -0.3119463 1.6079706 181 162 144
-0.21546806 -0.3119463 1.6079706 185 167 146
-0.2138601 -0.3119463 1.6079706 184 164 143
-0.21225213 -0.3119463 1.6079706 181 161 140
-0.21064416 -0.3119463 1.6079706 180 160 140
-0.20903617 -0.3119463 1.6079706 181 159 138
-0.20824005 -0.3131672 1.614264 180 158 137
-0.20662579 -0.3131672 1.614264 180 159 138
-0.20501153 -0.3131672 1.614264 182 160 139
-0.20339726 -0.3131672 1.614264 180 158 137
-0.201783 -0.3131672 1.614264 180 160 138
-0.20016873 -0.3131672 1.614264 183 161 140
-0.19778039 -0.3119463 1.6079706 182 160 139
-0.19617242 -0.3119463 1.6079706 181 159 137
-0.19456443 -0.3119463 1.6079706 179 159 138
-0.19295646 -0.3119463 1.6079706 178 158 138
-0.1913485 -0.3119463 1.6079706 178 158 138
-0.18974052 -0.3119463 1.6079706 176 157 135
-0.18813255 -0.3119463 1.6079706 173 153 132
-0.18652458 -0.3119463 1.6079706 167 148 128
-0.18491663 -0.3119463 1.6079706 153 136 118
-0.18330866 -0.3119463 1.6079706 156 139 119
-0.18170068 -0.3119463 1.6079706 159 140 121
-0.18079758 -0.3131672 1.614264 163 143 123
-0.1791833 -0.3131672 1.614264 170 149 129
-0.17756905 -0.3131672 1.614264 172 153 132
-0.17595477 -0.3131672 1.614264 175 155 134
-0.17434052 -0.3131672 1.614264 173 154 133
-0.17272624 -0.3131672 1.614264 170 151 130
-0.17111199 -0.3131672 1.614264 166 146 126
-0.16949773 -0.3131672 1.614264 162 142 123
-0.16788346 -0.3131672 1.614264 162 142 123
-0.1662692 -0.3131672 1.614264 166 146 124
-0.16465493 -0.3131672 1.614264 172 153 132
-0.16304067 -0.3131672 1.614264 171 152 132
-0.16142641 -0.3131672 1.614264 171 150 132
-0.15981214 -0.3131672 1.614264 174 154 136
-0.15819788 -0.3131672 1.614264 180 160 141
-0.1565836 -0.3131672 1.614264 182 163 143
-0.15436517 -0.3119463 1.6079706 184 161 142
-0.1527572 -0.3119463 1.6079706 177 159 137
-0.15114923 -0.3119463 1.6079706 179 159 137
-0.14905699 -0.3109361 1.6027634 179 157 137
-0.14745423 -0.3109361 1.6027634 172 153 134
-0.14585148 -0.3109361 1.6027634 177 158 136
-0.14471735 -0.3119463 1.6079706 170 152 131
-0.1431094 -0.3119463 1.6079706 181 160 139
-0.14150141 -0.3119463 1.6079706 182 161 140
-0.13989344 -0.3119463 1.6079706 175 158 135
-0.13828547 -0.3119463 1.6079706 172 153 132
-0.1366775 -0.3119463 1.6079706 157 137 118
-0.13506953 -0.3119463 1.6079706 149 130 112
-0.13346156 -0.3119463 1.6079706 136 120 104
-0.1318536 -0.3119463 1.6079706 134 112 97
-0.12982383 -0.3109361 1.6027634 130 112 95
-0.12772474 -0.3097325 1.5965592 123 106 90
-0.12564182 -0.30853814 1.5904028 99 87 73
-0.123180605 -0.30637228 1.5792385 89 76 72
-0.12113754 -0.30520368 1.5732148 86 74 72
-0.11910999 -0.30404392 1.5672367 80 69 66
-0.117991105 -0.30520368 1.5732148 79 67 64
-0.11641789 -0.30520368 1.5732148 79 68 65
-0.11440828 -0.30404392 1.5672367 79 67 64
-0.11284104 -0.30404392 1.5672367 104 93 89
-0.1112738 -0.30404392 1.5672367 85 73 63
-0.109706566 -0.30404392 1.5672367 102 91 84
-0.10813933 -0.30404392 1.5672367 73 60 55
-0.10657209 -0.30404392 1.5672367 80 69 65
-0.104607366 -0.30289298 1.561304 87 76 72
-0.10304606 -0.30289298 1.561304 78 65 61
-0.10148475 -0.30289298 1.561304 74 65 61
-0.09923476 -0.30080536 1.5505431 76 67 65
-0.09768421 -0.30080536 1.5505431 79 65 63
-0.09577362 -0.29967874 1.5447358 111 87 77
-0.09318189 -0.29634896 1.527572 162 109 83
-0.09103618 -0.29435033 1.5172696 170 109 78
-0.08886509 -0.29220048 1.5061879 168 109 79
-0.0873589 -0.29220048 1.5061879 167 104 75
-0.08585271 -0.29220048 1.5061879 163 98 70
-0.08403962 -0.29113728 1.5007075 160 94 68
-0.08253891 -0.29113728 1.5007075 154 88 63
-0.08045273 -0.28903392 1.4898655 151 85 60
-0.07867867 -0.2879936 1.4845031 155 93 68
-0.07719416 -0.2879936 1.4845031 178 118 88
-0.07570966 -0.2879936 1.4845031 189 132 101
-0.07422516 -0.2879936 1.4845031 188 131 99
-0.07274065 -0.2879936 1.4845031 186 126 96
-0.0710006 -0.28696075 1.4791791 180 119 96
-0.06923175 -0.28576508 1.4730159 176 113 91
-0.06804224 -0.28696075 1.4791791 172 109 86
-0.066285715 -0.28576508 1.4730159 169 105 82
-0.0648127 -0.28576508 1.4730159 164 102 77
-0.06333968 -0.28576508 1.4730159 160 99 72
-0.061866667 -0.28576508 1.4730159 157 97 71
-0.060393654 -0.28576508 1.4730159 157 97 72
-0.058920637 -0.28576508 1.4730159 160 96 72
-0.05744762 -0.28576508 1.4730159 161 95 73
-0.05557762 -0.28373837 1.462569 162 101 78
-0.05411505 -0.28373837 1.462569 175 113 88
-0.052281693 -0.28174025 1.4522692 183 122 98
-0.05082942 -0.28174025 1.4522692 189 127 100
-0.049551632 -0.28273576 1.4574009 192 131 105
-0.04809423 -0.28273576 1.4574009 193 132 107
-0.04663683 -0.28273576 1.4574009 194 130 105
-0.045020346 -0.28174025 1.4522692 188 125 100
-0.04356808 -0.28174025 1.4522692 186 121 95
-0.042115808 -0.28174025 1.4522692 184 116 91
-0.040663537 -0.28174025 1.4522692 179 112 86
-0.039349824 -0.28273576 1.4574009 175 108 82
-0.037892427 -0.28273576 1.4574009 174 107 79
-0.036435023 -0.28273576 1.4574009 172 105 78
-0.034977622 -0.28273576 1.4574009 173 105 78
-0.03340219 -0.28174025 1.4522692 173 106 79
-0.03206282 -0.28273576 1.4574009 178 109 81
-0.030497653 -0.28174025 1.4522692 177 109 81
-0.029045384 -0.28174025 1.4522692 177 108 80
-0.027496297 -0.28075168 1.4471736 176 107 80
-0.026049126 -0.28075168 1.4471736 182 112 84
-0.024601951 -0.28075168 1.4471736 186 118 91
-0.023154778 -0.28075168 1.4471736 192 126 96
-0.02178404 -0.28174025 1.4522692 198 132 97
-0.020331768 -0.28174025 1.4522692 203 135 100
-0.018946214 -0.28273576 1.4574009 200 129 91
-0.017488811 -0.28273576 1.4574009 195 125 85
-0.01603141 -0.28273576 1.4574009 184 114 83
-0.014677739 -0.28474814 1.4677739 173 106 79
-0.013257143 -0.28576508 1.4730159 161 101 77
-0.011876025 -0.2879936 1.4845031 130 90 76
-0.01058196 -0.29327145 1.5117085 105 68 61
-0.009103618 -0.29435033 1.5172696 103 63 59
-0.0075585423 -0.29327145 1.5117085 118 75 65
-0.006110288 -0.29634896 1.527572 127 81 68
-0.0045351256 -0.29327145 1.5117085 136 89 76
-0.003055144 -0.29634896 1.527572 149 100 86
-0.0015792386 -0.30637228 1.5792385 162 112 101
0.0 -0.30520368 1.5732148 165 128 111
0.0015965592 -0.3097325 1.5965592 168 142 125
0.003228528 -0.3131672 1.614264 165 141 126
0.0048777927 -0.3154306 1.6259309 167 145 129
0.006529464 -0.31667897 1.632366 165 144 126
0.008129654 -0.3154306 1.6259309 171 146 129
0.009755585 -0.3154306 1.6259309 177 153 137
0.011381516 -0.3154306 1.6259309 176 153 135
0.013007447 -0.3154306 1.6259309 176 155 137
0.014633378 -0.3154306 1.6259309 163 144 127
0.01620607 -0.31439772 1.6206069 170 151 134
0.01788524 -0.3154306 1.6259309 184 163 144
0.01951117 -0.3154306 1.6259309 186 164 145
0.02106789 -0.31439772 1.6206069 176 154 138
0.022763032 -0.3154306 1.6259309 177 153 137
0.024309102 -0.31439772 1.6206069 177 155 138
0.02592971 -0.31439772 1.6206069 185 165 147
0.027550317 -0.31439772 1.6206069 182 160 144
0.029056752 -0.3131672 1.614264 183 161 145
0.030671017 -0.3131672 1.614264 190 168 151
0.032285277 -0.3131672 1.614264 192 173 153
0.033899542 -0.3131672 1.614264 192 172 152
0.03551381 -0.3131672 1.614264 203 183 162
0.036983322 -0.3119463 1.6079706 182 161 143
0.03859129 -0.3119463 1.6079706 190 167 148
0.040199265 -0.3119463 1.6079706 173 152 134
0.041807234 -0.3119463 1.6079706 188 167 146
0.043415207 -0.3119463 1.6079706 200 178 155
0.045023177 -0.3119463 1.6079706 195 173 151
0.046631146 -0.3119463 1.6079706 186 166 144
0.048239116 -0.3119463 1.6079706 182 165 143
0.04984709 -0.3119463 1.6079706 177 157 138
0.051656447 -0.3131672 1.614264 166 148 129
0.05306303 -0.3119463 1.6079706 166 148 131
0.054671 -0.3119463 1.6079706 152 137 122
0.056278974 -0.3119463 1.6079706 144 130 114
0.05788694 -0.3119463 1.6079706 163 146 128
0.059494913 -0.3119463 1.6079706 157 140 123
0.061102882 -0.3119463 1.6079706 158 139 122
0.06271085 -0.3119463 1.6079706 160 141 123
0.06431883 -0.3119463 1.6079706 159 140 121
0.0659268 -0.3119463 1.6079706 153 135 116
0.06753477 -0.3119463 1.6079706 151 135 113
0.06914274 -0.3119463 1.6079706 151 133 114
0.070750706 -0.3119463 1.6079706 144 127 109
0.072358675 -0.3119463 1.6079706 130 114 99
0.073966645 -0.3119463 1.6079706 120 103 87
0.07532988 -0.3109361 1.6027634 115 99 83
0.07693265 -0.3109361 1.6027634 113 97 81
0.07853541 -0.3109361 1.6027634 108 94 78
0.07982796 -0.3097325 1.5965592 110 95 79
0.08142451 -0.3097325 1.5965592 109 94 79
0.08361447 -0.3119463 1.6079706 116 100 86
0.08555599 -0.3131672 1.614264 114 98 84
0.08621419 -0.3097325 1.5965592 111 95 81
0.08527987 -0.30080536 1.5505431 125 97 79
0.0849671 -0.29435033 1.5172696 154 103 81
0.08585271 -0.29220048 1.5061879 169 109 82
0.0873589 -0.29220048 1.5061879 172 112 86
0.08854174 -0.29113728 1.5007075 176 118 90
0.09004245 -0.29113728 1.5007075 174 115 85
0.09154316 -0.29113728 1.5007075 164 110 79
0.09304387 -0.29113728 1.5007075 161 107 77
0.094544575 -0.29113728 1.5007075 153 99 73
0.0953514 -0.28903392 1.4898655 139 93 72
0.09684126 -0.28903392 1.4898655 124 84 67
0.09762582 -0.28696075 1.4791791 105 68 60
0.099461704 -0.2879936 1.4845031 89 66 61
0.10094621 -0.2879936 1.4845031 90 73 70
0.102430716 -0.2879936 1.4845031 97 81 81
0.10391522 -0.2879936 1.4845031 102 85 86
0.10539973 -0.2879936 1.4845031 104 89 89
0.106884226 -0.2879936 1.4845031 104 88 86
0.10798008 -0.28696075 1.4791791 102 85 82
0.10945926 -0.28696075 1.4791791 98 83 80
0.11093844 -0.28696075 1.4791791 95 80 77
0.11282224 -0.2879936 1.4845031 92 78 76
0.113896795 -0.28696075 1.4791791 92 77 75
0.11489524 -0.28576508 1.4730159 91 76 75
0.11595414 -0.28474814 1.4677739 90 75 74
0.11784127 -0.28576508 1.4730159 91 75 74
0.11931428 -0.28576508 1.4730159 93 78 77
0.12035746 -0.28474814 1.4677739 94 80 77
0.12182523 -0.28474814 1.4677739 105 84 73
0.1228558 -0.28373837 1.462569 148 101 84
0.12431837 -0.28373837 1.462569 170 108 85
0.12533648 -0.28273576 1.4574009 172 108 86
0.12634742 -0.28174025 1.4522692 172 106 84
0.12779969 -0.28174025 1.4522692 170 106 83
0.12925196 -0.28174025 1.4522692 171 109 84
0.13024563 -0.28075168 1.4471736 178 113 90
0.13215649 -0.28174025 1.4522692 184 119 96
0.13360876 -0.28174025 1.4522692 191 125 102
0.13506104 -0.28174025 1.4522692 194 130 105
0.13603431 -0.28075168 1.4471736 200 132 107
0.1374815 -0.28075168 1.4471736 202 135 109
0.13941784 -0.28174025 1.4522692 205 136 110
0.14087012 -0.28174025 1.4522692 205 132 108
0.14232239 -0.28174025 1.4522692 182 118 99
0.14428268 -0.28273576 1.4574009 86 37 22
0.1462569 -0.28373837 1.462569 115 63 52
0.14771947 -0.28373837 1.462569 142 84 68
0.14918204 -0.28373837 1.462569 157 94 76
0.15118071 -0.28474814 1.4677739 165 100 79
0.15319365 -0.28576508 1.4730159 165 102 81
0.15466668 -0.28576508 1.4730159 165 101 83
0.15613967 -0.28576508 1.4730159 165 101 84
0.1576127 -0.28576508 1.4730159 171 106 88
0.15908572 -0.28576508 1.4730159 174 110 92
0.16055873 -0.28576508 1.4730159 178 114 95
0.16203175 -0.28576508 1.4730159 179 117 97
0.16350476 -0.28576508 1.4730159 173 115 97
0.16566806 -0.28696075 1.4791791 172 114 94
0.16714725 -0.28696075 1.4791791 159 101 87
0.16862641 -0.28696075 1.4791791 123 69 54
0.17071787 -0.2879936 1.4845031 124 69 54
0.17220236 -0.2879936 1.4845031 125 70 56
0.17494623 -0.2900818 1.4952669 126 73 61
0.1783816 -0.29327145 1.5117085 127 80 68
0.18313766 -0.29856056 1.5389719 166 130 113
0.1880684 -0.30404392 1.5672367 196 177 155
0.19108786 -0.30637228 1.5792385 208 185 164
0.1926671 -0.30637228 1.5792385 211 188 166
0.19424634 -0.30637228 1.5792385 210 188 166
0.19657828 -0.3075499 1.5853087 210 189 167
0.19816358 -0.3075499 1.5853087 209 188 163
0.20039076 -0.30853814 1.5904028 211 187 161
0.20355095 -0.3109361 1.6027634 215 187 157
0.20435958 -0.3097325 1.5965592 171 127 107
0.20675649 -0.3109361 1.6027634 135 83 72
0.20755269 -0.3097325 1.5965592 148 80 63
0.20914924 -0.3097325 1.5965592 153 79 66
0.21156478 -0.3109361 1.6027634 154 81 68
0.21469711 -0.3131672 1.614264 157 89 79
0.21631137 -0.3131672 1.614264 172 118 104
0.21792564 -0.3131672 1.614264 187 155 137
0.22040254 -0.31439772 1.6206069 183 163 148
0.22115417 -0.3131672 1.614264 216 193 175
0.22364375 -0.31439772 1.6206069 218 197 176
0.22600439 -0.3154306 1.6259309 215 195 173
0.22688496 -0.31439772 1.6206069 205 181 159
0.22761121 -0.3131672 1.614264 210 186 164
0.23012617 -0.31439772 1.6206069 202 178 156
0.23174678 -0.31439772 1.6206069 203 178 156
-0.22990453 -0.31132904 1.5965592 175 154 136
-0.22830796 -0.31132904 1.5965592 175 154 137
-0.22671139 -0.31132904 1.5965592 187 163 145
-0.22511484 -0.31132904 1.5965592 186 161 143
-0.22351828 -0.31132904 1.5965592 174 151 134
-0.22192173 -0.31132904 1.5965592 181 159 142
-0.22032517 -0.31132904 1.5965592 185 162 145
-0.2187286 -0.31132904 1.5965592 185 163 145
-0.21713205 -0.31132904 1.5965592 189 168 148
-0.21637306 -0.3125389 1.6027634 185 165 145
-0.21477029 -0.3125389 1.6027634 184 164 145
-0.21316755 -0.3125389 1.6027634 184 163 144
-0.21156478 -0.3125389 1.6027634 183 163 141
-0.20996201 -0.3125389 1.6027634 177 158 138
-0.20903617 -0.31355426 1.6079706 180 160 139
-0.2074282 -0.31355426 1.6079706 184 162 140
-0.20582023 -0.31355426 1.6079706 184 161 141
-0.20421226 -0.31355426 1.6079706 184 161 140
-0.2026043 -0.31355426 1.6079706 182 161 140
-0.20099632 -0.31355426 1.6079706 182 162 140
-0.19938836 -0.31355426 1.6079706 183 161 140
-0.19778039 -0.31355426 1.6079706 180 160 140
-0.19617242 -0.31355426 1.6079706 184 161 140
-0.19456443 -0.31355426 1.6079706 181 160 140
-0.19295646 -0.31355426 1.6079706 175 156 137
-0.1913485 -0.31355426 1.6079706 183 162 141
-0.18912609 -0.3125389 1.6027634 178 157 137
-0.18752332 -0.3125389 1.6027634 175 156 134
-0.18592057 -0.3125389 1.6027634 173 152 133
-0.1843178 -0.3125389 1.6027634 174 154 134
-0.18271503 -0.3125389 1.6027634 168 148 128
-0.18111226 -0.3125389 1.6027634 169 149 130
-0.1795095 -0.3125389 1.6027634 172 151 130
-0.17848474 -0.31355426 1.6079706 179 159 137
-0.17687677 -0.31355426 1.6079706 177 157 136
-0.1752688 -0.31355426 1.6079706 179 159 137
-0.17366083 -0.31355426 1.6079706 168 148 128
-0.17205286 -0.31355426 1.6079706 171 150 131
-0.17044489 -0.31355426 1.6079706 176 156 134
-0.16883692 -0.31355426 1.6079706 175 154 134
-0.16722894 -0.31355426 1.6079706 171 151 130
-0.16562097 -0.31355426 1.6079706 172 151 129
-0.164013 -0.31355426 1.6079706 181 161 138
-0.16240503 -0.31355426 1.6079706 177 158 137
-0.16079706 -0.31355426 1.6079706 180 160 139
-0.15918909 -0.31355426 1.6079706 179 160 140
-0.15758112 -0.31355426 1.6079706 186 166 145
-0.15597315 -0.31355426 1.6079706 186 167 146
-0.1538653 -0.3125389 1.6027634 183 161 140
-0.15226252 -0.3125389 1.6027634 177 158 136
-0.15065975 -0.3125389 1.6027634 177 158 136
-0.14905699 -0.3125389 1.6027634 184 163 141
-0.14745423 -0.3125389 1.6027634 185 165 142
-0.14585148 -0.3125389 1.6027634 184 164 141
-0.14471735 -0.31355426 1.6079706 182 164 141
-0.14264596 -0.3125389 1.6027634 181 161 138
-0.14104319 -0.3125389 1.6027634 180 160 139
-0.13944042 -0.3125389 1.6027634 176 157 135
-0.13783765 -0.3125389 1.6027634 173 154 133
-0.1362349 -0.3125389 1.6027634 168 147 127
-0.13506953 -0.31355426 1.6079706 155 134 118
-0.13302936 -0.3125389 1.6027634 148 130 113
-0.1314266 -0.3125389 1.6027634 137 115 100
-0.12982383 -0.3125389 1.6027634 131 111 95
-0.12772474 -0.31132904 1.5965592 124 107 90
-0.12523939 -0.3091352 1.5853087 100 89 74
-0.123180605 -0.3079515 1.5792385 87 75 70
-0.12113754 -0.30677688 1.5732148 86 74 72
-0.11910999 -0.30561113 1.5672367 82 71 68
-0.117991105 -0.30677688 1.5732148 79 68 65
-0.11597551 -0.30561113 1.5672367 77 65 63
-0.11440828 -0.30561113 1.5672367 78 67 64
-0.11284104 -0.30561113 1.5672367 95 83 79
-0.1112738 -0.30561113 1.5672367 104 93 84
-0.109706566 -0.30561113 1.5672367 103 93 86
-0.10813933 -0.30561113 1.5672367 80 67 62
-0.10616867 -0.3044543 1.561304 78 65 61
-0.104607366 -0.3044543 1.561304 101 90 86
-0.10304606 -0.3044543 1.561304 79 66 62
-0.10148475 -0.3044543 1.561304 72 64 59
-0.09923476 -0.3023559 1.5505431 74 64 62
-0.09731835 -0.3012235 1.5447358 84 67 63
-0.09541626 -0.30009952 1.5389719 135 98 84
-0.09318189 -0.29787657 1.527572 169 110 81
-0.09103618 -0.2958676 1.5172696 168 108 76
-0.08886509 -0.29370663 1.5061879 166 105 77
-0.0873589 -0.29370663 1.5061879 164 101 73
-0.08585271 -0.29370663 1.5061879 160 94 70
-0.08403962 -0.29263797 1.5007075 153 89 63
-0.08223968 -0.29157707 1.4952669 150 85 58
-0.080744416 -0.29157707 1.4952669 148 86 61
-0.07867867 -0.28947812 1.4845031 167 107 81
-0.07719416 -0.28947812 1.4845031 185 128 97
-0.07570966 -0.28947812 1.4845031 188 132 100
-0.07422516 -0.28947812 1.4845031 188 130 99
-0.07247978 -0.28843993 1.4791791 184 124 95
-0.0710006 -0.28843993 1.4791791 182 119 96
-0.06952142 -0.28843993 1.4791791 177 114 91
-0.06775873 -0.2872381 1.4730159 172 108 86
-0.066285715 -0.2872381 1.4730159 166 103 82
-0.0648127 -0.2872381 1.4730159 164 101 77
-0.063604705 -0.28843993 1.4791791 158 98 71
-0.061866667 -0.2872381 1.4730159 160 97 72
-0.060393654 -0.2872381 1.4730159 161 94 70
-0.05916717 -0.28843993 1.4791791 155 91 67
-0.057243183 -0.2862159 1.4677739 159 96 76
-0.05557762 -0.28520095 1.462569 172 114 88
-0.053923834 -0.2841932 1.4574009 186 127 102
-0.052281693 -0.28319252 1.4522692 196 134 111
-0.05082942 -0.28319252 1.4522692 195 134 108
-0.049551632 -0.2841932 1.4574009 198 136 110
-0.047924884 -0.28319252 1.4522692 197 134 109
-0.046472613 -0.28319252 1.4522692 196 130 106
-0.045020346 -0.28319252 1.4522692 187 123 99
-0.04356808 -0.28319252 1.4522692 184 119 92
-0.042115808 -0.28319252 1.4522692 181 115 87
-0.040663537 -0.28319252 1.4522692 178 110 84
-0.039349824 -0.2841932 1.4574009 174 107 81
-0.037892427 -0.2841932 1.4574009 172 105 77
-0.036435023 -0.2841932 1.4574009 169 102 74
-0.034977622 -0.2841932 1.4574009 170 102 76
-0.03340219 -0.28319252 1.4522692 167 101 76
-0.03206282 -0.2841932 1.4574009 170 99 74
-0.030497653 -0.28319252 1.4522692 170 100 73
-0.029045384 -0.28319252 1.4522692 171 102 72
-0.027496297 -0.28219885 1.4471736 174 107 75
-0.026049126 -0.28219885 1.4471736 185 116 88
-0.024601951 -0.28219885 1.4471736 192 127 97
-0.023154778 -0.28219885 1.4471736 200 133 102
-0.021707604 -0.28219885 1.4471736 205 140 104
-0.020331768 -0.28319252 1.4522692 203 140 107
-0.018946214 -0.2841932 1.4574009 202 131 97
-0.01742723 -0.28319252 1.4522692 199 126 88
-0.01603141 -0.2841932 1.4574009 187 117 85
-0.014574009 -0.2841932 1.4574009 175 108 80
-0.013209965 -0.2862159 1.4677739 162 101 78
-0.011876025 -0.28947812 1.4845031 122 86 76
-0.010620887 -0.2958676 1.5172696 102 70 66
-0.009131611 -0.29677737 1.5219352 95 61 58
-0.0076378603 -0.29787657 1.527572 109 70 61
-0.0061558876 -0.30009952 1.5389719 125 82 68
-0.004551809 -0.2958676 1.5172696 132 86 72
-0.003055144 -0.29787657 1.527572 141 93 79
-0.0015672366 -0.30561113 1.5672367 156 106 96
0.0 -0.3044543 1.561304 167 129 111
0.0015965592 -0.31132904 1.5965592 156 131 116
0.003228528 -0.3147815 1.614264 166 142 128
0.0048777927 -0.3170565 1.6259309 163 142 127
0.0064824275 -0.31601834 1.6206069 163 144 126
0.008129654 -0.3170565 1.6259309 172 147 131
0.009723641 -0.31601834 1.6206069 172 146 130
0.011381516 -0.3170565 1.6259309 167 146 129
0.013007447 -0.3170565 1.6259309 175 154 136
0.014585462 -0.31601834 1.6206069 179 158 139
0.016142638 -0.3147815 1.614264 179 157 139
0.017756905 -0.3147815 1.614264 176 155 137
0.019447282 -0.31601834 1.6206069 184 160 142
0.02106789 -0.31601834 1.6206069 177 154 137
0.022688495 -0.31601834 1.6206069 185 160 143
0.024309102 -0.31601834 1.6206069 186 163 145
0.025828224 -0.3147815 1.614264 195 175 156
0.027442487 -0.3147815 1.614264 200 177 159
0.029056752 -0.3147815 1.614264 187 164 148
0.030671017 -0.3147815 1.614264 194 173 155
0.032159414 -0.31355426 1.6079706 194 172 154
0.033767384 -0.31355426 1.6079706 196 174 155
0.035375353 -0.31355426 1.6079706 206 184 164
0.036983322 -0.31355426 1.6079706 202 179 159
0.03859129 -0.31355426 1.6079706 200 178 157
0.040199265 -0.31355426 1.6079706 190 169 148
0.041807234 -0.31355426 1.6079706 163 146 127
0.043415207 -0.31355426 1.6079706 201 180 157
0.044877376 -0.3125389 1.6027634 189 168 146
0.04648014 -0.3125389 1.6027634 188 169 147
0.0480829 -0.3125389 1.6027634 186 166 145
0.049685664 -0.3125389 1.6027634 180 161 140
0.05128843 -0.3125389 1.6027634 179 157 138
0.05306303 -0.31355426 1.6079706 165 145 128
0.054493956 -0.3125389 1.6027634 157 140 124
0.056096718 -0.3125389 1.6027634 167 149 131
0.057699483 -0.3125389 1.6027634 164 146 128
0.059302244 -0.3125389 1.6027634 155 139 121
0.06090501 -0.3125389 1.6027634 162 142 123
0.06250777 -0.3125389 1.6027634 165 147 126
0.06411053 -0.3125389 1.6027634 162 143 122
0.0657133 -0.3125389 1.6027634 164 146 123
0.06731606 -0.3125389 1.6027634 166 147 125
0.068918824 -0.3125389 1.6027634 159 141 121
0.07052159 -0.3125389 1.6027634 148 131 115
0.07184516 -0.31132904 1.5965592 137 120 105
0.073727116 -0.3125389 1.6027634 122 105 89
0.07532988 -0.3125389 1.6027634 117 100 84
0.07663484 -0.31132904 1.5965592 117 101 85
0.0782314 -0.31132904 1.5965592 111 96 79
0.07982796 -0.31132904 1.5965592 112 96 81
0.081110545 -0.31012854 1.5904028 110 95 80
0.0833437 -0.3125389 1.6027634 116 99 85
0.08494646 -0.3125389 1.6027634 109 95 81
0.085606664 -0.3091352 1.5853087 109 91 77
0.08464345 -0.30009952 1.5389719 128 96 76
0.08465568 -0.29478315 1.5117085 158 103 79
0.08554033 -0.29263797 1.5007075 167 106 82
0.087041035 -0.29263797 1.5007075 171 112 86
0.088220745 -0.29157707 1.4952669 171 114 88
0.08971602 -0.29157707 1.4952669 172 114 85
0.09154316 -0.29263797 1.5007075 166 109 80
0.09304387 -0.29263797 1.5007075 157 103 76
0.094544575 -0.29263797 1.5007075 149 95 72
0.0953514 -0.29052377 1.4898655 132 88 71
0.09614664 -0.28843993 1.4791791 112 75 62
0.09762582 -0.28843993 1.4791791 102 70 64
0.099461704 -0.28947812 1.4845031 97 75 71
0.10094621 -0.28947812 1.4845031 101 85 83
0.102430716 -0.28947812 1.4845031 100 85 85
0.10391522 -0.28947812 1.4845031 103 87 88
0.10539973 -0.28947812 1.4845031 104 89 89
0.106884226 -0.28947812 1.4845031 105 88 86
0.10798008 -0.28843993 1.4791791 103 86 84
0.10985323 -0.28947812 1.4845031 100 85 82
0.11093844 -0.28843993 1.4791791 95 80 78
0.112417616 -0.28843993 1.4791791 92 78 75
0.11430674 -0.28947812 1.4845031 91 76 75
0.11537597 -0.28843993 1.4791791 91 76 74
0.11636826 -0.2872381 1.4730159 90 75 74
0.11784127 -0.2872381 1.4730159 91 75 75
0.11931428 -0.2872381 1.4730159 92 76 76
0.12078731 -0.2872381 1.4730159 91 76 75
0.12182523 -0.2862159 1.4677739 95 79 73
0.123293005 -0.2862159 1.4677739 120 90 74
0.12431837 -0.28520095 1.462569 157 103 82
0.12533648 -0.2841932 1.4574009 171 107 86
0.12634742 -0.28319252 1.4522692 170 107 84
0.12779969 -0.28319252 1.4522692 171 106 82
0.12925196 -0.28319252 1.4522692 170 106 83
0.13024563 -0.28219885 1.4471736 172 110 86
0.13215649 -0.28319252 1.4522692 179 115 91
0.13360876 -0.28319252 1.4522692 186 121 97
0.13458714 -0.28219885 1.4471736 187 124 101
0.13603431 -0.28219885 1.4471736 193 128 104
0.1374815 -0.28219885 1.4471736 197 131 107
0.13941784 -0.28319252 1.4522692 199 133 108
0.14087012 -0.28319252 1.4522692 200 129 105
0.14232239 -0.28319252 1.4522692 187 129 102
0.14377464 -0.28319252 1.4522692 95 61 46
0.14574009 -0.2841932 1.4574009 88 43 36
0.1471975 -0.2841932 1.4574009 117 69 57
0.14918204 -0.28520095 1.462569 145 89 72
0.1506446 -0.28520095 1.462569 160 95 76
0.15319365 -0.2872381 1.4730159 163 99 79
0.15466668 -0.2872381 1.4730159 163 99 80
0.15613967 -0.2872381 1.4730159 164 100 81
0.1576127 -0.2872381 1.4730159 166 102 85
0.15908572 -0.2872381 1.4730159 166 104 87
0.16055873 -0.2872381 1.4730159 168 106 88
0.16203175 -0.2872381 1.4730159 166 103 88
0.16350476 -0.2872381 1.4730159 158 101 83
0.16566806 -0.28843993 1.4791791 158 101 82
0.16714725 -0.28843993 1.4791791 156 98 82
0.16862641 -0.28843993 1.4791791 123 69 54
0.17071787 -0.28947812 1.4845031 123 69 54
0.17220236 -0.28947812 1.4845031 125 69 55
0.17494623 -0.29157707 1.4952669 127 72 59
0.17773017 -0.29370663 1.5061879 125 79 66
0.18313766 -0.30009952 1.5389719 161 126 110
0.1880684 -0.30561113 1.5672367 212 191 167
0.19108786 -0.3079515 1.5792385 212 188 167
0.1926671 -0.3079515 1.5792385 210 186 166
0.19350542 -0.30677688 1.5732148 209 187 167
0.19582558 -0.3079515 1.5792385 210 188 166
0.19816358 -0.3091352 1.5853087 209 186 167
0.20039076 -0.31012854 1.5904028 211 187 163
0.20198116 -0.31012854 1.5904028 208 186 159
0.20357156 -0.31012854 1.5904028 206 185 157
0.20595613 -0.31132904 1.5965592 198 164 136
0.20755269 -0.31132904 1.5965592 158 111 91
0.20914924 -0.31132904 1.5965592 148 92 78
0.2107458 -0.31132904 1.5965592 150 92 78
0.2138601 -0.31355426 1.6079706 165 109 97
0.21546806 -0.31355426 1.6079706 180 140 124
0.21707603 -0.31355426 1.6079706 209 179 156
0.2195399 -0.3147815 1.614264 208 181 165
0.22115417 -0.3147815 1.614264 211 188 170
0.22276843 -0.3147815 1.614264 204 182 163
0.22526436 -0.31601834 1.6206069 211 185 166
0.22688496 -0.31601834 1.6206069 204 178 156
0.22850557 -0.31601834 1.6206069 197 171 149
0.23012617 -0.31601834 1.6206069 198 171 148
0.23083976 -0.3147815 1.614264 186 157 137
-0.22990453 -0.3129256 1.5965592 184 156 140
-0.22830796 -0.3129256 1.5965592 178 149 135
-0.22671139 -0.3129256 1.5965592 183 154 139
-0.22511484 -0.3129256 1.5965592 185 154 135
-0.22351828 -0.3129256 1.5965592 185 154 133
-0.22192173 -0.3129256 1.5965592 184 156 137
-0.22032517 -0.3129256 1.5965592 186 160 142
-0.2187286 -0.3129256 1.5965592 187 161 142
-0.21713205 -0.3129256 1.5965592 185 158 137
-0.21553549 -0.3129256 1.5965592 178 155 135
-0.21393894 -0.3129256 1.5965592 183 159 141
-0.21234238 -0.3129256 1.5965592 179 160 140
-0.2107458 -0.3129256 1.5965592 173 153 134
-0.20914924 -0.3129256 1.5965592 182 161 140
-0.20835924 -0.31414163 1.6027634 187 164 143
-0.20675649 -0.31414163 1.6027634 184 162 141
-0.20515372 -0.31414163 1.6027634 182 161 140
-0.20355095 -0.31414163 1.6027634 184 163 142
-0.2019482 -0.31414163 1.6027634 186 164 143
-0.20034543 -0.31414163 1.6027634 191 168 147
-0.19874266 -0.31414163 1.6027634 183 161 142
-0.19713989 -0.31414163 1.6027634 186 163 144
-0.19553714 -0.31414163 1.6027634 186 163 143
-0.19393437 -0.31414163 1.6027634 179 159 138
-0.1923316 -0.31414163 1.6027634 180 160 139
-0.19072886 -0.31414163 1.6027634 183 162 140
-0.18912609 -0.31414163 1.6027634 178 156 135
-0.18752332 -0.31414163 1.6027634 175 155 133
-0.18592057 -0.31414163 1.6027634 174 153 132
-0.1843178 -0.31414163 1.6027634 176 155 134
-0.18271503 -0.31414163 1.6027634 175 155 133
-0.18111226 -0.31414163 1.6027634 174 153 132
-0.1795095 -0.31414163 1.6027634 177 157 137
-0.17790674 -0.31414163 1.6027634 176 156 136
-0.17630397 -0.31414163 1.6027634 179 158 137
-0.17470121 -0.31414163 1.6027634 180 160 139
-0.17309844 -0.31414163 1.6027634 181 160 139
-0.17149568 -0.31414163 1.6027634 178 158 137
-0.16989292 -0.31414163 1.6027634 178 157 137
-0.16829017 -0.31414163 1.6027634 177 156 137
-0.1666874 -0.31414163 1.6027634 179 157 137
-0.16508463 -0.31414163 1.6027634 175 154 135
-0.16348188 -0.31414163 1.6027634 178 159 140
-0.1618791 -0.31414163 1.6027634 183 162 142
-0.16027634 -0.31414163 1.6027634 182 161 141
-0.15867358 -0.31414163 1.6027634 181 160 140
-0.15707082 -0.31414163 1.6027634 181 161 140
-0.15546805 -0.31414163 1.6027634 181 161 139
-0.1538653 -0.31414163 1.6027634 176 157 134
-0.15226252 -0.31414163 1.6027634 179 159 136
-0.15065975 -0.31414163 1.6027634 182 161 138
-0.14905699 -0.31414163 1.6027634 181 161 139
-0.14688344 -0.3129256 1.5965592 182 162 140
-0.14528689 -0.3129256 1.5965592 181 161 139
-0.14369032 -0.3129256 1.5965592 181 161 141
-0.14264596 -0.31414163 1.6027634 184 164 143
-0.14104319 -0.31414163 1.6027634 184 165 144
-0.13890065 -0.3129256 1.5965592 171 155 135
-0.1373041 -0.3129256 1.5965592 168 150 132
-0.13570753 -0.3129256 1.5965592 170 150 130
-0.13411097 -0.3129256 1.5965592 158 140 122
-0.1325144 -0.3129256 1.5965592 152 136 117
-0.13091785 -0.3129256 1.5965592 138 122 103
-0.12882262 -0.31171897 1.5904028 126 111 94
-0.12682469 -0.3107205 1.5853087 119 105 89
-0.12523939 -0.3107205 1.5853087 105 93 80
-0.123180605 -0.30953076 1.5792385 85 73 67
-0.12113754 -0.3083501 1.5732148 83 73 70
-0.11910999 -0.30717838 1.5672367 82 71 68
-0.117991105 -0.3083501 1.5732148 81 70 67
-0.11597551 -0.30717838 1.5672367 75 64 61
-0.11484468 -0.3083501 1.5732148 78 67 64
-0.11284104 -0.30717838 1.5672367 74 63 59
-0.1112738 -0.30717838 1.5672367 74 62 55
-0.10929128 -0.30601555 1.561304 95 85 78
-0.10772997 -0.30601555 1.561304 75 63 57
-0.10616867 -0.30601555 1.561304 77 65 60
-0.104607366 -0.30601555 1.561304 103 91 85
-0.10304606 -0.30601555 1.561304 89 77 71
-0.10148475 -0.30601555 1.561304 88 75 70
-0.09886309 -0.30276823 1.5447358 75 65 63
-0.09695523 -0.30163848 1.5389719 99 77 65
-0.095061556 -0.30051714 1.5332508 153 106 80
-0.09283805 -0.2982993 1.5219352 171 113 77
-0.090702504 -0.29629487 1.5117085 169 108 77
-0.08886509 -0.29521284 1.5061879 169 105 77
-0.0873589 -0.29521284 1.5061879 164 99 72
-0.08585271 -0.29521284 1.5061879 155 92 68
-0.08403962 -0.29413867 1.5007075 154 87 62
-0.08253891 -0.29413867 1.5007075 143 81 53
-0.080744416 -0.2930723 1.4952669 148 94 63
-0.07867867 -0.2909626 1.4845031 178 123 86
-0.07691731 -0.2899191 1.4791791 190 132 100
-0.07570966 -0.2909626 1.4845031 190 130 98
-0.07422516 -0.2909626 1.4845031 185 128 96
-0.07274065 -0.2909626 1.4845031 183 124 93
-0.0710006 -0.2899191 1.4791791 182 120 92
-0.06952142 -0.2899191 1.4791791 175 113 87
-0.06775873 -0.28871113 1.4730159 171 109 83
-0.066285715 -0.28871113 1.4730159 167 104 80
-0.0648127 -0.28871113 1.4730159 165 99 76
-0.06333968 -0.28871113 1.4730159 161 94 70
-0.061866667 -0.28871113 1.4730159 159 93 69
-0.060393654 -0.28871113 1.4730159 156 90 66
-0.058710955 -0.2876837 1.4677739 155 94 72
-0.057040192 -0.2866635 1.462569 172 112 89
-0.055381235 -0.28565058 1.4574009 189 131 105
-0.05373396 -0.28464478 1.4522692 199 140 115
-0.052098252 -0.28364602 1.4471736 202 144 118
-0.05082942 -0.28464478 1.4522692 199 140 113
-0.04937715 -0.28464478 1.4522692 197 136 110
-0.047924884 -0.28464478 1.4522692 194 132 106
-0.046309557 -0.28364602 1.4471736 193 127 102
-0.045020346 -0.28464478 1.4522692 188 119 101
-0.04356808 -0.28464478 1.4522692 184 115 92
-0.042115808 -0.28464478 1.4522692 180 113 89
-0.040807225 -0.28565058 1.4574009 177 108 84
-0.039349824 -0.28565058 1.4574009 170 104 77
-0.037892427 -0.28565058 1.4574009 166 102 73
-0.036435023 -0.28565058 1.4574009 163 99 71
-0.034977622 -0.28565058 1.4574009 162 98 71
-0.03340219 -0.28464478 1.4522692 162 97 71
-0.03206282 -0.28565058 1.4574009 163 95 76
-0.030497653 -0.28464478 1.4522692 159 95 74
-0.029045384 -0.28464478 1.4522692 165 101 79
-0.027496297 -0.28364602 1.4471736 179 113 87
-0.026049126 -0.28364602 1.4471736 191 125 96
-0.024601951 -0.28364602 1.4471736 201 136 105
-0.023154778 -0.28364602 1.4471736 208 143 111
-0.021707604 -0.28364602 1.4471736 212 147 112
-0.020331768 -0.28464478 1.4522692 211 143 111
-0.0188795 -0.28464478 1.4522692 203 134 103
-0.01742723 -0.28464478 1.4522692 197 127 95
-0.01603141 -0.28565058 1.4574009 192 121 89
-0.014574009 -0.28565058 1.4574009 184 114 85
-0.013163121 -0.2866635 1.462569 163 103 83
-0.011833433 -0.2899191 1.4791791 117 86 73
-0.01058196 -0.29629487 1.5117085 105 79 75
-0.009131611 -0.2982993 1.5219352 102 74 72
-0.0076378603 -0.2994041 1.527572 98 66 58
-0.006133003 -0.30051714 1.5332508 114 76 64
-0.0046169157 -0.30163848 1.5389719 130 81 65
-0.0030894715 -0.30276823 1.5447358 140 89 74
-0.0015563943 -0.30505326 1.5563942 150 99 85
0.0 -0.30601555 1.561304 159 116 99
0.0015853087 -0.3107205 1.5853087 175 149 129
0.0032055269 -0.31414163 1.6027634 165 142 130
0.0048777927 -0.31868246 1.6259309 169 145 132
0.006457056 -0.31639576 1.614264 174 150 134
0.008103035 -0.31763893 1.6206069 172 149 133
0.009723641 -0.31763893 1.6206069 171 147 131
0.0113442475 -0.31763893 1.6206069 168 145 130
0.012964855 -0.31763893 1.6206069 175 154 136
0.014471735 -0.31516224 1.6079706 180 156 139
0.016079707 -0.31516224 1.6079706 183 161 142
0.017687676 -0.31516224 1.6079706 173 151 135
0.019371169 -0.31639576 1.614264 179 157 140
0.02106789 -0.31763893 1.6206069 188 163 146
0.022688495 -0.31763893 1.6206069 176 155 138
0.024309102 -0.31763893 1.6206069 190 168 150
0.025828224 -0.31639576 1.614264 196 175 155
0.0273355 -0.31516224 1.6079706 195 173 155
0.02894347 -0.31516224 1.6079706 201 177 158
0.030671017 -0.31639576 1.614264 195 174 154
0.032159414 -0.31516224 1.6079706 184 163 144
0.033767384 -0.31516224 1.6079706 190 168 148
0.035375353 -0.31516224 1.6079706 196 174 154
0.036863558 -0.31414163 1.6027634 202 181 160
0.038466323 -0.31414163 1.6027634 204 182 160
0.040069085 -0.31414163 1.6027634 209 184 164
0.04167185 -0.31414163 1.6027634 202 178 159
0.04327461 -0.31414163 1.6027634 195 172 152
0.044877376 -0.31414163 1.6027634 206 182 161
0.04648014 -0.31414163 1.6027634 202 180 156
0.0480829 -0.31414163 1.6027634 191 172 149
0.049685664 -0.31414163 1.6027634 178 159 138
0.05128843 -0.31414163 1.6027634 173 154 133
0.052891195 -0.31414163 1.6027634 174 154 134
0.054493956 -0.31414163 1.6027634 164 145 128
0.056096718 -0.31414163 1.6027634 163 143 126
0.057699483 -0.31414163 1.6027634 161 142 124
0.059302244 -0.31414163 1.6027634 160 142 125
0.06090501 -0.31414163 1.6027634 173 152 133
