ply
format ascii 1.0
element vertex 1123
property float32 x
property float32 y
property float32 z
property uchar red
property uchar green
property uchar blue
element face 0
property list uint8 int32 vertex_indices
end_header
-0.022344619 0.2774457 1.8620517 131 122 115
-0.02055992 0.27849346 1.8690836 142 132 124
-0.018690836 0.27849346 1.8690836 137 128 121
-0.016821753 0.27849346 1.8690836 123 117 112
-0.014952669 0.27849346 1.8690836 133 125 121
-0.013034361 0.2774457 1.8620517 122 114 111
-0.0111723095 0.2774457 1.8620517 129 123 119
-0.009387962 0.27976125 1.8775923 116 110 106
-0.0075389696 0.28082663 1.8847424 127 117 111
-0.005632777 0.27976125 1.8775923 124 116 110
-0.0037551846 0.27976125 1.8775923 127 117 111
-0.0018847424 0.28082663 1.8847424 124 115 109
0.0 0.27976125 1.8775923 132 122 115
0.0018847424 0.28082663 1.8847424 137 127 120
0.0037694848 0.28082663 1.8847424 137 128 121
0.0056542275 0.28082663 1.8847424 139 130 123
0.0075389696 0.28082663 1.8847424 135 126 119
0.009459735 0.2819001 1.891947 134 125 118
0.011351682 0.2819001 1.891947 128 114 107
0.01324363 0.2819001 1.891947 122 107 99
0.015135576 0.2819001 1.891947 117 100 94
0.017027523 0.2819001 1.891947 106 89 83
0.01891947 0.2819001 1.891947 107 89 83
0.020811416 0.2819001 1.891947 121 101 95
0.022703364 0.2819001 1.891947 106 88 82
0.024595313 0.2819001 1.891947 109 93 87
0.026286293 0.27976125 1.8775923 117 101 95
0.028488105 0.28298184 1.899207 137 118 110
0.030861003 0.2873931 1.9288127 151 133 124
0.034483064 0.30223387 2.0284154 141 125 118
-0.113934934 0.3372474 2.2786987 105 90 83
-0.097868174 0.29560184 1.9973097 81 62 55
-0.0922236 0.28435612 1.9213251 80 63 55
-0.09030227 0.28435612 1.9213251 80 63 56
-0.08803918 0.2832565 1.9138954 81 64 57
-0.08612529 0.2832565 1.9138954 79 61 54
-0.08388701 0.28216538 1.9065229 75 58 51
-0.0816659 0.28108263 1.899207 93 78 72
-0.07976669 0.28108263 1.899207 80 66 59
-0.077569835 0.28000814 1.891947 77 62 56
-0.07567788 0.28000814 1.891947 71 56 51
-0.07378593 0.28000814 1.891947 67 53 48
-0.07189399 0.28000814 1.891947 68 55 50
-0.070002034 0.28000814 1.891947 69 55 50
-0.06811009 0.28000814 1.891947 69 55 50
-0.066218145 0.28000814 1.891947 70 56 51
-0.064326204 0.28000814 1.891947 71 58 53
-0.0621965 0.27894187 1.8847424 71 58 52
-0.060311757 0.27894187 1.8847424 70 56 50
-0.058427013 0.27894187 1.8847424 76 64 61
-0.05654227 0.27894187 1.8847424 86 75 72
-0.054450177 0.27788368 1.8775923 97 84 80
-0.052572586 0.27788368 1.8775923 85 73 69
-0.05069499 0.27788368 1.8775923 77 65 62
-0.048817404 0.27788368 1.8775923 87 75 72
-0.04672709 0.27662438 1.8690836 78 65 62
-0.04485801 0.27662438 1.8690836 79 66 63
-0.042988922 0.27662438 1.8690836 83 70 68
-0.04111984 0.27662438 1.8690836 91 78 75
-0.039250754 0.27662438 1.8690836 122 106 105
-0.03738167 0.27662438 1.8690836 107 97 95
-0.03551259 0.27662438 1.8690836 115 103 102
-0.033643506 0.27662438 1.8690836 130 115 114
-0.03177442 0.27662438 1.8690836 121 108 106
-0.029792828 0.27558365 1.8620517 104 94 92
-0.027930778 0.27558365 1.8620517 102 93 90
-0.026068723 0.27558365 1.8620517 115 104 102
-0.024206672 0.27558365 1.8620517 117 106 102
-0.02226087 0.2745507 1.8550725 128 115 109
-0.020482568 0.27558365 1.8620517 129 116 110
-0.018690836 0.27662438 1.8690836 118 108 103
-0.016821753 0.27662438 1.8690836 119 112 108
-0.014896414 0.27558365 1.8620517 122 115 112
-0.013034361 0.27558365 1.8620517 123 114 112
-0.0111723095 0.27558365 1.8620517 130 122 118
-0.009310259 0.27558365 1.8620517 120 113 108
-0.007448207 0.27558365 1.8620517 121 112 107
-0.005632777 0.27788368 1.8775923 125 117 110
-0.0037551846 0.27788368 1.8775923 129 120 113
-0.0018775923 0.27788368 1.8775923 128 118 112
0.0 0.27788368 1.8775923 122 113 107
0.0018775923 0.27788368 1.8775923 130 121 113
0.0037551846 0.27788368 1.8775923 139 130 122
0.005632777 0.27788368 1.8775923 133 128 121
0.0075389696 0.27894187 1.8847424 137 132 125
0.009423711 0.27894187 1.8847424 141 137 130
0.011308455 0.27894187 1.8847424 134 130 124
0.013193197 0.27894187 1.8847424 130 124 115
0.015135576 0.28000814 1.891947 123 109 101
0.017027523 0.28000814 1.891947 109 95 88
0.01891947 0.28000814 1.891947 117 100 94
0.020811416 0.28000814 1.891947 117 100 94
0.022703364 0.28000814 1.891947 110 93 88
0.024595313 0.28000814 1.891947 104 89 83
0.02648726 0.28000814 1.891947 120 104 97
0.028271135 0.27894187 1.8847424 128 112 104
0.030981744 0.28658113 1.9363589 150 133 124
0.032918103 0.28658113 1.9363589 149 132 124
0.037974425 0.3122342 2.1096904 140 124 117
-0.1098416 0.31660226 2.1537569 104 88 78
-0.09867092 0.29009253 1.9734185 81 63 56
-0.09488159 0.28464478 1.9363589 82 65 57
-0.0922236 0.2824348 1.9213251 80 64 57
-0.08995308 0.28134263 1.9138954 79 63 56
-0.087700054 0.28025886 1.9065229 77 60 53
-0.085793525 0.28025886 1.9065229 72 54 47
-0.08356511 0.27918345 1.899207 87 73 66
-0.081353724 0.2781162 1.891947 82 68 61
-0.079461776 0.2781162 1.891947 73 58 52
-0.077569835 0.2781162 1.891947 70 56 50
-0.07567788 0.2781162 1.891947 66 52 47
-0.07378593 0.2781162 1.891947 67 53 48
-0.07189399 0.2781162 1.891947 67 55 50
-0.070002034 0.2781162 1.891947 67 55 50
-0.06811009 0.2781162 1.891947 67 53 48
-0.06596598 0.27705714 1.8847424 71 59 53
-0.06408124 0.27705714 1.8847424 71 58 53
-0.0621965 0.27705714 1.8847424 68 56 50
-0.060311757 0.27705714 1.8847424 70 58 53
-0.058427013 0.27705714 1.8847424 80 73 72
-0.05632777 0.27600607 1.8775923 84 73 74
-0.054450177 0.27600607 1.8775923 80 67 63
-0.052572586 0.27600607 1.8775923 86 74 71
-0.05046526 0.2747553 1.8690836 74 60 58
-0.048596177 0.2747553 1.8690836 79 67 65
-0.04672709 0.2747553 1.8690836 73 60 58
-0.044689238 0.2737216 1.8620517 80 67 66
-0.04282719 0.2737216 1.8620517 82 71 69
-0.040965136 0.2737216 1.8620517 86 73 71
-0.039103083 0.2737216 1.8620517 114 100 98
-0.037241034 0.2737216 1.8620517 105 92 91
-0.03537898 0.2737216 1.8620517 105 94 93
-0.03351693 0.2737216 1.8620517 106 95 94
-0.03165488 0.2737216 1.8620517 102 91 90
-0.02968116 0.27269566 1.8550725 89 78 76
-0.027930778 0.2737216 1.8620517 96 85 83
-0.026068723 0.2737216 1.8620517 94 85 82
-0.024115942 0.27269566 1.8550725 117 106 102
-0.02226087 0.27269566 1.8550725 107 97 92
-0.020405797 0.27269566 1.8550725 110 99 95
-0.018620517 0.2737216 1.8620517 108 98 94
-0.016758464 0.2737216 1.8620517 104 97 94
-0.014896414 0.2737216 1.8620517 116 109 106
-0.013034361 0.2737216 1.8620517 124 114 112
-0.0111723095 0.2737216 1.8620517 123 116 113
-0.009310259 0.2737216 1.8620517 125 116 113
-0.00742029 0.27269566 1.8550725 114 106 101
-0.0055861548 0.2737216 1.8620517 117 109 104
-0.0037381672 0.2747553 1.8690836 118 109 104
-0.0018690836 0.2747553 1.8690836 121 114 108
0.0 0.2747553 1.8690836 118 109 104
0.0018690836 0.2747553 1.8690836 128 118 113
0.0037551846 0.27600607 1.8775923 128 120 114
0.005632777 0.27600607 1.8775923 137 129 124
0.007510369 0.27600607 1.8775923 137 130 126
0.009387962 0.27600607 1.8775923 148 141 136
0.011308455 0.27705714 1.8847424 153 146 140
0.013193197 0.27705714 1.8847424 145 136 128
0.015135576 0.2781162 1.891947 136 123 113
0.017027523 0.2781162 1.891947 122 109 101
0.01891947 0.2781162 1.891947 118 104 97
0.020811416 0.2781162 1.891947 115 102 95
0.022703364 0.2781162 1.891947 112 96 91
0.024595313 0.2781162 1.891947 112 97 91
0.02648726 0.2781162 1.891947 121 106 100
0.028271135 0.27705714 1.8847424 136 119 111
0.030271152 0.2781162 1.891947 146 129 122
0.03278982 0.28353545 1.9288127 148 131 123
0.035380464 0.28894043 1.9655812 150 133 125
-0.10886859 0.3056695 2.0936267 96 79 68
-0.099533126 0.28493795 1.9516299 83 65 54
-0.09569477 0.27942872 1.9138954 80 64 55
-0.09451182 0.28160664 1.9288127 81 65 58
-0.09186698 0.27942872 1.9138954 77 63 55
-0.089606576 0.27835232 1.9065229 76 61 53
-0.087363526 0.2772842 1.899207 73 57 49
-0.08546431 0.2772842 1.899207 78 62 55
-0.083245665 0.2762243 1.891947 87 73 67
-0.081353724 0.2762243 1.891947 70 56 50
-0.079461776 0.2762243 1.891947 68 55 49
-0.077569835 0.2762243 1.891947 66 52 47
-0.07567788 0.2762243 1.891947 65 53 47
-0.07378593 0.2762243 1.891947 65 55 50
-0.07162021 0.27517238 1.8847424 64 54 49
-0.06973547 0.27517238 1.8847424 66 53 49
-0.067850724 0.27517238 1.8847424 65 55 50
-0.06596598 0.27517238 1.8847424 69 56 51
-0.06408124 0.27517238 1.8847424 67 56 50
-0.0621965 0.27517238 1.8847424 68 57 52
-0.060311757 0.27517238 1.8847424 70 59 54
-0.05820536 0.27412847 1.8775923 86 76 74
-0.05632777 0.27412847 1.8775923 89 78 77
-0.054450177 0.27412847 1.8775923 69 57 54
-0.052334342 0.2728862 1.8690836 70 58 57
-0.05046526 0.2728862 1.8690836 69 57 55
-0.048596177 0.2728862 1.8690836 71 57 55
-0.04655129 0.27185956 1.8620517 69 57 54
-0.044689238 0.27185956 1.8620517 80 67 65
-0.04282719 0.27185956 1.8620517 77 66 63
-0.040965136 0.27185956 1.8620517 78 68 65
-0.039103083 0.27185956 1.8620517 93 81 79
-0.037241034 0.27185956 1.8620517 91 78 76
-0.03537898 0.27185956 1.8620517 96 84 83
-0.03351693 0.27185956 1.8620517 94 84 83
-0.03165488 0.27185956 1.8620517 92 81 79
-0.02968116 0.2708406 1.8550725 89 80 77
-0.027826088 0.2708406 1.8550725 90 80 78
-0.026068723 0.27185956 1.8620517 86 75 72
-0.024115942 0.2708406 1.8550725 100 90 86
-0.02226087 0.2708406 1.8550725 97 87 83
-0.020405797 0.2708406 1.8550725 96 87 81
-0.018481456 0.26982924 1.8481455 92 82 78
-0.016695652 0.2708406 1.8550725 104 95 92
-0.01484058 0.2708406 1.8550725 120 112 108
-0.013034361 0.27185956 1.8620517 124 115 111
-0.0111723095 0.27185956 1.8620517 122 115 109
-0.009310259 0.27185956 1.8620517 128 116 111
-0.00742029 0.2708406 1.8550725 111 101 97
-0.0055652177 0.2708406 1.8550725 122 112 106
-0.0037241036 0.27185956 1.8620517 118 107 103
-0.0018620518 0.27185956 1.8620517 112 105 99
0.0 0.2728862 1.8690836 116 108 102
0.0018690836 0.2728862 1.8690836 123 114 108
0.0037381672 0.2728862 1.8690836 118 114 107
0.005607251 0.2728862 1.8690836 131 124 119
0.007510369 0.27412847 1.8775923 137 131 125
0.009387962 0.27412847 1.8775923 143 136 129
0.011265554 0.27412847 1.8775923 152 147 139
0.013143146 0.27412847 1.8775923 149 143 134
0.015135576 0.2762243 1.891947 144 132 124
0.017027523 0.2762243 1.891947 135 120 114
0.01891947 0.2762243 1.891947 139 122 116
0.020811416 0.2762243 1.891947 125 111 105
0.022703364 0.2762243 1.891947 122 104 99
0.024595313 0.2762243 1.891947 117 102 97
0.02648726 0.2762243 1.891947 130 113 107
0.028379206 0.2762243 1.891947 139 121 114
0.030861003 0.28160664 1.9288127 147 129 122
0.03241089 0.27835232 1.9065229 144 128 120
0.03471863 0.28160664 1.9288127 152 134 126
0.037796356 0.29043514 1.9892819 147 131 123
-0.113164224 0.30960026 2.135174 103 86 75
-0.10261776 0.2861457 1.9734185 82 66 53
-0.09836946 0.27967787 1.9288127 77 61 49
-0.09569477 0.27751485 1.9138954 80 62 53
-0.09306114 0.27538502 1.899207 83 66 58
-0.0915131 0.27644584 1.9065229 79 62 55
-0.089262724 0.27538502 1.899207 74 56 49
-0.08702956 0.2743323 1.891947 79 62 55
-0.08513762 0.2743323 1.891947 81 65 57
-0.083245665 0.2743323 1.891947 71 56 50
-0.081353724 0.2743323 1.891947 65 52 46
-0.079461776 0.2743323 1.891947 65 52 48
-0.077274434 0.27328765 1.8847424 65 53 49
-0.07538969 0.27328765 1.8847424 67 54 49
-0.073504955 0.27328765 1.8847424 67 54 49
-0.07162021 0.27328765 1.8847424 64 50 47
-0.06973547 0.27328765 1.8847424 66 51 49
-0.067850724 0.27328765 1.8847424 67 54 52
-0.06596598 0.27328765 1.8847424 66 54 49
-0.06408124 0.27328765 1.8847424 66 54 49
-0.06196055 0.2722509 1.8775923 67 55 51
-0.060082953 0.2722509 1.8775923 69 57 53
-0.05820536 0.2722509 1.8775923 84 71 66
-0.05632777 0.2722509 1.8775923 79 66 61
-0.054450177 0.2722509 1.8775923 71 59 53
-0.052334342 0.27101713 1.8690836 65 53 50
-0.05046526 0.27101713 1.8690836 69 57 54
-0.048596177 0.27101713 1.8690836 66 54 51
-0.04655129 0.2699975 1.8620517 69 57 55
-0.044689238 0.2699975 1.8620517 74 62 59
-0.04282719 0.2699975 1.8620517 73 61 58
-0.040965136 0.2699975 1.8620517 74 62 59
-0.039103083 0.2699975 1.8620517 77 64 62
-0.037241034 0.2699975 1.8620517 84 71 69
-0.03537898 0.2699975 1.8620517 82 70 68
-0.03351693 0.2699975 1.8620517 85 72 70
-0.03165488 0.2699975 1.8620517 82 69 67
-0.02968116 0.2689855 1.8550725 82 68 66
-0.027826088 0.2689855 1.8550725 83 69 67
-0.025971016 0.2689855 1.8550725 80 68 65
-0.024025891 0.2679811 1.8481455 86 75 71
-0.02226087 0.2689855 1.8550725 87 76 72
-0.020405797 0.2689855 1.8550725 96 85 80
-0.018481456 0.2679811 1.8481455 94 82 78
-0.016633308 0.2679811 1.8481455 99 88 82
-0.014785164 0.2679811 1.8481455 112 100 93
-0.012985508 0.2689855 1.8550725 117 104 97
-0.0111723095 0.2699975 1.8620517 113 103 96
-0.009310259 0.2699975 1.8620517 125 112 107
-0.00742029 0.2689855 1.8550725 92 83 78
-0.0055652177 0.2689855 1.8550725 104 93 94
-0.003710145 0.2689855 1.8550725 105 95 96
-0.0018481455 0.2679811 1.8481455 99 87 84
0.0 0.2699975 1.8620517 98 87 83
0.0018690836 0.27101713 1.8690836 117 106 101
0.0037381672 0.27101713 1.8690836 114 109 102
0.005607251 0.27101713 1.8690836 131 123 115
0.0074763345 0.27101713 1.8690836 137 128 121
0.009387962 0.2722509 1.8775923 143 135 128
0.011265554 0.2722509 1.8775923 144 139 131
0.013143146 0.2722509 1.8775923 146 141 133
0.015135576 0.2743323 1.891947 143 137 132
0.017027523 0.2743323 1.891947 146 140 134
0.01891947 0.2743323 1.891947 150 142 137
0.020811416 0.2743323 1.891947 132 122 117
0.022703364 0.2743323 1.891947 121 108 103
0.024595313 0.2743323 1.891947 115 104 98
0.02648726 0.2743323 1.891947 129 116 109
0.028379206 0.2743323 1.891947 133 122 114
0.030504366 0.27644584 1.9065229 141 127 119
0.032662526 0.27859214 1.9213251 148 132 124
0.03485446 0.28077203 1.9363589 137 121 114
0.037198316 0.28388187 1.957806 151 133 125
0.042193808 0.30590513 2.1096904 143 123 118
-0.1191016 0.31760427 2.2055852 104 89 77
-0.10500988 0.28530988 1.9813185 88 70 57
-0.09952256 0.2756009 1.9138954 79 64 51
-0.09723267 0.2745393 1.9065229 79 62 52
-0.09569477 0.2756009 1.9138954 83 65 56
-0.093780875 0.2756009 1.9138954 81 64 56
-0.09186698 0.2756009 1.9138954 73 57 50
-0.089262724 0.2734858 1.899207 76 60 52
-0.08669815 0.2714029 1.8847424 78 62 54
-0.08481341 0.2714029 1.8847424 79 64 56
-0.082928665 0.2714029 1.8847424 64 51 45
-0.081353724 0.27244037 1.891947 63 51 46
-0.079461776 0.27244037 1.891947 64 53 49
-0.07698128 0.27037328 1.8775923 65 52 50
-0.07510369 0.27037328 1.8775923 66 52 48
-0.073226094 0.27037328 1.8775923 66 53 49
-0.07134851 0.27037328 1.8775923 63 50 46
-0.06947092 0.27037328 1.8775923 65 51 48
-0.067850724 0.2714029 1.8847424 66 53 50
-0.06596598 0.2714029 1.8847424 63 51 47
-0.06383814 0.27037328 1.8775923 63 51 47
-0.06196055 0.27037328 1.8775923 64 51 48
-0.059585657 0.26813543 1.8620517 70 57 53
-0.057723604 0.26813543 1.8620517 78 65 61
-0.055652175 0.26713043 1.8550725 77 64 59
-0.0539995 0.26813543 1.8620517 69 57 50
-0.052137446 0.26813543 1.8620517 63 50 46
-0.050275397 0.26813543 1.8620517 66 54 51
-0.048413344 0.26813543 1.8620517 64 52 49
-0.046376813 0.26713043 1.8550725 68 56 53
-0.04452174 0.26713043 1.8550725 71 59 56
-0.042666666 0.26713043 1.8550725 68 56 52
-0.040811595 0.26713043 1.8550725 73 60 57
-0.038811054 0.26613292 1.8481455 71 58 55
-0.03696291 0.26613292 1.8481455 73 60 57
-0.035114765 0.26613292 1.8481455 76 63 60
-0.033266615 0.26613292 1.8481455 76 62 60
-0.031418473 0.26613292 1.8481455 74 60 58
-0.029570328 0.26613292 1.8481455 74 60 57
-0.027722184 0.26613292 1.8481455 74 60 57
-0.025874037 0.26613292 1.8481455 73 59 56
-0.023936508 0.26514286 1.8412699 72 61 58
-0.022177747 0.26613292 1.8481455 74 64 60
-0.020329602 0.26613292 1.8481455 91 81 77
-0.018412698 0.26514286 1.8412699 91 82 80
-0.016571429 0.26514286 1.8412699 88 80 81
-0.014730159 0.26514286 1.8412699 94 83 84
-0.012937019 0.26613292 1.8481455 108 97 99
-0.011088873 0.26613292 1.8481455 102 95 95
-0.009240728 0.26613292 1.8481455 118 105 100
-0.007392582 0.26613292 1.8481455 82 71 66
-0.0055444366 0.26613292 1.8481455 96 84 83
-0.003696291 0.26613292 1.8481455 96 85 85
-0.0018481455 0.26613292 1.8481455 88 76 72
0.0 0.26613292 1.8481455 83 71 67
0.0018550724 0.26713043 1.8550725 104 93 88
0.003710145 0.26713043 1.8550725 112 100 95
0.0055652177 0.26713043 1.8550725 122 109 104
0.00742029 0.26713043 1.8550725 128 117 111
0.009310259 0.26813543 1.8620517 142 132 125
0.0111723095 0.26813543 1.8620517 143 134 127
0.013034361 0.26813543 1.8620517 134 127 121
0.014952669 0.26914805 1.8690836 144 136 133
0.01689833 0.27037328 1.8775923 163 155 150
0.018775923 0.27037328 1.8775923 167 157 152
0.020653514 0.27037328 1.8775923 143 134 129
0.02261691 0.2714029 1.8847424 127 116 111
0.024595313 0.27244037 1.891947 123 108 104
0.02648726 0.27244037 1.891947 128 115 109
0.028379206 0.27244037 1.891947 130 119 111
0.030622326 0.2756009 1.9138954 140 127 118
0.03253622 0.2756009 1.9138954 153 137 128
0.034450114 0.2756009 1.9138954 144 127 120
0.036647443 0.27774903 1.9288127 135 120 112
0.03931162 0.2830437 1.9655812 151 133 126
0.045228895 0.310141 2.1537569 133 112 110
-0.12732148 0.33103585 2.3149362 106 92 80
-0.107854724 0.2856153 1.9973097 92 76 63
-0.10183023 0.2747495 1.9213251 78 60 47
-0.09913919 0.27263278 1.9065229 79 62 49
-0.09723267 0.27263278 1.9065229 81 64 55
-0.09532614 0.27263278 1.9065229 83 66 58
-0.09306114 0.2715866 1.899207 73 56 49
-0.09046764 0.26951817 1.8847424 71 56 47
-0.088582896 0.26951817 1.8847424 75 59 52
-0.08669815 0.26951817 1.8847424 76 59 51
-0.08481341 0.26951817 1.8847424 70 57 48
-0.082928665 0.26951817 1.8847424 64 52 45
-0.08104392 0.26951817 1.8847424 59 46 41
-0.07885888 0.2684957 1.8775923 65 52 48
-0.07698128 0.2684957 1.8775923 66 52 49
-0.07510369 0.2684957 1.8775923 64 51 46
-0.073226094 0.2684957 1.8775923 63 51 48
-0.07102518 0.26727897 1.8690836 63 52 48
-0.069156095 0.26727897 1.8690836 65 52 49
-0.06759332 0.2684957 1.8775923 66 53 50
-0.06571573 0.2684957 1.8775923 63 50 46
-0.06354884 0.26727897 1.8690836 64 52 48
-0.061679758 0.26727897 1.8690836 63 50 47
-0.05936232 0.26527536 1.8550725 69 57 53
-0.057507247 0.26527536 1.8550725 78 65 61
-0.055652175 0.26527536 1.8550725 73 61 57
-0.0539995 0.2662734 1.8620517 65 53 49
-0.052137446 0.2662734 1.8620517 64 51 48
-0.050086956 0.26527536 1.8550725 67 54 50
-0.048231885 0.26527536 1.8550725 65 53 49
-0.046376813 0.26527536 1.8550725 67 55 51
-0.04452174 0.26527536 1.8550725 68 55 52
-0.042507347 0.2642848 1.8481455 65 53 48
-0.040659204 0.2642848 1.8481455 70 57 53
-0.038811054 0.2642848 1.8481455 68 54 51
-0.03696291 0.2642848 1.8481455 67 53 50
-0.035114765 0.2642848 1.8481455 74 61 58
-0.033266615 0.2642848 1.8481455 71 59 56
-0.031418473 0.2642848 1.8481455 70 58 54
-0.029570328 0.2642848 1.8481455 69 57 53
-0.027722184 0.2642848 1.8481455 69 57 54
-0.025874037 0.2642848 1.8481455 71 56 53
-0.023936508 0.26330158 1.8412699 73 62 58
-0.022177747 0.2642848 1.8481455 74 64 60
-0.020329602 0.2642848 1.8481455 86 75 72
-0.018412698 0.26330158 1.8412699 84 74 71
-0.016571429 0.26330158 1.8412699 82 74 73
-0.014730159 0.26330158 1.8412699 82 72 71
-0.01288889 0.26330158 1.8412699 86 76 75
-0.011088873 0.2642848 1.8481455 93 84 83
-0.009240728 0.2642848 1.8481455 93 82 77
-0.007392582 0.2642848 1.8481455 77 65 61
-0.0055444366 0.2642848 1.8481455 91 81 79
-0.003696291 0.2642848 1.8481455 85 75 75
-0.0018481455 0.2642848 1.8481455 85 75 70
0.0 0.2642848 1.8481455 76 65 60
0.0018481455 0.2642848 1.8481455 95 83 79
0.003710145 0.26527536 1.8550725 111 97 93
0.0055652177 0.26527536 1.8550725 109 96 93
0.00742029 0.26527536 1.8550725 114 101 98
0.009310259 0.2662734 1.8620517 135 123 118
0.0111723095 0.2662734 1.8620517 130 121 115
0.013034361 0.2662734 1.8620517 126 119 114
0.014952669 0.26727897 1.8690836 143 138 133
0.016821753 0.26727897 1.8690836 158 156 149
0.018690836 0.26727897 1.8690836 154 151 145
0.020653514 0.2684957 1.8775923 149 142 136
0.02261691 0.26951817 1.8847424 137 130 122
0.024501652 0.26951817 1.8847424 130 117 111
0.026386393 0.26951817 1.8847424 130 114 109
0.028271135 0.26951817 1.8847424 126 116 108
0.030622326 0.27368703 1.9138954 142 129 120
0.03241089 0.27263278 1.9065229 152 135 126
0.034055047 0.27054843 1.891947 152 136 127
0.036223933 0.27263278 1.9065229 137 121 114
0.038576256 0.27582023 1.9288127 146 130 122
0.041277207 0.2810781 1.9655812 151 133 127
0.049135983 0.3193839 2.2334538 123 104 103
-0.10897252 0.28134722 1.9813185 90 72 59
-0.104563385 0.274963 1.9363589 82 65 51
-0.10104571 0.27072626 1.9065229 79 60 47
-0.09913919 0.27072626 1.9065229 77 59 46
-0.09723267 0.27072626 1.9065229 83 67 57
-0.09532614 0.27072626 1.9065229 76 59 51
-0.092705406 0.26865646 1.891947 71 54 47
-0.09046764 0.2676334 1.8847424 69 53 46
-0.088582896 0.2676334 1.8847424 76 62 54
-0.086369246 0.2666181 1.8775923 73 60 53
-0.084491655 0.2666181 1.8775923 65 52 45
-0.082928665 0.2676334 1.8847424 59 46 41
-0.08073647 0.2666181 1.8775923 66 53 50
-0.07885888 0.2666181 1.8775923 67 53 51
-0.07698128 0.2666181 1.8775923 66 53 51
-0.07476334 0.2654099 1.8690836 62 50 46
-0.07289427 0.2654099 1.8690836 62 50 46
-0.07102518 0.2654099 1.8690836 63 51 48
-0.069156095 0.2654099 1.8690836 64 51 49
-0.06759332 0.2666181 1.8775923 65 53 49
-0.06571573 0.2666181 1.8775923 65 51 48
-0.06354884 0.2654099 1.8690836 65 53 50
-0.061679758 0.2654099 1.8690836 65 52 50
-0.05936232 0.26342028 1.8550725 72 58 56
-0.057507247 0.26342028 1.8550725 75 63 61
-0.055652175 0.26342028 1.8550725 69 57 55
-0.0539995 0.26441136 1.8620517 63 52 48
-0.05194203 0.26342028 1.8550725 64 52 48
-0.050086956 0.26342028 1.8550725 65 54 50
-0.048231885 0.26342028 1.8550725 67 55 51
-0.046376813 0.26342028 1.8550725 66 54 51
-0.044355493 0.26243666 1.8481455 67 54 50
-0.042507347 0.26243666 1.8481455 65 52 48
-0.040659204 0.26243666 1.8481455 69 55 52
-0.038811054 0.26243666 1.8481455 68 54 51
-0.03696291 0.26243666 1.8481455 65 51 47
-0.035114765 0.26243666 1.8481455 72 59 55
-0.033266615 0.26243666 1.8481455 69 58 54
-0.031418473 0.26243666 1.8481455 68 56 52
-0.029570328 0.26243666 1.8481455 67 55 50
-0.027619047 0.26146033 1.8412699 68 56 52
-0.02577778 0.26146033 1.8412699 67 53 50
-0.023936508 0.26146033 1.8412699 71 60 56
-0.022095237 0.26146033 1.8412699 72 61 57
-0.02025397 0.26146033 1.8412699 82 72 68
-0.018412698 0.26146033 1.8412699 79 70 66
-0.016571429 0.26146033 1.8412699 80 71 67
-0.014730159 0.26146033 1.8412699 80 70 67
-0.01288889 0.26146033 1.8412699 82 72 68
-0.011088873 0.26243666 1.8481455 75 65 62
-0.009240728 0.26243666 1.8481455 81 71 67
-0.0073650796 0.26146033 1.8412699 79 70 65
-0.0055444366 0.26243666 1.8481455 81 73 69
-0.003696291 0.26243666 1.8481455 76 68 64
-0.0018481455 0.26243666 1.8481455 85 76 71
0.0 0.26243666 1.8481455 75 65 59
0.0018481455 0.26243666 1.8481455 88 76 72
0.003696291 0.26243666 1.8481455 103 89 85
0.0055444366 0.26243666 1.8481455 98 85 81
0.00742029 0.26342028 1.8550725 105 93 90
0.009275362 0.26342028 1.8550725 106 95 92
0.011130435 0.26342028 1.8550725 107 97 94
0.012985508 0.26342028 1.8550725 125 115 110
0.014896414 0.26441136 1.8620517 137 127 124
0.016758464 0.26441136 1.8620517 155 147 142
0.018690836 0.2654099 1.8690836 144 139 134
0.02055992 0.2654099 1.8690836 152 145 140
0.022429004 0.2654099 1.8690836 143 132 126
0.024408702 0.2666181 1.8775923 130 119 113
0.026286293 0.2666181 1.8775923 124 112 107
0.028163886 0.2666181 1.8775923 122 110 104
0.030271152 0.26865646 1.891947 130 117 110
0.032163102 0.26865646 1.891947 151 136 126
0.034185726 0.2696874 1.899207 150 134 125
0.036084935 0.2696874 1.899207 140 124 117
0.03813046 0.27072626 1.9065229 132 116 110
0.04003698 0.27072626 1.9065229 147 132 123
0.04462514 0.288035 2.0284154 134 116 111
-0.112759426 0.28391215 2.0135612 84 67 54
-0.104858756 0.26881972 1.9065229 84 66 54
-0.102952234 0.26881972 1.9065229 82 64 55
-0.10065798 0.26778817 1.899207 78 61 53
-0.098758765 0.26778817 1.899207 79 63 55
-0.09685956 0.26778817 1.899207 77 61 53
-0.09496035 0.26778817 1.899207 72 57 50
-0.092705406 0.26676452 1.891947 73 57 51
-0.090124436 0.2647405 1.8775923 74 59 53
-0.088246845 0.2647405 1.8775923 69 55 48
-0.086369246 0.2647405 1.8775923 81 70 63
-0.084491655 0.2647405 1.8775923 60 48 41
-0.08261406 0.2647405 1.8775923 64 51 47
-0.08073647 0.2647405 1.8775923 67 55 52
-0.07850151 0.2635408 1.8690836 64 53 50
-0.07663243 0.2635408 1.8690836 64 52 48
-0.07476334 0.2635408 1.8690836 60 49 46
-0.07289427 0.2635408 1.8690836 63 51 49
-0.07075796 0.26254928 1.8620517 65 53 51
-0.069156095 0.2635408 1.8690836 61 51 49
-0.06759332 0.2647405 1.8775923 60 48 46
-0.06571573 0.2647405 1.8775923 66 52 49
-0.06354884 0.2635408 1.8690836 64 52 49
-0.061679758 0.2635408 1.8690836 66 52 51
-0.05936232 0.2615652 1.8550725 77 61 59
-0.057507247 0.2615652 1.8550725 75 62 61
-0.055652175 0.2615652 1.8550725 66 54 53
-0.0539995 0.26254928 1.8620517 66 54 53
-0.05194203 0.2615652 1.8550725 65 53 48
-0.050086956 0.2615652 1.8550725 64 53 47
-0.048231885 0.2615652 1.8550725 66 53 49
-0.046203636 0.2605885 1.8481455 63 51 48
-0.044355493 0.2605885 1.8481455 63 52 47
-0.042507347 0.2605885 1.8481455 63 52 49
-0.040659204 0.2605885 1.8481455 68 55 52
-0.038811054 0.2605885 1.8481455 67 54 52
-0.036825396 0.25961906 1.8412699 68 54 53
-0.034984127 0.25961906 1.8412699 71 57 55
-0.033142857 0.25961906 1.8412699 65 53 53
-0.031301588 0.25961906 1.8412699 67 54 54
-0.029460318 0.25961906 1.8412699 64 51 51
-0.027619047 0.25961906 1.8412699 65 52 52
-0.02577778 0.25961906 1.8412699 66 54 52
-0.023936508 0.25961906 1.8412699 66 55 54
-0.022095237 0.25961906 1.8412699 72 61 59
-0.02025397 0.25961906 1.8412699 76 65 64
-0.018412698 0.25961906 1.8412699 73 64 61
-0.016571429 0.25961906 1.8412699 72 62 58
-0.014730159 0.25961906 1.8412699 75 65 61
-0.01288889 0.25961906 1.8412699 79 71 66
-0.011047618 0.25961906 1.8412699 73 64 60
-0.009206349 0.25961906 1.8412699 74 64 61
-0.0073650796 0.25961906 1.8412699 74 64 61
-0.0055444366 0.2605885 1.8481455 75 65 61
-0.003696291 0.2605885 1.8481455 70 59 56
-0.0018481455 0.2605885 1.8481455 75 66 65
0.0 0.2605885 1.8481455 77 67 66
0.0018481455 0.2605885 1.8481455 82 69 64
0.003696291 0.2605885 1.8481455 91 79 73
0.0055444366 0.2605885 1.8481455 90 76 74
0.007392582 0.2605885 1.8481455 95 83 81
0.009275362 0.2615652 1.8550725 90 77 76
0.011130435 0.2615652 1.8550725 93 80 80
0.012985508 0.2615652 1.8550725 110 99 98
0.01484058 0.2615652 1.8550725 125 114 109
0.016758464 0.26254928 1.8620517 134 125 118
0.018620517 0.26254928 1.8620517 142 133 126
0.020482568 0.26254928 1.8620517 151 143 135
0.022344619 0.26254928 1.8620517 146 133 125
0.024298089 0.2635408 1.8690836 132 117 112
0.026167171 0.2635408 1.8690836 123 107 102
0.028036255 0.2635408 1.8690836 118 106 99
0.029905338 0.2635408 1.8690836 130 115 109
0.03204062 0.26574868 1.8847424 144 128 121
0.034055047 0.26676452 1.891947 143 128 121
0.035946995 0.26676452 1.891947 142 127 120
0.03738167 0.2635408 1.8690836 124 109 102
0.039730888 0.26676452 1.891947 130 115 106
0.042105697 0.26985925 1.9138954 137 118 109
0.045938123 0.28162068 1.9973097 131 109 102
-0.12170492 0.2989244 2.135174 89 72 59
-0.10635559 0.265889 1.899207 83 65 52
-0.104858756 0.2669132 1.9065229 81 64 56
-0.10216514 0.26487258 1.891947 80 62 55
-0.10027319 0.26487258 1.891947 81 63 54
-0.098758765 0.265889 1.899207 80 62 51
-0.09612186 0.26386392 1.8847424 70 57 49
-0.094597355 0.26487258 1.891947 70 55 50
-0.092352375 0.26386392 1.8847424 71 57 52
-0.090124436 0.26286292 1.8775923 71 58 51
-0.088246845 0.26286292 1.8775923 67 52 45
-0.086369246 0.26286292 1.8775923 78 64 57
-0.084491655 0.26286292 1.8775923 65 53 45
-0.08223968 0.26167172 1.8690836 69 57 52
-0.0803706 0.26167172 1.8690836 67 54 50
-0.07850151 0.26167172 1.8690836 65 53 50
-0.07663243 0.26167172 1.8690836 60 49 46
-0.07448207 0.26068726 1.8620517 60 49 45
-0.07262002 0.26068726 1.8620517 63 52 49
-0.07075796 0.26068726 1.8620517 63 51 48
-0.06947092 0.26286292 1.8775923 59 49 47
-0.06728701 0.26167172 1.8690836 62 52 49
-0.06541793 0.26167172 1.8690836 66 53 51
-0.06354884 0.26167172 1.8690836 64 51 50
-0.061679758 0.26167172 1.8690836 65 52 50
-0.05936232 0.25971013 1.8550725 74 60 58
-0.057507247 0.25971013 1.8550725 68 57 54
-0.055444367 0.25874037 1.8481455 58 45 43
-0.053797103 0.25971013 1.8550725 71 61 58
-0.05194203 0.25971013 1.8550725 64 50 42
-0.050086956 0.25971013 1.8550725 66 53 47
-0.048051782 0.25874037 1.8481455 65 53 48
-0.046203636 0.25874037 1.8481455 63 52 47
-0.044355493 0.25874037 1.8481455 62 50 46
-0.042507347 0.25874037 1.8481455 62 51 48
-0.04050794 0.25777778 1.8412699 66 54 49
-0.03866667 0.25777778 1.8412699 66 53 51
-0.036825396 0.25777778 1.8412699 66 53 52
-0.034984127 0.25777778 1.8412699 68 55 54
-0.033142857 0.25777778 1.8412699 65 53 53
-0.031301588 0.25777778 1.8412699 64 52 51
-0.029460318 0.25777778 1.8412699 67 54 53
-0.027619047 0.25777778 1.8412699 64 51 51
-0.02577778 0.25777778 1.8412699 64 52 50
-0.023936508 0.25777778 1.8412699 64 52 51
-0.022095237 0.25777778 1.8412699 69 58 56
-0.02025397 0.25777778 1.8412699 72 61 59
-0.018412698 0.25777778 1.8412699 71 61 58
-0.016571429 0.25777778 1.8412699 67 58 54
-0.014730159 0.25777778 1.8412699 67 58 55
-0.01288889 0.25777778 1.8412699 79 69 65
-0.011047618 0.25777778 1.8412699 70 59 56
-0.009206349 0.25777778 1.8412699 71 59 57
-0.0073650796 0.25777778 1.8412699 69 58 56
-0.005523809 0.25777778 1.8412699 72 61 59
-0.0036825398 0.25777778 1.8412699 70 59 56
-0.0018412699 0.25777778 1.8412699 72 62 57
0.0 0.25874037 1.8481455 70 59 55
0.0018481455 0.25874037 1.8481455 81 68 66
0.003696291 0.25874037 1.8481455 87 74 71
0.0055444366 0.25874037 1.8481455 85 72 68
0.007392582 0.25874037 1.8481455 89 77 72
0.009240728 0.25874037 1.8481455 86 72 69
0.011088873 0.25874037 1.8481455 86 71 71
0.012937019 0.25874037 1.8481455 99 86 85
0.01484058 0.25971013 1.8550725 118 106 102
0.016695652 0.25971013 1.8550725 107 98 94
0.018550724 0.25971013 1.8550725 133 124 117
0.020405797 0.25971013 1.8550725 132 125 117
0.02226087 0.25971013 1.8550725 137 125 116
0.024206672 0.26068726 1.8620517 119 105 98
0.026068723 0.26068726 1.8620517 116 102 94
0.027930778 0.26068726 1.8620517 114 102 93
0.029905338 0.26167172 1.8690836 126 114 109
0.03191907 0.26286292 1.8775923 133 120 114
0.03379666 0.26286292 1.8775923 134 121 115
0.035674255 0.26286292 1.8775923 144 130 124
0.03738167 0.26167172 1.8690836 128 111 104
0.03942944 0.26286292 1.8775923 122 106 97
0.041782554 0.265889 1.899207 131 111 102
0.044362694 0.27003378 1.9288127 135 111 103
0.05063257 0.29535666 2.1096904 115 97 92
-0.11203812 0.2732158 1.9655812 82 64 56
-0.10635559 0.26398978 1.899207 82 66 59
-0.10405708 0.26298064 1.891947 83 67 61
-0.101776086 0.2619792 1.8847424 84 64 58
-0.09989135 0.2619792 1.8847424 82 66 56
-0.098006606 0.2619792 1.8847424 69 56 43
-0.09612186 0.2619792 1.8847424 66 53 45
-0.094597355 0.26298064 1.891947 73 58 53
-0.092352375 0.2619792 1.8847424 73 59 53
-0.08971602 0.2598026 1.8690836 65 51 44
-0.087846935 0.2598026 1.8690836 66 52 45
-0.085977845 0.2598026 1.8690836 70 57 50
-0.08410876 0.2598026 1.8690836 70 58 51
-0.08223968 0.2598026 1.8690836 68 56 51
-0.0803706 0.2598026 1.8690836 66 53 50
-0.07820617 0.25882518 1.8620517 62 49 47
-0.076344125 0.25882518 1.8620517 61 48 45
-0.07448207 0.25882518 1.8620517 61 49 47
-0.07262002 0.25882518 1.8620517 65 52 50
-0.07049275 0.25785506 1.8550725 60 48 46
-0.069156095 0.2598026 1.8690836 60 49 47
-0.06728701 0.2598026 1.8690836 63 52 52
-0.06541793 0.2598026 1.8690836 65 52 47
-0.06330976 0.25882518 1.8620517 66 53 49
-0.06144771 0.25882518 1.8620517 65 52 48
-0.059140656 0.2568922 1.8481455 78 66 64
-0.05729251 0.2568922 1.8481455 66 54 52
-0.055444367 0.2568922 1.8481455 57 45 42
-0.053797103 0.25785506 1.8550725 71 59 57
-0.05194203 0.25785506 1.8550725 63 51 45
-0.04989993 0.2568922 1.8481455 63 52 45
-0.048051782 0.2568922 1.8481455 62 51 46
-0.046203636 0.2568922 1.8481455 59 49 44
-0.044355493 0.2568922 1.8481455 60 50 46
-0.042349204 0.2559365 1.8412699 60 50 47
-0.04050794 0.2559365 1.8412699 63 53 49
-0.03866667 0.2559365 1.8412699 65 54 52
-0.036825396 0.2559365 1.8412699 64 52 50
-0.034984127 0.2559365 1.8412699 65 52 51
-0.033142857 0.2559365 1.8412699 64 51 52
-0.031301588 0.2559365 1.8412699 62 51 49
-0.029460318 0.2559365 1.8412699 67 55 54
-0.027619047 0.2559365 1.8412699 62 49 49
-0.02577778 0.2559365 1.8412699 65 52 50
-0.023936508 0.2559365 1.8412699 65 52 49
-0.022095237 0.2559365 1.8412699 67 54 52
-0.02025397 0.2559365 1.8412699 67 56 54
-0.018344454 0.2549879 1.8344454 68 59 55
-0.016510008 0.2549879 1.8344454 67 56 54
-0.014675563 0.2549879 1.8344454 66 56 53
-0.012841118 0.2549879 1.8344454 66 58 54
-0.011047618 0.2559365 1.8412699 74 63 60
-0.009206349 0.2559365 1.8412699 69 58 57
-0.0073377816 0.2549879 1.8344454 66 55 55
-0.005503336 0.2549879 1.8344454 68 58 56
-0.0036688908 0.2549879 1.8344454 68 58 56
-0.0018344454 0.2549879 1.8344454 69 57 54
0.0 0.2559365 1.8412699 66 54 51
0.0018481455 0.2568922 1.8481455 76 61 58
0.003696291 0.2568922 1.8481455 82 69 64
0.0055444366 0.2568922 1.8481455 84 71 67
0.0073650796 0.2559365 1.8412699 81 68 65
0.009206349 0.2559365 1.8412699 82 69 67
0.011047618 0.2559365 1.8412699 84 69 69
0.01288889 0.2559365 1.8412699 92 77 76
0.01484058 0.25785506 1.8550725 99 86 82
0.016695652 0.25785506 1.8550725 99 87 83
0.018550724 0.25785506 1.8550725 121 109 104
0.020405797 0.25785506 1.8550725 123 112 106
0.02226087 0.25785506 1.8550725 126 112 104
0.024206672 0.25882518 1.8620517 117 102 95
0.026068723 0.25882518 1.8620517 112 99 91
0.027930778 0.25882518 1.8620517 116 103 94
0.029905338 0.2598026 1.8690836 126 116 111
0.03177442 0.2598026 1.8690836 125 114 110
0.03379666 0.2609853 1.8775923 131 118 113
0.035674255 0.2609853 1.8775923 140 128 121
0.03738167 0.2598026 1.8690836 135 116 109
0.039250754 0.2598026 1.8690836 108 93 84
0.04130703 0.2609853 1.8775923 113 96 89
0.043681763 0.26398978 1.899207 130 108 99
0.0461118 0.26706418 1.9213251 125 104 99
-0.123414166 0.2936406 2.1278305 89 71 62
-0.10951553 0.26514286 1.9213251 84 67 59
-0.10427489 0.25696313 1.8620517 83 66 60
-0.1027996 0.25793353 1.8690836 81 64 58
-0.10093052 0.25793353 1.8690836 82 65 56
-0.09951239 0.25910774 1.8775923 73 60 47
-0.09838125 0.26108867 1.891947 69 57 45
-0.09612186 0.26009446 1.8847424 72 60 50
-0.09387962 0.25910774 1.8775923 74 59 52
-0.0915851 0.25793353 1.8690836 69 55 47
-0.089378476 0.25696313 1.8620517 71 58 51
-0.087516434 0.25696313 1.8620517 58 47 39
-0.08565438 0.25696313 1.8620517 75 63 56
-0.08379233 0.25696313 1.8620517 69 56 49
-0.08193027 0.25696313 1.8620517 67 54 49
-0.08006822 0.25696313 1.8620517 67 55 52
-0.07820617 0.25696313 1.8620517 62 49 49
-0.076344125 0.25696313 1.8620517 58 47 47
-0.074202895 0.256 1.8550725 62 51 51
-0.07234783 0.256 1.8550725 62 51 51
-0.07075796 0.25696313 1.8620517 59 46 46
-0.069156095 0.25793353 1.8690836 61 50 48
-0.06728701 0.25793353 1.8690836 63 53 53
-0.06541793 0.25793353 1.8690836 63 51 46
-0.06330976 0.25696313 1.8620517 66 53 49
-0.06144771 0.25696313 1.8620517 64 51 47
-0.059140656 0.25504407 1.8481455 65 53 51
-0.05729251 0.25504407 1.8481455 64 52 48
-0.055444367 0.25504407 1.8481455 60 47 43
-0.053797103 0.256 1.8550725 66 54 50
-0.051748075 0.25504407 1.8481455 66 53 48
-0.04989993 0.25504407 1.8481455 63 52 46
-0.048051782 0.25504407 1.8481455 60 49 43
-0.046203636 0.25504407 1.8481455 58 49 45
-0.044190474 0.25409526 1.8412699 57 49 45
-0.042349204 0.25409526 1.8412699 58 49 46
-0.04050794 0.25409526 1.8412699 65 53 50
-0.03866667 0.25409526 1.8412699 63 52 49
-0.036825396 0.25409526 1.8412699 65 53 51
-0.034984127 0.25409526 1.8412699 64 53 51
-0.033020016 0.25315344 1.8344454 63 50 50
-0.031185571 0.25315344 1.8344454 65 53 51
-0.029460318 0.25409526 1.8412699 65 52 51
-0.027619047 0.25409526 1.8412699 62 49 50
-0.02577778 0.25409526 1.8412699 61 50 48
-0.02384779 0.25315344 1.8344454 64 51 49
-0.022095237 0.25409526 1.8412699 64 52 50
-0.0201789 0.25315344 1.8344454 66 54 51
-0.018344454 0.25315344 1.8344454 66 54 52
-0.016510008 0.25315344 1.8344454 63 53 50
-0.014675563 0.25315344 1.8344454 64 53 50
-0.012841118 0.25315344 1.8344454 62 54 49
-0.011006672 0.25315344 1.8344454 70 61 58
-0.009172227 0.25315344 1.8344454 67 58 54
-0.0073377816 0.25315344 1.8344454 65 55 52
-0.005503336 0.25315344 1.8344454 68 57 55
-0.0036688908 0.25315344 1.8344454 67 58 56
-0.0018276712 0.25221863 1.8276712 65 54 52
0.0 0.25315344 1.8344454 62 51 50
0.0018412699 0.25409526 1.8412699 72 57 52
0.0036825398 0.25409526 1.8412699 77 64 59
0.005523809 0.25409526 1.8412699 80 67 65
0.0073650796 0.25409526 1.8412699 79 68 66
0.009206349 0.25409526 1.8412699 79 69 67
0.011047618 0.25409526 1.8412699 81 69 67
0.01288889 0.25409526 1.8412699 85 69 67
0.014730159 0.25409526 1.8412699 89 74 69
0.016695652 0.256 1.8550725 101 86 82
0.018550724 0.256 1.8550725 111 97 93
0.020405797 0.256 1.8550725 111 98 93
0.02226087 0.256 1.8550725 107 92 85
0.024115942 0.256 1.8550725 112 95 88
0.026068723 0.25696313 1.8620517 109 93 84
0.027930778 0.25696313 1.8620517 116 103 92
0.029905338 0.25793353 1.8690836 118 109 104
0.03177442 0.25793353 1.8690836 119 108 103
0.033643506 0.25793353 1.8690836 129 115 109
0.03551259 0.25793353 1.8690836 132 118 114
0.03738167 0.25793353 1.8690836 139 118 111
0.039250754 0.25793353 1.8690836 107 90 81
0.04111984 0.25793353 1.8690836 106 89 81
0.043349076 0.26009446 1.8847424 126 105 96
0.045062218 0.25910774 1.8775923 133 109 103
0.053843923 0.29721844 2.1537569 109 91 91
-0.13607208 0.31596395 2.3063064 95 76 70
-0.11445828 0.27035832 1.9734185 85 64 57
-0.10702277 0.25723016 1.8775923 85 66 59
-0.10388406 0.25414494 1.8550725 81 64 57
-0.10241284 0.25510108 1.8620517 80 64 57
-0.10093052 0.25606444 1.8690836 77 61 53
-0.09951239 0.25723016 1.8775923 70 56 44
-0.098006606 0.2582097 1.8847424 72 60 51
-0.09612186 0.2582097 1.8847424 75 59 53
-0.09387962 0.25723016 1.8775923 76 61 55
-0.0915851 0.25606444 1.8690836 71 57 52
-0.089378476 0.25510108 1.8620517 61 49 44
-0.087516434 0.25510108 1.8620517 66 55 51
-0.08565438 0.25510108 1.8620517 78 67 63
-0.083478265 0.25414494 1.8550725 69 59 54
-0.08193027 0.25510108 1.8620517 65 53 49
-0.08006822 0.25510108 1.8620517 67 55 52
-0.077913046 0.25414494 1.8550725 62 50 48
-0.07605798 0.25414494 1.8550725 59 48 46
-0.07448207 0.25510108 1.8620517 65 54 51
-0.07262002 0.25510108 1.8620517 61 48 44
-0.07102518 0.25606444 1.8690836 60 48 45
-0.069156095 0.25606444 1.8690836 63 52 49
-0.06703386 0.25510108 1.8620517 64 52 50
-0.065171815 0.25510108 1.8620517 64 51 47
-0.06330976 0.25510108 1.8620517 64 52 49
-0.06144771 0.25510108 1.8620517 62 48 45
-0.059140656 0.25319594 1.8481455 66 53 51
-0.05729251 0.25319594 1.8481455 66 52 49
-0.055444367 0.25319594 1.8481455 63 50 45
-0.053797103 0.25414494 1.8550725 66 54 48
-0.051748075 0.25319594 1.8481455 63 53 47
-0.04989993 0.25319594 1.8481455 61 51 46
-0.048051782 0.25319594 1.8481455 58 48 43
-0.046031747 0.25225398 1.8412699 59 48 45
-0.044190474 0.25225398 1.8412699 58 48 45
-0.042349204 0.25225398 1.8412699 60 50 46
-0.04050794 0.25225398 1.8412699 63 51 49
-0.03866667 0.25225398 1.8412699 64 52 50
-0.036825396 0.25225398 1.8412699 64 52 50
-0.03485446 0.25131902 1.8344454 63 52 50
-0.033020016 0.25131902 1.8344454 61 51 49
-0.031185571 0.25131902 1.8344454 63 52 50
-0.029460318 0.25225398 1.8412699 60 48 46
-0.027619047 0.25225398 1.8412699 61 50 49
-0.02577778 0.25225398 1.8412699 60 48 45
-0.02384779 0.25131902 1.8344454 62 49 48
-0.022013344 0.25131902 1.8344454 64 51 50
-0.0201789 0.25131902 1.8344454 64 53 51
-0.018344454 0.25131902 1.8344454 65 54 52
-0.016510008 0.25131902 1.8344454 62 51 50
-0.014675563 0.25131902 1.8344454 61 50 49
-0.012841118 0.25131902 1.8344454 61 52 52
-0.011006672 0.25131902 1.8344454 65 55 52
-0.009172227 0.25131902 1.8344454 68 58 56
-0.0073377816 0.25131902 1.8344454 65 54 53
-0.005503336 0.25131902 1.8344454 67 55 55
-0.0036553424 0.25039095 1.8276712 66 55 55
-0.0018276712 0.25039095 1.8276712 65 57 54
0.0 0.25131902 1.8344454 62 53 49
0.0018344454 0.25131902 1.8344454 70 59 54
0.0036688908 0.25131902 1.8344454 76 65 58
0.005503336 0.25131902 1.8344454 77 66 63
0.0073377816 0.25131902 1.8344454 79 69 68
0.009206349 0.25225398 1.8412699 79 69 67
0.011047618 0.25225398 1.8412699 78 67 65
0.01288889 0.25225398 1.8412699 78 67 64
0.014730159 0.25225398 1.8412699 89 76 70
0.016571429 0.25225398 1.8412699 94 79 73
0.018481456 0.25319594 1.8481455 99 84 78
0.020329602 0.25319594 1.8481455 97 80 73
0.022177747 0.25319594 1.8481455 104 86 79
0.024025891 0.25319594 1.8481455 109 90 83
0.025971016 0.25414494 1.8550725 104 88 79
0.027826088 0.25414494 1.8550725 120 104 94
0.029905338 0.25606444 1.8690836 108 96 90
0.03177442 0.25606444 1.8690836 110 96 91
0.033643506 0.25606444 1.8690836 120 105 100
0.03551259 0.25606444 1.8690836 123 109 103
0.03738167 0.25606444 1.8690836 131 111 105
0.039250754 0.25606444 1.8690836 104 86 80
0.04111984 0.25606444 1.8690836 104 84 78
0.042988922 0.25606444 1.8690836 121 98 93
0.04485801 0.25606444 1.8690836 128 105 98
0.048945148 0.2682194 1.957806 124 101 97
-0.12352398 0.28473324 2.0936267 86 66 61
-0.111005925 0.26028976 1.9138954 88 67 62
-0.10613695 0.25323904 1.8620517 87 67 61
-0.10388406 0.25228986 1.8550725 79 61 55
-0.10241284 0.25323904 1.8620517 74 59 53
-0.10055079 0.25323904 1.8620517 71 58 52
-0.09906143 0.25419536 1.8690836 69 56 44
-0.097192355 0.25419536 1.8690836 73 60 53
-0.095323265 0.25419536 1.8690836 79 64 58
-0.09345418 0.25419536 1.8690836 73 58 54
-0.0915851 0.25419536 1.8690836 72 58 54
-0.08971602 0.25419536 1.8690836 58 45 42
-0.087846935 0.25419536 1.8690836 74 62 61
-0.08565438 0.25323904 1.8620517 75 64 62
-0.08410876 0.25419536 1.8690836 72 60 56
-0.08193027 0.25323904 1.8620517 64 53 49
-0.08006822 0.25323904 1.8620517 71 59 57
-0.07820617 0.25323904 1.8620517 65 53 51
-0.076344125 0.25323904 1.8620517 63 52 49
-0.07448207 0.25323904 1.8620517 64 53 49
-0.07289427 0.25419536 1.8690836 57 45 40
-0.07075796 0.25323904 1.8620517 63 51 48
-0.06889591 0.25323904 1.8620517 63 51 48
-0.06703386 0.25323904 1.8620517 63 52 49
-0.065171815 0.25323904 1.8620517 64 51 47
-0.06330976 0.25323904 1.8620517 64 51 49
-0.061217394 0.25228986 1.8550725 62 49 47
-0.059140656 0.25134778 1.8481455 71 58 56
-0.05729251 0.25134778 1.8481455 65 51 48
-0.055238094 0.2504127 1.8412699 63 50 45
-0.053596217 0.25134778 1.8481455 66 54 48
-0.051748075 0.25134778 1.8481455 61 52 45
-0.04989993 0.25134778 1.8481455 59 49 43
-0.047873016 0.2504127 1.8412699 60 50 46
-0.046031747 0.2504127 1.8412699 57 48 44
-0.044190474 0.2504127 1.8412699 58 48 44
-0.042349204 0.2504127 1.8412699 61 51 47
-0.0403578 0.24948457 1.8344454 63 51 50
-0.038523354 0.24948457 1.8344454 64 51 49
-0.03668891 0.24948457 1.8344454 64 51 49
-0.03485446 0.24948457 1.8344454 62 51 48
-0.033020016 0.24948457 1.8344454 62 50 48
-0.03107041 0.24856327 1.8276712 62 51 48
-0.029351126 0.24948457 1.8344454 59 47 44
-0.027415067 0.24856327 1.8276712 59 50 47
-0.025587397 0.24856327 1.8276712 61 49 44
-0.02384779 0.24948457 1.8344454 61 50 47
-0.022013344 0.24948457 1.8344454 61 48 47
-0.0201789 0.24948457 1.8344454 63 50 47
-0.018344454 0.24948457 1.8344454 61 50 47
-0.016510008 0.24948457 1.8344454 60 49 49
-0.014675563 0.24948457 1.8344454 62 51 50
-0.012841118 0.24948457 1.8344454 61 52 51
-0.011006672 0.24948457 1.8344454 62 52 48
-0.009172227 0.24948457 1.8344454 65 54 53
-0.007310685 0.24856327 1.8276712 62 52 51
-0.0054830136 0.24856327 1.8276712 65 53 53
-0.0036553424 0.24856327 1.8276712 62 52 51
-0.0018276712 0.24856327 1.8276712 64 54 53
0.0 0.24948457 1.8344454 63 54 52
0.0018344454 0.24948457 1.8344454 66 55 55
0.0036688908 0.24948457 1.8344454 75 65 66
0.005503336 0.24948457 1.8344454 73 62 61
0.0073377816 0.24948457 1.8344454 73 62 61
0.009172227 0.24948457 1.8344454 72 62 61
0.011006672 0.24948457 1.8344454 74 64 63
0.012841118 0.24948457 1.8344454 78 67 65
0.014730159 0.2504127 1.8412699 80 67 63
0.016571429 0.2504127 1.8412699 83 68 63
0.018481456 0.25134778 1.8481455 91 75 68
0.020329602 0.25134778 1.8481455 92 74 67
0.022177747 0.25134778 1.8481455 99 79 72
0.024025891 0.25134778 1.8481455 105 85 78
0.025971016 0.25228986 1.8550725 96 79 70
0.027826088 0.25228986 1.8550725 123 104 94
0.02968116 0.25228986 1.8550725 108 93 84
0.031536233 0.25228986 1.8550725 101 84 77
0.03351693 0.25323904 1.8620517 120 105 99
0.03537898 0.25323904 1.8620517 121 108 101
0.03738167 0.25419536 1.8690836 113 97 92
0.039250754 0.25419536 1.8690836 105 87 83
0.04111984 0.25419536 1.8690836 95 73 70
0.042988922 0.25419536 1.8690836 116 93 89
0.045062218 0.25535256 1.8775923 122 98 93
0.04711856 0.25632495 1.8847424 123 99 94
0.055755053 0.2916418 2.1444252 115 94 89
-0.13498181 0.3037091 2.249697 87 69 63
-0.11643168 0.2664115 1.9734185 83 64 58
-0.10931505 0.25444022 1.8847424 85 66 60
-0.10613695 0.251377 1.8620517 83 64 57
-0.10388406 0.2504348 1.8550725 79 62 55
-0.10241284 0.251377 1.8620517 75 60 54
-0.10055079 0.251377 1.8620517 68 54 48
-0.09906143 0.25232628 1.8690836 72 58 48
-0.097192355 0.25232628 1.8690836 74 61 56
-0.095323265 0.25232628 1.8690836 75 62 57
-0.09345418 0.25232628 1.8690836 76 63 60
-0.0915851 0.25232628 1.8690836 59 44 42
-0.08971602 0.25232628 1.8690836 66 53 51
-0.087846935 0.25232628 1.8690836 74 62 61
-0.08565438 0.251377 1.8620517 72 60 58
-0.08379233 0.251377 1.8620517 70 58 53
-0.08193027 0.251377 1.8620517 70 58 55
-0.08006822 0.251377 1.8620517 67 56 55
-0.07820617 0.251377 1.8620517 68 56 54
-0.07663243 0.25232628 1.8690836 65 54 52
-0.07448207 0.251377 1.8620517 56 46 42
-0.07262002 0.251377 1.8620517 62 51 46
-0.07075796 0.251377 1.8620517 64 53 48
-0.06889591 0.251377 1.8620517 65 53 50
-0.06703386 0.251377 1.8620517 64 53 50
-0.06492753 0.2504348 1.8550725 66 53 48
-0.062836945 0.24949963 1.8481455 65 53 47
-0.0609888 0.24949963 1.8481455 62 50 44
-0.058920637 0.24857143 1.8412699 70 58 54
-0.057079364 0.24857143 1.8412699 67 53 49
-0.055238094 0.24857143 1.8412699 63 52 46
-0.053596217 0.24949963 1.8481455 67 55 49
-0.05155556 0.24857143 1.8412699 67 55 50
-0.049714286 0.24857143 1.8412699 57 46 42
-0.047873016 0.24857143 1.8412699 58 47 44
-0.046031747 0.24857143 1.8412699 59 49 45
-0.044026688 0.24765012 1.8344454 60 49 45
-0.042192243 0.24765012 1.8344454 64 53 50
-0.0403578 0.24765012 1.8344454 64 52 49
-0.038523354 0.24765012 1.8344454 64 52 49
-0.036553424 0.24673562 1.8276712 62 51 48
-0.034725755 0.24673562 1.8276712 62 51 49
-0.032898083 0.24673562 1.8276712 60 49 46
-0.03107041 0.24673562 1.8276712 60 49 43
-0.02924274 0.24673562 1.8276712 59 48 43
-0.027415067 0.24673562 1.8276712 59 51 46
-0.025587397 0.24673562 1.8276712 60 49 45
-0.023759726 0.24673562 1.8276712 60 49 46
-0.022013344 0.24765012 1.8344454 60 48 46
-0.0201789 0.24765012 1.8344454 62 49 46
-0.018344454 0.24765012 1.8344454 60 49 46
-0.016510008 0.24765012 1.8344454 60 49 49
-0.01462137 0.24673562 1.8276712 61 51 50
-0.012841118 0.24765012 1.8344454 60 52 52
-0.011006672 0.24765012 1.8344454 61 54 49
-0.009172227 0.24765012 1.8344454 63 54 52
-0.007310685 0.24673562 1.8276712 61 51 50
-0.0054830136 0.24673562 1.8276712 64 53 53
-0.0036553424 0.24673562 1.8276712 62 51 51
-0.0018276712 0.24673562 1.8276712 61 48 48
0.0 0.24765012 1.8344454 65 53 52
0.0018344454 0.24765012 1.8344454 65 51 52
0.0036688908 0.24765012 1.8344454 73 62 62
0.005503336 0.24765012 1.8344454 70 58 58
0.0073377816 0.24765012 1.8344454 68 57 56
0.009172227 0.24765012 1.8344454 68 57 56
0.011006672 0.24765012 1.8344454 74 62 61
0.012841118 0.24765012 1.8344454 79 67 65
0.014675563 0.24765012 1.8344454 78 65 61
0.016571429 0.24857143 1.8412699 80 65 61
0.018344454 0.24765012 1.8344454 82 64 58
0.02025397 0.24857143 1.8412699 94 75 68
0.022095237 0.24857143 1.8412699 98 77 71
0.023936508 0.24857143 1.8412699 97 75 68
0.02577778 0.24857143 1.8412699 103 84 75
0.027722184 0.24949963 1.8481455 117 98 89
0.02968116 0.2504348 1.8550725 106 89 80
