ply
format ascii 1.0
element vertex 1074
property float32 x
property float32 y
property float32 z
property uchar red
property uchar green
property uchar blue
element face 0
property list uint8 int32 vertex_indices
end_header
-0.28811553 -0.19431047 2.2334538 149 121 89
-0.2858821 -0.19431047 2.2334538 148 118 86
-0.2836486 -0.19431047 2.2334538 141 112 81
-0.28141516 -0.19431047 2.2334538 143 114 83
-0.27918172 -0.19431047 2.2334538 137 109 84
-0.27694827 -0.19431047 2.2334538 143 113 86
-0.27471483 -0.19431047 2.2334538 146 116 90
-0.27346858 -0.19501449 2.241546 146 121 97
-0.27122706 -0.19501449 2.241546 182 158 133
-0.2689855 -0.19501449 2.241546 192 174 153
-0.26674396 -0.19501449 2.241546 199 176 159
-0.2645024 -0.19501449 2.241546 205 184 163
-0.26226085 -0.19501449 2.241546 211 190 166
-0.26001933 -0.19501449 2.241546 211 192 167
-0.25777778 -0.19501449 2.241546 207 193 167
-0.25553623 -0.19501449 2.241546 209 189 163
-0.2532947 -0.19501449 2.241546 204 186 161
-0.2531166 -0.19661736 2.2599697 213 189 169
-0.24971637 -0.19572364 2.249697 216 194 174
-0.24746665 -0.19572364 2.249697 215 193 174
-0.24521697 -0.19572364 2.249697 219 197 179
-0.24296726 -0.19572364 2.249697 217 196 174
-0.23984541 -0.19501449 2.241546 218 197 175
-0.23846789 -0.19572364 2.249697 220 197 178
-0.23621818 -0.19572364 2.249697 218 197 173
-0.2339685 -0.19572364 2.249697 223 201 175
-0.23171878 -0.19572364 2.249697 217 198 177
-0.22863768 -0.19501449 2.241546 214 194 172
-0.22721939 -0.19572364 2.249697 217 197 176
-0.2249697 -0.19572364 2.249697 222 204 183
-0.22191304 -0.19501449 2.241546 216 197 181
-0.21967149 -0.19501449 2.241546 213 196 178
-0.21664502 -0.19431047 2.2334538 216 195 176
-0.21518841 -0.19501449 2.241546 221 199 175
-0.21294686 -0.19501449 2.241546 217 197 171
-0.20994465 -0.19431047 2.2334538 220 199 171
-0.20771119 -0.19431047 2.2334538 222 198 172
-0.20455466 -0.19343755 2.2234201 222 199 171
-0.20233124 -0.19343755 2.2234201 218 197 171
-0.19939123 -0.19274485 2.2154582 214 194 171
-0.19717579 -0.19274485 2.2154582 213 195 169
-0.19496031 -0.19274485 2.2154582 217 197 171
-0.1918859 -0.1918859 2.2055852 217 198 173
-0.18883881 -0.1910346 2.1958 216 196 172
-0.18747474 -0.1918859 2.2055852 217 199 174
-0.1844472 -0.1910346 2.1958 214 195 169
-0.18225141 -0.1910346 2.1958 212 193 166
-0.1794188 -0.19035898 2.1880343 217 196 173
-0.17723078 -0.19035898 2.1880343 224 201 178
-0.17366083 -0.18885615 2.1707604 219 198 174
-0.17074122 -0.18803146 2.161281 221 200 175
-0.16726516 -0.18656498 2.1444252 219 201 176
-0.16189408 -0.1829193 2.1025207 220 201 173
-0.14378798 -0.16459939 1.891947 152 125 112
-0.13449275 -0.1560116 1.7932367 154 139 124
-0.13212506 -0.15533623 1.7854738 144 143 129
-0.13033958 -0.15533623 1.7854738 137 137 125
-0.1285541 -0.15533623 1.7854738 133 135 123
-0.12631297 -0.15477787 1.779056 134 136 122
-0.12453392 -0.15477787 1.779056 134 137 122
-0.12275486 -0.15477787 1.779056 130 136 119
-0.120542504 -0.1542235 1.7726839 128 134 118
-0.118769825 -0.1542235 1.7726839 124 127 112
-0.11657959 -0.1536731 1.7663574 120 124 110
-0.11481323 -0.1536731 1.7663574 117 120 106
-0.11304688 -0.1536731 1.7663574 113 115 103
-0.111280516 -0.1536731 1.7663574 115 118 106
-0.10951416 -0.1536731 1.7663574 115 120 107
-0.1077478 -0.1536731 1.7663574 116 122 111
-0.10598145 -0.1536731 1.7663574 119 126 115
-0.104215086 -0.1536731 1.7663574 117 125 111
-0.10244873 -0.1536731 1.7663574 122 127 112
-0.10025302 -0.15301777 1.758825 120 125 116
-0.098494194 -0.15301777 1.758825 120 124 115
-0.09673537 -0.15301777 1.758825 121 124 115
-0.094976544 -0.15301777 1.758825 126 129 118
-0.09321772 -0.15301777 1.758825 126 130 120
-0.0914589 -0.15301777 1.758825 130 132 121
-0.08970007 -0.15301777 1.758825 131 134 123
-0.087941244 -0.15301777 1.758825 133 139 126
-0.086182415 -0.15301777 1.758825 140 147 133
-0.084785156 -0.1536731 1.7663574 149 153 142
-0.0830188 -0.1536731 1.7663574 151 155 146
-0.08125244 -0.1536731 1.7663574 152 155 146
-0.07948609 -0.1536731 1.7663574 150 154 145
-0.077719726 -0.1536731 1.7663574 152 154 145
-0.07595337 -0.1536731 1.7663574 145 145 138
-0.07418701 -0.1536731 1.7663574 139 137 129
-0.07242066 -0.1536731 1.7663574 135 133 126
-0.071418956 -0.15533623 1.7854738 138 133 124
-0.070704766 -0.15772602 1.8129426 125 110 103
-0.07189399 -0.16459939 1.891947 96 65 61
-0.07243882 -0.17032912 1.957806 89 49 47
-0.07104307 -0.17168741 1.9734185 84 46 43
-0.06906965 -0.17168741 1.9734185 75 40 34
-0.067096226 -0.17168741 1.9734185 74 40 35
-0.06512281 -0.17168741 1.9734185 71 39 37
-0.06314939 -0.17168741 1.9734185 69 39 38
-0.061420873 -0.17237471 1.9813185 64 35 33
-0.05943955 -0.17237471 1.9813185 65 34 34
-0.057458237 -0.17237471 1.9813185 66 37 36
-0.05547692 -0.17237471 1.9813185 57 32 29
-0.053495597 -0.17237471 1.9813185 48 28 23
-0.051514283 -0.17237471 1.9813185 48 27 25
-0.049732048 -0.17306753 1.9892819 56 32 32
-0.04774277 -0.17306753 1.9892819 60 34 33
-0.045938123 -0.17376594 1.9973097 53 27 27
-0.043940812 -0.17376594 1.9973097 54 29 28
-0.041943505 -0.17376594 1.9973097 60 34 34
-0.039946195 -0.17376594 1.9973097 56 32 27
-0.037948884 -0.17376594 1.9973097 49 26 20
-0.035951577 -0.17376594 1.9973097 59 29 26
-0.033954266 -0.17376594 1.9973097 58 31 28
-0.03208644 -0.17447002 2.0054026 56 29 28
-0.03008104 -0.17447002 2.0054026 52 23 24
-0.028075635 -0.17447002 2.0054026 57 26 26
-0.026070232 -0.17447002 2.0054026 60 30 28
-0.024064831 -0.17447002 2.0054026 58 32 27
-0.02205943 -0.17447002 2.0054026 57 29 25
-0.020054026 -0.17447002 2.0054026 64 33 29
-0.018048622 -0.17447002 2.0054026 62 33 28
-0.01604322 -0.17447002 2.0054026 61 33 29
-0.013981168 -0.17376594 1.9973097 63 34 32
-0.011983858 -0.17376594 1.9973097 68 36 35
-0.009986549 -0.17376594 1.9973097 67 35 34
-0.007989239 -0.17376594 1.9973097 72 37 36
-0.006016208 -0.17447002 2.0054026 74 38 35
-0.004010805 -0.17447002 2.0054026 79 42 40
-0.0019973097 -0.17376594 1.9973097 82 43 42
0.0 -0.17376594 1.9973097 80 44 40
0.0020054025 -0.17447002 2.0054026 76 35 35
0.0039946195 -0.17376594 1.9973097 73 34 34
0.005991929 -0.17376594 1.9973097 74 36 35
0.007989239 -0.17376594 1.9973097 73 36 34
0.009986549 -0.17376594 1.9973097 69 34 32
0.011983858 -0.17376594 1.9973097 64 29 27
0.013924973 -0.17306753 1.9892819 70 35 32
0.015914256 -0.17306753 1.9892819 70 35 32
0.017975789 -0.17376594 1.9973097 63 31 28
0.01989282 -0.17306753 1.9892819 57 27 25
0.021882102 -0.17306753 1.9892819 68 37 36
0.023871385 -0.17306753 1.9892819 74 37 35
0.025757141 -0.17237471 1.9813185 73 36 34
0.02773846 -0.17237471 1.9813185 75 39 38
0.029719776 -0.17237471 1.9813185 75 39 37
0.031574696 -0.17168741 1.9734185 77 41 37
0.033548113 -0.17168741 1.9734185 78 44 35
0.035521533 -0.17168741 1.9734185 79 42 35
0.03749495 -0.17168741 1.9734185 83 47 43
0.03931162 -0.17100558 1.9655812 87 48 41
0.041277207 -0.17100558 1.9655812 88 46 39
0.043242786 -0.17100558 1.9655812 96 52 44
0.045029536 -0.17032912 1.957806 101 51 43
0.046987344 -0.17032912 1.957806 105 54 45
0.048945148 -0.17032912 1.957806 104 55 48
0.050902955 -0.17032912 1.957806 104 53 47
0.052860763 -0.17032912 1.957806 102 50 44
0.05481857 -0.17032912 1.957806 105 55 49
0.056597266 -0.16979179 1.9516299 105 59 54
0.058548898 -0.16979179 1.9516299 117 65 61
0.060500525 -0.16979179 1.9516299 117 61 56
0.062649794 -0.17032912 1.957806 123 65 60
0.06440379 -0.16979179 1.9516299 125 66 57
0.066355415 -0.16979179 1.9516299 128 69 61
0.06830704 -0.16979179 1.9516299 128 70 61
0.07025868 -0.16979179 1.9516299 131 73 62
0.07192669 -0.1691249 1.9439645 134 75 63
0.07387065 -0.1691249 1.9439645 123 67 52
0.07581461 -0.1691249 1.9439645 137 77 64
0.07775857 -0.1691249 1.9439645 131 73 60
0.07970255 -0.1691249 1.9439645 131 71 59
0.08164651 -0.1691249 1.9439645 125 67 55
0.083920084 -0.16979179 1.9516299 133 71 60
0.08587171 -0.16979179 1.9516299 145 78 68
0.08782334 -0.16979179 1.9516299 160 89 79
0.08977497 -0.16979179 1.9516299 174 107 90
0.0917266 -0.16979179 1.9516299 213 160 125
0.093678236 -0.16979179 1.9516299 223 200 172
0.09631348 -0.17100558 1.9655812 223 199 171
0.0975815 -0.16979179 1.9516299 222 198 173
0.09685956 -0.165231 1.899207 217 196 173
0.09646377 -0.16139132 1.8550725 127 126 115
0.09686657 -0.15900739 1.8276712 112 119 110
0.09833113 -0.15842238 1.8209468 112 119 112
0.100152075 -0.15842238 1.8209468 115 122 115
0.101524785 -0.15772602 1.8129426 118 126 118
0.10333773 -0.15772602 1.8129426 119 127 120
0.10515067 -0.15772602 1.8129426 133 142 133
0.10696361 -0.15772602 1.8129426 117 123 116
0.10837957 -0.15715037 1.8063262 114 122 115
0.1101859 -0.15715037 1.8063262 118 126 118
0.11199222 -0.15715037 1.8063262 116 123 116
0.11338473 -0.15657891 1.7997576 117 123 115
0.115184486 -0.15657891 1.7997576 118 126 116
0.116560385 -0.1560116 1.7932367 119 125 115
0.11835362 -0.1560116 1.7932367 117 123 114
0.12058376 -0.15657891 1.7997576 113 120 113
0.12194009 -0.1560116 1.7932367 115 120 114
0.123733334 -0.1560116 1.7932367 113 117 111
0.12552658 -0.1560116 1.7932367 112 116 109
0.12778279 -0.15657891 1.7997576 115 118 111
0.12911303 -0.1560116 1.7932367 111 112 105
0.13090628 -0.1560116 1.7932367 108 109 102
0.13269952 -0.1560116 1.7932367 108 109 101
0.13449275 -0.1560116 1.7932367 112 113 105
0.13628599 -0.1560116 1.7932367 114 114 104
0.13807923 -0.1560116 1.7932367 123 122 113
0.13987246 -0.1560116 1.7932367 112 110 101
0.1416657 -0.1560116 1.7932367 107 105 97
0.14345893 -0.1560116 1.7932367 106 104 96
0.14525218 -0.1560116 1.7932367 116 112 104
0.14758012 -0.15657891 1.7997576 109 106 98
0.14992507 -0.15715037 1.8063262 124 120 111
0.1517314 -0.15715037 1.8063262 110 107 101
0.15478048 -0.15842238 1.8209468 139 135 126
0.15717971 -0.15900739 1.8276712 161 157 142
0.17100558 -0.17100558 1.9655812 187 177 158
0.19496031 -0.19274485 2.2154582 214 193 169
0.2011373 -0.19661736 2.2599697 227 200 175
0.20339727 -0.19661736 2.2599697 222 197 171
0.20812817 -0.19897968 2.2871227 222 196 170
0.20964028 -0.19824678 2.2786987 224 197 173
0.21270241 -0.19897968 2.2871227 224 198 174
0.21498953 -0.19897968 2.2871227 225 199 174
0.21727666 -0.19897968 2.2871227 222 199 174
0.21956378 -0.19897968 2.2871227 223 198 174
0.2218509 -0.19897968 2.2871227 224 196 172
0.22413804 -0.19897968 2.2871227 226 198 173
0.22642516 -0.19897968 2.2871227 221 197 172
0.22871228 -0.19897968 2.2871227 217 195 170
0.2309994 -0.19897968 2.2871227 219 195 169
0.23328651 -0.19897968 2.2871227 221 197 172
0.23557363 -0.19897968 2.2871227 223 198 174
0.23786077 -0.19897968 2.2871227 218 194 170
0.24014789 -0.19897968 2.2871227 214 192 169
0.24243501 -0.19897968 2.2871227 216 193 172
0.24585827 -0.19990344 2.2977407 219 196 175
0.248156 -0.19990344 2.2977407 219 196 175
0.25045374 -0.19990344 2.2977407 216 194 175
0.25275147 -0.19990344 2.2977407 215 194 175
0.25504923 -0.19990344 2.2977407 215 193 175
0.25615776 -0.19897968 2.2871227 209 188 173
0.2596447 -0.19990344 2.2977407 206 186 171
0.26194245 -0.19990344 2.2977407 209 188 175
0.26424018 -0.19990344 2.2977407 216 194 179
0.26653793 -0.19990344 2.2977407 217 195 177
0.26759335 -0.19897968 2.2871227 213 192 174
0.2698805 -0.19897968 2.2871227 215 193 179
0.2721676 -0.19897968 2.2871227 210 188 178
0.2744547 -0.19897968 2.2871227 205 184 177
0.27674186 -0.19897968 2.2871227 207 187 173
0.27902895 -0.19897968 2.2871227 212 189 172
0.2813161 -0.19897968 2.2871227 211 190 173
0.28360322 -0.19897968 2.2871227 199 177 164
0.28589034 -0.19897968 2.2871227 209 189 173
0.28817746 -0.19897968 2.2871227 209 189 173
0.29181308 -0.19990344 2.2977407 214 191 174
0.2927517 -0.19897968 2.2871227 213 192 174
0.2939521 -0.19824678 2.2786987 215 193 175
0.29623082 -0.19824678 2.2786987 218 195 178
0.2985095 -0.19824678 2.2786987 218 196 177
0.3019002 -0.19897968 2.2871227 216 196 176
0.30418733 -0.19897968 2.2871227 216 195 177
0.30647445 -0.19897968 2.2871227 218 198 177
0.30876157 -0.19897968 2.2871227 216 195 176
0.31104872 -0.19897968 2.2871227 216 195 175
0.3133358 -0.19897968 2.2871227 211 190 171
0.31562293 -0.19897968 2.2871227 212 189 171
0.31791008 -0.19897968 2.2871227 212 191 171
0.32019717 -0.19897968 2.2871227 216 195 175
0.3224843 -0.19897968 2.2871227 213 190 172
0.32477143 -0.19897968 2.2871227 212 192 172
0.3258539 -0.19824678 2.2786987 215 193 174
-0.32278264 -0.19725604 2.241546 209 184 161
-0.32054108 -0.19725604 2.241546 159 137 113
-0.31829953 -0.19725604 2.241546 150 120 94
-0.31605798 -0.19725604 2.241546 143 113 85
-0.31268352 -0.19654393 2.2334538 126 102 73
-0.31045008 -0.19654393 2.2334538 135 107 80
-0.3082166 -0.19654393 2.2334538 142 112 85
-0.30598316 -0.19654393 2.2334538 143 114 86
-0.30374968 -0.19654393 2.2334538 136 109 82
-0.30151626 -0.19654393 2.2334538 145 116 87
-0.29928282 -0.19654393 2.2334538 146 117 88
-0.29704934 -0.19654393 2.2334538 143 113 85
-0.2948159 -0.19654393 2.2334538 130 105 78
-0.29258242 -0.19654393 2.2334538 146 116 86
-0.290349 -0.19654393 2.2334538 147 117 86
-0.28811553 -0.19654393 2.2334538 142 115 86
-0.28459778 -0.19566098 2.2234201 144 114 85
-0.28237435 -0.19566098 2.2234201 141 111 82
-0.28015095 -0.19566098 2.2234201 141 112 82
-0.27792752 -0.19566098 2.2234201 128 102 76
-0.27570412 -0.19566098 2.2234201 148 116 88
-0.27348068 -0.19566098 2.2234201 149 119 93
-0.27248135 -0.19654393 2.2334538 140 119 99
-0.2702479 -0.19654393 2.2334538 189 168 144
-0.26801446 -0.19654393 2.2334538 193 174 147
-0.26578102 -0.19654393 2.2334538 197 177 153
-0.26354754 -0.19654393 2.2334538 205 188 170
-0.26226085 -0.19725604 2.241546 207 188 169
-0.26001933 -0.19725604 2.241546 211 190 164
-0.25777778 -0.19725604 2.241546 205 186 159
-0.25553623 -0.19725604 2.241546 210 189 158
-0.2532947 -0.19725604 2.241546 207 188 157
-0.25196606 -0.19797333 2.249697 215 192 175
-0.2488116 -0.19725604 2.241546 219 197 178
-0.24657005 -0.19725604 2.241546 217 193 173
-0.24344645 -0.19654393 2.2334538 215 191 172
-0.24208696 -0.19725604 2.241546 216 196 172
-0.23984541 -0.19725604 2.241546 215 199 174
-0.23760387 -0.19725604 2.241546 212 194 173
-0.23451266 -0.19654393 2.2334538 212 193 173
-0.23312077 -0.19725604 2.241546 216 193 174
-0.23087923 -0.19725604 2.241546 218 197 176
-0.22863768 -0.19725604 2.241546 212 193 168
-0.22639613 -0.19725604 2.241546 212 192 168
-0.22415459 -0.19725604 2.241546 220 199 176
-0.22111192 -0.19654393 2.2334538 217 197 177
-0.21887846 -0.19654393 2.2334538 216 195 176
-0.21664502 -0.19654393 2.2334538 215 194 172
-0.21441156 -0.19654393 2.2334538 211 193 169
-0.2121781 -0.19654393 2.2334538 214 193 170
-0.2090015 -0.19566098 2.2234201 215 196 170
-0.20603761 -0.19496031 2.2154582 215 195 170
-0.20382215 -0.19496031 2.2154582 215 196 170
-0.20160669 -0.19496031 2.2154582 212 195 168
-0.19939123 -0.19496031 2.2154582 219 198 171
-0.1962971 -0.19409151 2.2055852 220 199 173
-0.19409151 -0.19409151 2.2055852 222 201 173
-0.1918859 -0.19409151 2.2055852 223 203 173
-0.18883881 -0.1932304 2.1958 218 197 173
-0.18598291 -0.19254701 2.1880343 214 196 172
-0.18379487 -0.19254701 2.1880343 211 193 164
-0.18160684 -0.19254701 2.1880343 212 194 162
-0.17862912 -0.19169953 2.1784039 215 194 172
-0.17583159 -0.19102691 2.1707604 217 196 174
-0.1729025 -0.19019273 2.161281 217 196 173
-0.17074122 -0.19019273 2.161281 220 198 175
-0.1693193 -0.19102691 2.1707604 211 193 170
-0.16512074 -0.18870941 2.1444252 219 198 171
-0.1477413 -0.17106888 1.9439645 149 116 105
-0.1359707 -0.15953895 1.8129426 154 132 120
-0.13269952 -0.15780485 1.7932367 143 142 128
-0.13033958 -0.1571217 1.7854738 139 139 126
-0.12809202 -0.15655693 1.779056 137 137 125
-0.12631297 -0.15655693 1.779056 137 138 125
-0.12453392 -0.15655693 1.779056 135 137 123
-0.12231518 -0.15599619 1.7726839 130 135 120
-0.120542504 -0.15599619 1.7726839 128 133 117
-0.118769825 -0.15599619 1.7726839 121 126 112
-0.11657959 -0.15543945 1.7663574 116 121 108
-0.11481323 -0.15543945 1.7663574 122 125 112
-0.11304688 -0.15543945 1.7663574 117 120 107
-0.111280516 -0.15543945 1.7663574 117 120 106
-0.10951416 -0.15543945 1.7663574 119 123 110
-0.1077478 -0.15543945 1.7663574 118 121 110
-0.10598145 -0.15543945 1.7663574 122 126 113
-0.104215086 -0.15543945 1.7663574 125 129 114
-0.10201185 -0.1547766 1.758825 128 134 117
-0.09989802 -0.15422851 1.7525969 127 132 123
-0.098145425 -0.15422851 1.7525969 129 133 123
-0.09639283 -0.15422851 1.7525969 129 137 123
-0.094640225 -0.15422851 1.7525969 138 143 131
-0.09288763 -0.15422851 1.7525969 138 146 136
-0.09113504 -0.15422851 1.7525969 142 149 138
-0.08938244 -0.15422851 1.7525969 148 155 147
-0.08762985 -0.15422851 1.7525969 155 165 155
-0.08587724 -0.15422851 1.7525969 154 166 154
-0.0844236 -0.1547766 1.758825 164 172 161
-0.08266477 -0.1547766 1.758825 167 175 164
-0.080905944 -0.1547766 1.758825 169 177 165
-0.07948609 -0.15543945 1.7663574 169 177 165
-0.077719726 -0.15543945 1.7663574 173 176 166
-0.07595337 -0.15543945 1.7663574 171 172 162
-0.07445272 -0.15599619 1.7726839 164 164 154
-0.07268004 -0.15599619 1.7726839 152 150 142
-0.07116224 -0.15655693 1.779056 137 134 124
-0.07101692 -0.16024332 1.8209468 125 109 101
-0.07216987 -0.16713022 1.899207 95 61 58
-0.07243882 -0.17228693 1.957806 88 46 45
-0.07076093 -0.17297114 1.9655812 88 47 44
-0.06879534 -0.17297114 1.9655812 86 49 44
-0.067096226 -0.17366083 1.9734185 80 46 41
-0.06512281 -0.17366083 1.9734185 73 39 34
-0.06314939 -0.17366083 1.9734185 73 38 35
-0.061175972 -0.17366083 1.9734185 69 38 35
-0.05943955 -0.17435601 1.9813185 69 37 35
-0.057458237 -0.17435601 1.9813185 68 39 37
-0.05547692 -0.17435601 1.9813185 54 30 25
-0.053495597 -0.17435601 1.9813185 49 29 22
-0.051514283 -0.17435601 1.9813185 47 27 21
-0.04953296 -0.17435601 1.9813185 54 32 29
-0.04774277 -0.17505682 1.9892819 63 38 37
-0.045938123 -0.17576325 1.9973097 57 30 27
-0.043940812 -0.17576325 1.9973097 56 29 27
-0.041943505 -0.17576325 1.9973097 56 31 28
-0.039946195 -0.17576325 1.9973097 53 29 24
-0.037948884 -0.17576325 1.9973097 41 20 11
-0.035951577 -0.17576325 1.9973097 61 32 29
-0.033954266 -0.17576325 1.9973097 67 35 33
-0.03208644 -0.17647544 2.0054026 67 34 36
-0.03008104 -0.17647544 2.0054026 67 35 36
-0.028075635 -0.17647544 2.0054026 66 33 32
-0.026070232 -0.17647544 2.0054026 64 32 29
-0.024064831 -0.17647544 2.0054026 65 33 31
-0.02205943 -0.17647544 2.0054026 64 34 32
-0.020054026 -0.17647544 2.0054026 69 36 33
-0.018048622 -0.17647544 2.0054026 70 37 29
-0.015978478 -0.17576325 1.9973097 70 36 30
-0.013981168 -0.17576325 1.9973097 73 38 35
-0.011983858 -0.17576325 1.9973097 77 40 39
-0.010027013 -0.17647544 2.0054026 79 41 40
-0.00802161 -0.17647544 2.0054026 81 40 37
-0.006016208 -0.17647544 2.0054026 79 39 36
-0.004010805 -0.17647544 2.0054026 85 44 41
-0.0020054025 -0.17647544 2.0054026 83 44 42
0.0 -0.17647544 2.0054026 77 40 37
0.001989282 -0.17505682 1.9892819 76 33 33
0.003978564 -0.17505682 1.9892819 72 36 33
0.005967846 -0.17505682 1.9892819 71 36 32
0.007957128 -0.17505682 1.9892819 70 35 34
0.009986549 -0.17576325 1.9973097 65 28 28
0.011935692 -0.17505682 1.9892819 69 34 33
0.013924973 -0.17505682 1.9892819 71 37 35
0.015850548 -0.17435601 1.9813185 64 32 28
0.017903538 -0.17505682 1.9892819 61 31 27
0.01989282 -0.17505682 1.9892819 68 35 32
0.021794502 -0.17435601 1.9813185 75 39 36
0.023775822 -0.17435601 1.9813185 75 38 35
0.025757141 -0.17435601 1.9813185 75 37 35
0.02762786 -0.17366083 1.9734185 75 41 39
0.029601276 -0.17366083 1.9734185 76 42 39
0.031574696 -0.17366083 1.9734185 80 45 38
0.033548113 -0.17366083 1.9734185 77 43 35
0.035380464 -0.17297114 1.9655812 78 43 35
0.037346043 -0.17297114 1.9655812 81 47 41
0.03931162 -0.17297114 1.9655812 80 40 32
0.041113924 -0.17228693 1.957806 95 51 44
0.043071732 -0.17228693 1.957806 101 51 45
0.045029536 -0.17228693 1.957806 106 56 48
0.046839118 -0.17174342 1.9516299 104 53 45
0.04879075 -0.17174342 1.9516299 104 54 47
0.050742377 -0.17174342 1.9516299 102 51 44
0.052694008 -0.17174342 1.9516299 102 51 44
0.05464564 -0.17174342 1.9516299 107 58 51
0.056597266 -0.17174342 1.9516299 95 48 42
0.058548898 -0.17174342 1.9516299 91 39 32
0.060262896 -0.17106888 1.9439645 113 62 54
0.062452156 -0.17174342 1.9516299 125 69 61
0.06440379 -0.17174342 1.9516299 127 69 58
0.066355415 -0.17174342 1.9516299 128 70 61
0.06830704 -0.17174342 1.9516299 130 73 61
0.07025868 -0.17174342 1.9516299 131 74 62
0.07192669 -0.17106888 1.9439645 133 77 64
0.07387065 -0.17106888 1.9439645 136 79 65
0.07581461 -0.17106888 1.9439645 136 80 66
0.07775857 -0.17106888 1.9439645 138 82 68
0.07970255 -0.17106888 1.9439645 145 83 71
0.08164651 -0.17106888 1.9439645 135 75 63
0.083920084 -0.17174342 1.9516299 142 75 65
0.08587171 -0.17174342 1.9516299 144 76 65
0.08782334 -0.17174342 1.9516299 147 79 68
0.08977497 -0.17174342 1.9516299 149 87 73
0.0917266 -0.17174342 1.9516299 180 112 92
0.0933103 -0.17106888 1.9439645 224 184 149
0.0959325 -0.17228693 1.957806 225 204 170
0.097198226 -0.17106888 1.9439645 223 199 172
0.096489295 -0.16649133 1.891947 222 198 176
0.09646377 -0.16324638 1.8550725 159 154 138
0.09686657 -0.16083507 1.8276712 114 120 111
0.09833113 -0.16024332 1.8209468 117 126 118
0.100152075 -0.16024332 1.8209468 117 124 116
0.101524785 -0.15953895 1.8129426 119 127 119
0.10333773 -0.15953895 1.8129426 119 127 119
0.10515067 -0.15953895 1.8129426 121 129 121
0.10657324 -0.15895669 1.8063262 119 125 118
0.10837957 -0.15895669 1.8063262 117 125 117
0.1101859 -0.15895669 1.8063262 114 123 115
0.11158497 -0.15837866 1.7997576 114 123 115
0.11338473 -0.15837866 1.7997576 114 122 114
0.115184486 -0.15837866 1.7997576 113 122 113
0.116560385 -0.15780485 1.7932367 115 124 114
0.11835362 -0.15780485 1.7932367 117 126 116
0.120146856 -0.15780485 1.7932367 120 129 120
0.12194009 -0.15780485 1.7932367 123 131 123
0.123733334 -0.15780485 1.7932367 123 128 121
0.12552658 -0.15780485 1.7932367 117 122 115
0.12731981 -0.15780485 1.7932367 118 121 114
0.12911303 -0.15780485 1.7932367 116 119 111
0.13090628 -0.15780485 1.7932367 109 112 105
0.13269952 -0.15780485 1.7932367 111 113 106
0.13449275 -0.15780485 1.7932367 107 108 102
0.13628599 -0.15780485 1.7932367 113 112 105
0.13807923 -0.15780485 1.7932367 117 117 110
0.13987246 -0.15780485 1.7932367 119 117 109
0.1416657 -0.15780485 1.7932367 124 121 113
0.14345893 -0.15780485 1.7932367 113 109 103
0.14525218 -0.15780485 1.7932367 114 110 104
0.1470454 -0.15780485 1.7932367 104 101 95
0.14937988 -0.15837866 1.7997576 125 121 112
0.15117964 -0.15837866 1.7997576 143 137 127
0.15410013 -0.15953895 1.8129426 116 113 104
0.1577623 -0.1614312 1.8344454 158 152 137
0.17237471 -0.17435601 1.9813185 183 169 150
0.19496031 -0.19496031 2.2154582 214 191 167
0.19877739 -0.19654393 2.2334538 224 196 171
0.20247273 -0.19797333 2.249697 223 195 171
0.20472243 -0.19797333 2.249697 223 197 171
0.2079172 -0.19887733 2.2599697 220 193 170
0.21094775 -0.19960648 2.2682555 218 196 170
0.21321602 -0.19960648 2.2682555 226 200 175
0.21647638 -0.20052548 2.2786987 225 201 175
0.21875507 -0.20052548 2.2786987 220 197 172
0.22103377 -0.20052548 2.2786987 223 198 174
0.22331247 -0.20052548 2.2786987 224 200 176
0.22559117 -0.20052548 2.2786987 221 195 171
0.22786987 -0.20052548 2.2786987 223 199 173
0.23014855 -0.20052548 2.2786987 225 200 174
0.23242725 -0.20052548 2.2786987 222 200 174
0.23470597 -0.20052548 2.2786987 224 198 174
0.23698467 -0.20052548 2.2786987 220 195 172
0.23926337 -0.20052548 2.2786987 217 193 171
0.24154206 -0.20052548 2.2786987 219 196 175
0.24472214 -0.2012668 2.2871227 219 195 174
0.24700925 -0.2012668 2.2871227 223 198 177
0.24929637 -0.2012668 2.2871227 218 197 176
0.2515835 -0.2012668 2.2871227 221 194 175
0.2538706 -0.2012668 2.2871227 218 197 176
0.25615776 -0.2012668 2.2871227 214 193 174
0.25844485 -0.2012668 2.2871227 212 190 171
0.260732 -0.2012668 2.2871227 213 187 173
0.2630191 -0.2012668 2.2871227 219 193 176
0.26530623 -0.2012668 2.2871227 218 197 176
0.26759335 -0.2012668 2.2871227 217 196 175
0.2698805 -0.2012668 2.2871227 217 196 177
0.2721676 -0.2012668 2.2871227 215 194 176
0.2744547 -0.2012668 2.2871227 216 194 178
0.27674186 -0.2012668 2.2871227 215 193 173
0.27902895 -0.2012668 2.2871227 216 194 173
0.2813161 -0.2012668 2.2871227 217 195 177
0.28360322 -0.2012668 2.2871227 216 195 178
0.28589034 -0.2012668 2.2871227 216 193 178
0.28817746 -0.2012668 2.2871227 213 192 176
0.2904646 -0.2012668 2.2871227 212 190 172
0.2927517 -0.2012668 2.2871227 214 193 175
0.2939521 -0.20052548 2.2786987 217 197 178
0.29623082 -0.20052548 2.2786987 221 197 179
0.2985095 -0.20052548 2.2786987 219 197 178
0.30078822 -0.20052548 2.2786987 217 196 176
0.30418733 -0.2012668 2.2871227 219 198 179
0.30534562 -0.20052548 2.2786987 218 197 178
0.30762434 -0.20052548 2.2786987 217 197 176
0.30990303 -0.20052548 2.2786987 217 195 176
0.31218174 -0.20052548 2.2786987 216 195 175
0.31446043 -0.20052548 2.2786987 216 194 174
0.3167391 -0.20052548 2.2786987 209 189 171
0.31901783 -0.20052548 2.2786987 212 189 171
0.3212965 -0.20052548 2.2786987 214 191 172
0.32357523 -0.20052548 2.2786987 219 195 175
0.3258539 -0.20052548 2.2786987 217 194 175
-0.32161734 -0.19877739 2.2334538 182 160 142
-0.31794906 -0.1978844 2.2234201 169 149 128
-0.31572565 -0.1978844 2.2234201 162 139 120
-0.3123796 -0.19717579 2.2154582 164 140 117
-0.31016415 -0.19717579 2.2154582 154 134 109
-0.30794868 -0.19717579 2.2154582 158 134 113
-0.3057332 -0.19717579 2.2154582 129 109 92
-0.30351776 -0.19717579 2.2154582 137 116 92
-0.3013023 -0.19717579 2.2154582 159 133 106
-0.29908684 -0.19717579 2.2154582 155 130 104
-0.2968714 -0.19717579 2.2154582 139 118 95
-0.29465595 -0.19717579 2.2154582 139 116 92
-0.2924405 -0.19717579 2.2154582 145 119 94
-0.290225 -0.19717579 2.2154582 115 96 75
-0.28800955 -0.19717579 2.2154582 110 92 71
-0.2857941 -0.19717579 2.2154582 132 107 82
-0.28357863 -0.19717579 2.2154582 123 98 75
-0.2813632 -0.19717579 2.2154582 133 106 82
-0.27914774 -0.19717579 2.2154582 137 111 85
-0.27693227 -0.19717579 2.2154582 136 109 84
-0.2747168 -0.19717579 2.2154582 141 112 89
-0.27250135 -0.19717579 2.2154582 148 126 103
-0.27125725 -0.1978844 2.2234201 171 150 124
-0.26903385 -0.1978844 2.2234201 191 169 140
-0.26681042 -0.1978844 2.2234201 202 178 152
-0.26578102 -0.19877739 2.2334538 211 187 159
-0.26354754 -0.19877739 2.2334538 211 187 160
-0.2613141 -0.19877739 2.2334538 210 189 160
-0.25908062 -0.19877739 2.2334538 203 182 150
-0.25684717 -0.19877739 2.2334538 199 176 148
-0.25346988 -0.1978844 2.2234201 208 185 158
-0.25238028 -0.19877739 2.2334538 218 194 167
-0.2501468 -0.19877739 2.2334538 211 191 167
-0.24791336 -0.19877739 2.2334538 214 193 169
-0.24567991 -0.19877739 2.2334538 213 190 166
-0.24344645 -0.19877739 2.2334538 210 189 167
-0.24121301 -0.19877739 2.2334538 215 194 170
-0.23790596 -0.1978844 2.2234201 213 192 170
-0.23674609 -0.19877739 2.2334538 213 192 174
-0.23451266 -0.19877739 2.2334538 214 193 174
-0.23123568 -0.1978844 2.2234201 211 191 169
-0.23004574 -0.19877739 2.2334538 213 192 161
-0.22781229 -0.19877739 2.2334538 210 186 158
-0.22456543 -0.1978844 2.2234201 207 186 159
-0.22234201 -0.1978844 2.2234201 209 187 162
-0.2201186 -0.1978844 2.2234201 213 192 168
-0.21789517 -0.1978844 2.2234201 219 195 170
-0.21567175 -0.1978844 2.2234201 218 194 170
-0.21268399 -0.19717579 2.2154582 213 192 169
-0.21046852 -0.19717579 2.2154582 215 194 168
-0.20825307 -0.19717579 2.2154582 215 194 168
-0.20603761 -0.19717579 2.2154582 217 195 167
-0.20382215 -0.19717579 2.2154582 216 196 167
-0.20070826 -0.1962971 2.2055852 220 199 170
-0.19850267 -0.1962971 2.2055852 216 197 167
-0.1962971 -0.1962971 2.2055852 219 197 171
-0.19409151 -0.1962971 2.2055852 217 195 167
-0.1910346 -0.19542621 2.1958 217 195 169
-0.18817094 -0.19473505 2.1880343 215 194 168
-0.18598291 -0.19473505 2.1880343 210 190 166
-0.18298593 -0.19387795 2.1784039 212 191 165
-0.18080753 -0.19387795 2.1784039 213 193 165
-0.17800234 -0.19319768 2.1707604 214 194 172
-0.17583159 -0.19319768 2.1707604 216 196 173
-0.1729025 -0.19235402 2.161281 215 196 172
-0.17074122 -0.19235402 2.161281 219 197 175
-0.16857992 -0.19235402 2.161281 211 193 171
-0.1644084 -0.19003049 2.135174 215 194 169
-0.14938417 -0.17493673 1.9655812 147 114 103
-0.13809524 -0.16387302 1.8412699 151 124 112
-0.13318206 -0.16017842 1.7997576 147 142 128
-0.13033958 -0.15890716 1.7854738 137 139 127
-0.12809202 -0.15833598 1.779056 136 135 122
-0.12631297 -0.15833598 1.779056 136 138 123
-0.12453392 -0.15833598 1.779056 132 133 118
-0.12231518 -0.15776886 1.7726839 128 132 118
-0.120542504 -0.15776886 1.7726839 124 129 114
-0.118769825 -0.15776886 1.7726839 122 127 113
-0.11657959 -0.1572058 1.7663574 121 125 111
-0.11481323 -0.1572058 1.7663574 120 125 111
-0.11304688 -0.1572058 1.7663574 121 125 112
-0.111280516 -0.1572058 1.7663574 119 124 110
-0.10951416 -0.1572058 1.7663574 121 126 112
-0.10728832 -0.15653542 1.758825 123 128 117
-0.105529495 -0.15653542 1.758825 123 129 118
-0.103770666 -0.15653542 1.758825 131 137 125
-0.10201185 -0.15653542 1.758825 131 136 124
-0.09989802 -0.15598112 1.7525969 133 139 129
-0.098145425 -0.15598112 1.7525969 135 141 130
-0.09639283 -0.15598112 1.7525969 140 146 133
-0.094640225 -0.15598112 1.7525969 146 150 141
-0.09288763 -0.15598112 1.7525969 154 159 153
-0.09113504 -0.15598112 1.7525969 158 166 157
-0.08938244 -0.15598112 1.7525969 159 171 163
-0.08732063 -0.15543072 1.7464126 165 175 166
-0.08557422 -0.15543072 1.7464126 170 181 170
-0.08412465 -0.15598112 1.7525969 171 181 170
-0.082372054 -0.15598112 1.7525969 176 184 172
-0.080905944 -0.15653542 1.758825 178 187 175
-0.07914712 -0.15653542 1.758825 180 188 176
-0.0773883 -0.15653542 1.758825 184 187 175
-0.07595337 -0.1572058 1.7663574 186 189 179
-0.07418701 -0.1572058 1.7663574 178 178 167
-0.07242066 -0.1572058 1.7663574 167 170 159
-0.070907354 -0.15776886 1.7726839 151 149 138
-0.07101692 -0.16206427 1.8209468 122 105 98
-0.072447866 -0.16968054 1.9065229 97 64 61
-0.072210304 -0.17369506 1.9516299 93 52 50
-0.07048102 -0.17424473 1.957806 87 45 41
-0.068523206 -0.17424473 1.957806 88 47 44
-0.066829756 -0.17493673 1.9655812 73 40 35
-0.06512281 -0.17563425 1.9734185 71 39 33
-0.06314939 -0.17563425 1.9734185 78 43 38
-0.061175972 -0.17563425 1.9734185 76 40 36
-0.05920255 -0.17563425 1.9734185 74 40 37
-0.05722914 -0.17563425 1.9734185 68 36 32
-0.05525572 -0.17563425 1.9734185 62 34 28
-0.053495597 -0.17633735 1.9813185 55 30 22
-0.051514283 -0.17633735 1.9813185 56 32 26
-0.04953296 -0.17633735 1.9813185 53 29 25
-0.04774277 -0.17704608 1.9892819 60 34 33
-0.045753483 -0.17704608 1.9892819 60 32 30
-0.043940812 -0.17776056 1.9973097 62 32 31
-0.041943505 -0.17776056 1.9973097 55 28 25
-0.039946195 -0.17776056 1.9973097 55 30 25
-0.037948884 -0.17776056 1.9973097 47 22 16
-0.035951577 -0.17776056 1.9973097 68 34 32
-0.033954266 -0.17776056 1.9973097 74 38 38
-0.03208644 -0.17848083 2.0054026 75 38 39
-0.03008104 -0.17848083 2.0054026 73 37 37
-0.028075635 -0.17848083 2.0054026 75 36 34
-0.026070232 -0.17848083 2.0054026 73 36 31
-0.024064831 -0.17848083 2.0054026 73 37 33
-0.02205943 -0.17848083 2.0054026 76 40 37
-0.020054026 -0.17848083 2.0054026 80 40 36
-0.018048622 -0.17848083 2.0054026 80 40 32
-0.015978478 -0.17776056 1.9973097 79 39 32
-0.013981168 -0.17776056 1.9973097 80 41 35
-0.011983858 -0.17776056 1.9973097 83 41 38
-0.010027013 -0.17848083 2.0054026 83 43 37
-0.00802161 -0.17848083 2.0054026 84 43 36
-0.006016208 -0.17848083 2.0054026 83 42 35
-0.0039946195 -0.17776056 1.9973097 83 44 36
-0.0019973097 -0.17776056 1.9973097 82 43 40
0.0 -0.17776056 1.9973097 76 39 34
0.0019973097 -0.17776056 1.9973097 75 35 32
0.003978564 -0.17704608 1.9892819 71 37 35
0.005967846 -0.17704608 1.9892819 63 30 27
0.007989239 -0.17776056 1.9973097 63 28 28
0.00994641 -0.17704608 1.9892819 70 34 37
0.011935692 -0.17704608 1.9892819 73 37 41
0.013924973 -0.17704608 1.9892819 63 32 31
0.015787348 -0.17563425 1.9734185 57 26 20
0.017831868 -0.17633735 1.9813185 65 33 28
0.019813186 -0.17633735 1.9813185 73 38 33
0.021794502 -0.17633735 1.9813185 74 38 33
0.023775822 -0.17633735 1.9813185 75 39 34
0.02565444 -0.17563425 1.9734185 75 38 32
0.02773846 -0.17633735 1.9813185 77 42 36
0.029601276 -0.17563425 1.9734185 80 44 37
0.0314493 -0.17493673 1.9655812 84 46 41
0.033414878 -0.17493673 1.9655812 81 45 38
0.035380464 -0.17493673 1.9655812 81 46 37
0.037346043 -0.17493673 1.9655812 72 36 26
0.03915612 -0.17424473 1.957806 81 40 32
0.041113924 -0.17424473 1.957806 96 48 44
0.043071732 -0.17424473 1.957806 101 51 46
0.044887487 -0.17369506 1.9516299 101 52 46
0.046839118 -0.17369506 1.9516299 102 54 45
0.048599113 -0.17301284 1.9439645 97 46 40
0.050543077 -0.17301284 1.9439645 101 51 44
0.052694008 -0.17369506 1.9516299 107 58 51
0.05464564 -0.17369506 1.9516299 110 60 52
0.05637497 -0.17301284 1.9439645 114 64 56
0.058318935 -0.17301284 1.9439645 121 70 57
0.060262896 -0.17301284 1.9439645 127 71 61
0.062452156 -0.17369506 1.9516299 132 74 63
0.06440379 -0.17369506 1.9516299 128 71 57
0.066355415 -0.17369506 1.9516299 132 74 62
0.06830704 -0.17369506 1.9516299 135 76 66
0.07025868 -0.17369506 1.9516299 135 77 66
0.072210304 -0.17369506 1.9516299 135 78 66
0.07416193 -0.17369506 1.9516299 136 79 67
0.07581461 -0.17301284 1.9439645 140 84 70
0.07775857 -0.17301284 1.9439645 140 83 70
0.08001682 -0.17369506 1.9516299 148 85 74
0.08196845 -0.17369506 1.9516299 153 86 75
0.083920084 -0.17369506 1.9516299 157 86 75
0.08587171 -0.17369506 1.9516299 147 80 67
0.08782334 -0.17369506 1.9516299 147 78 66
0.08977497 -0.17369506 1.9516299 150 83 70
0.0917266 -0.17369506 1.9516299 157 91 78
0.0933103 -0.17301284 1.9439645 173 117 103
0.0959325 -0.17424473 1.957806 229 197 166
0.097198226 -0.17301284 1.9439645 223 198 170
0.09685956 -0.16902941 1.899207 221 197 172
0.09682669 -0.16572261 1.8620517 189 176 158
0.09686657 -0.16266273 1.8276712 120 123 112
0.09833113 -0.16206427 1.8209468 116 121 113
0.100152075 -0.16206427 1.8209468 116 123 114
0.101524785 -0.1613519 1.8129426 120 127 118
0.10333773 -0.1613519 1.8129426 118 128 119
0.10515067 -0.1613519 1.8129426 117 124 116
0.10657324 -0.16076303 1.8063262 117 127 118
0.10837957 -0.16076303 1.8063262 116 123 116
0.1101859 -0.16076303 1.8063262 113 122 114
0.11158497 -0.16017842 1.7997576 116 123 116
0.11338473 -0.16017842 1.7997576 121 129 121
0.11476715 -0.15959807 1.7932367 130 140 128
0.116560385 -0.15959807 1.7932367 136 144 133
0.11835362 -0.15959807 1.7932367 142 150 140
0.120146856 -0.15959807 1.7932367 143 150 139
0.12194009 -0.15959807 1.7932367 143 150 142
0.123733334 -0.15959807 1.7932367 148 155 148
0.12552658 -0.15959807 1.7932367 146 155 147
0.12731981 -0.15959807 1.7932367 148 156 148
0.12911303 -0.15959807 1.7932367 153 162 152
0.13090628 -0.15959807 1.7932367 148 152 145
0.13212506 -0.15890716 1.7854738 144 148 140
0.13391054 -0.15890716 1.7854738 144 147 141
0.13569601 -0.15890716 1.7854738 146 147 141
0.1374815 -0.15890716 1.7854738 147 150 142
0.13926695 -0.15890716 1.7854738 128 132 125
0.14105242 -0.15890716 1.7854738 118 116 110
0.14283791 -0.15890716 1.7854738 112 109 104
0.14525218 -0.15959807 1.7932367 120 116 110
0.1470454 -0.15959807 1.7932367 114 108 104
0.14883865 -0.15959807 1.7932367 105 101 96
0.15117964 -0.16017842 1.7997576 125 119 110
0.15410013 -0.1613519 1.8129426 165 157 143
0.1577623 -0.16326565 1.8344454 128 123 111
0.17376594 -0.17776056 1.9973097 182 169 150
0.19496031 -0.19717579 2.2154582 214 193 169
0.19877739 -0.19877739 2.2334538 219 195 169
0.20173913 -0.1994976 2.241546 208 185 161
0.20472243 -0.20022304 2.249697 217 191 167
0.20697212 -0.20022304 2.249697 218 192 168
0.21017718 -0.2011373 2.2599697 212 189 164
0.21243715 -0.2011373 2.2599697 217 193 169
0.21548426 -0.20187475 2.2682555 225 200 175
0.21775253 -0.20187475 2.2682555 222 199 173
0.22002079 -0.20187475 2.2682555 222 195 171
0.22228903 -0.20187475 2.2682555 225 199 174
0.2245573 -0.20187475 2.2682555 227 201 174
0.22682555 -0.20187475 2.2682555 221 196 170
0.22909379 -0.20187475 2.2682555 219 197 171
0.23136206 -0.20187475 2.2682555 222 200 175
0.23363031 -0.20187475 2.2682555 224 200 175
0.23589857 -0.20187475 2.2682555 224 200 177
0.23816682 -0.20187475 2.2682555 222 200 176
0.24043508 -0.20187475 2.2682555 224 202 179
0.24382076 -0.20280418 2.2786987 217 193 173
0.24609946 -0.20280418 2.2786987 216 193 173
0.24837816 -0.20280418 2.2786987 220 198 178
0.25065687 -0.20280418 2.2786987 220 199 176
0.25293556 -0.20280418 2.2786987 219 196 174
0.25521424 -0.20280418 2.2786987 216 192 171
0.25749296 -0.20280418 2.2786987 212 191 171
0.25977165 -0.20280418 2.2786987 212 189 169
0.26205036 -0.20280418 2.2786987 218 193 174
0.26432905 -0.20280418 2.2786987 219 195 175
0.26660776 -0.20280418 2.2786987 220 198 177
0.26888645 -0.20280418 2.2786987 221 198 178
0.27116513 -0.20280418 2.2786987 218 197 178
0.27344385 -0.20280418 2.2786987 219 196 178
0.27572253 -0.20280418 2.2786987 218 194 175
0.27902895 -0.20355393 2.2871227 219 195 176
0.2813161 -0.20355393 2.2871227 215 193 175
0.28360322 -0.20355393 2.2871227 219 197 179
0.28589034 -0.20355393 2.2871227 220 198 181
0.28817746 -0.20355393 2.2871227 214 191 174
0.28939474 -0.20280418 2.2786987 213 192 174
0.29167342 -0.20280418 2.2786987 214 193 175
0.2939521 -0.20280418 2.2786987 215 194 176
0.2948732 -0.20187475 2.2682555 218 197 178
0.2971415 -0.20187475 2.2682555 220 197 178
0.29940972 -0.20187475 2.2682555 220 198 178
0.30306694 -0.20280418 2.2786987 226 201 182
0.30534562 -0.20280418 2.2786987 222 200 179
0.30621448 -0.20187475 2.2682555 220 199 179
0.30848277 -0.20187475 2.2682555 219 198 177
0.31075102 -0.20187475 2.2682555 217 194 175
0.31301925 -0.20187475 2.2682555 216 195 175
0.3152875 -0.20187475 2.2682555 217 194 175
0.31755576 -0.20187475 2.2682555 216 192 172
0.31982404 -0.20187475 2.2682555 216 192 174
0.3220923 -0.20187475 2.2682555 219 195 175
0.32436055 -0.20187475 2.2682555 220 196 177
-0.3201725 -0.20010781 2.2234201 209 188 169
-0.31794906 -0.20010781 2.2234201 210 189 169
-0.31572565 -0.20010781 2.2234201 208 185 166
-0.3123796 -0.19939123 2.2154582 209 189 169
-0.31016415 -0.19939123 2.2154582 204 187 168
-0.30794868 -0.19939123 2.2154582 209 186 167
-0.3057332 -0.19939123 2.2154582 203 183 161
-0.30351776 -0.19939123 2.2154582 193 174 150
-0.3013023 -0.19939123 2.2154582 187 167 148
-0.29908684 -0.19939123 2.2154582 199 177 157
-0.2968714 -0.19939123 2.2154582 196 174 154
-0.29465595 -0.19939123 2.2154582 207 181 156
-0.2924405 -0.19939123 2.2154582 202 180 158
-0.290225 -0.19939123 2.2154582 204 181 160
-0.28800955 -0.19939123 2.2154582 205 179 158
-0.2857941 -0.19939123 2.2154582 202 179 151
-0.2823149 -0.19850267 2.2055852 196 171 145
-0.28010932 -0.19850267 2.2055852 185 160 137
-0.27790374 -0.19850267 2.2055852 199 172 147
-0.27569816 -0.19850267 2.2055852 200 174 147
-0.2747168 -0.19939123 2.2154582 159 139 115
-0.271287 -0.19850267 2.2055852 195 173 141
-0.26908138 -0.19850267 2.2055852 202 174 133
-0.26903385 -0.20010781 2.2234201 205 177 124
-0.26681042 -0.20010781 2.2234201 208 176 121
-0.26363954 -0.19939123 2.2154582 207 178 129
-0.26142406 -0.19939123 2.2154582 209 180 128
-0.25920862 -0.19939123 2.2154582 207 175 122
-0.25699314 -0.19939123 2.2154582 206 174 122
-0.25569332 -0.20010781 2.2234201 211 181 131
-0.25256222 -0.19939123 2.2154582 212 186 144
-0.25034678 -0.19939123 2.2154582 216 191 150
-0.24902305 -0.20010781 2.2234201 215 185 140
-0.24679963 -0.20010781 2.2234201 204 176 133
-0.24457622 -0.20010781 2.2234201 212 183 142
-0.24148494 -0.19939123 2.2154582 220 190 155
-0.24012938 -0.20010781 2.2234201 218 190 152
-0.23790596 -0.20010781 2.2234201 213 185 139
-0.23483856 -0.19939123 2.2154582 211 185 141
-0.23345912 -0.20010781 2.2234201 215 190 148
-0.23123568 -0.20010781 2.2234201 208 185 143
-0.22901227 -0.20010781 2.2234201 204 178 131
-0.22678885 -0.20010781 2.2234201 210 186 148
-0.22456543 -0.20010781 2.2234201 213 189 160
-0.22234201 -0.20010781 2.2234201 216 192 166
-0.21933036 -0.19939123 2.2154582 211 191 165
-0.21789517 -0.20010781 2.2234201 213 192 167
-0.21489945 -0.19939123 2.2154582 207 187 164
-0.21268399 -0.19939123 2.2154582 207 186 163
-0.21046852 -0.19939123 2.2154582 214 191 169
-0.20732501 -0.19850267 2.2055852 216 193 171
-0.20511943 -0.19850267 2.2055852 216 195 172
-0.20291385 -0.19850267 2.2055852 218 200 173
-0.20070826 -0.19850267 2.2055852 217 196 171
-0.19850267 -0.19850267 2.2055852 217 195 169
-0.19542621 -0.19762202 2.1958 217 196 169
-0.1932304 -0.19762202 2.1958 219 195 169
-0.19035898 -0.19692308 2.1880343 214 191 167
-0.18817094 -0.19692308 2.1880343 213 193 169
-0.18516432 -0.19605635 2.1784039 212 189 166
-0.18298593 -0.19605635 2.1784039 214 193 167
-0.18080753 -0.19605635 2.1784039 216 197 169
-0.17800234 -0.19536844 2.1707604 217 199 176
-0.17506376 -0.1945153 2.161281 218 200 176
-0.1729025 -0.1945153 2.161281 218 197 174
-0.17074122 -0.1945153 2.161281 218 197 173
-0.16857992 -0.1945153 2.161281 214 196 172
-0.16512074 -0.19299826 2.1444252 216 192 167
-0.15179554 -0.17975788 1.9973097 157 121 109
-0.14081943 -0.16898331 1.8775923 152 119 106
-0.13415776 -0.16316484 1.8129426 151 141 124
-0.13033958 -0.16069265 1.7854738 138 140 126
-0.12809202 -0.16011503 1.779056 137 139 123
-0.12631297 -0.16011503 1.779056 133 136 118
-0.12408787 -0.15954155 1.7726839 133 136 118
-0.12231518 -0.15954155 1.7726839 129 132 117
-0.120542504 -0.15954155 1.7726839 127 131 116
-0.118345946 -0.15897217 1.7663574 125 130 114
-0.11657959 -0.15897217 1.7663574 123 126 113
-0.11481323 -0.15897217 1.7663574 125 130 115
-0.11304688 -0.15897217 1.7663574 127 133 119
-0.111280516 -0.15897217 1.7663574 126 132 118
-0.10904715 -0.15829425 1.758825 124 131 117
-0.10728832 -0.15829425 1.758825 123 130 118
-0.105529495 -0.15829425 1.758825 123 130 118
-0.103770666 -0.15829425 1.758825 127 135 123
-0.10201185 -0.15829425 1.758825 136 140 129
-0.09989802 -0.15773372 1.7525969 139 146 135
-0.098145425 -0.15773372 1.7525969 144 150 140
-0.09639283 -0.15773372 1.7525969 148 155 145
-0.094640225 -0.15773372 1.7525969 152 159 152
-0.09288763 -0.15773372 1.7525969 158 164 160
-0.09081345 -0.15717714 1.7464126 163 173 161
-0.08906705 -0.15717714 1.7464126 167 175 164
-0.08732063 -0.15717714 1.7464126 171 179 168
-0.08557422 -0.15717714 1.7464126 173 182 169
-0.08412465 -0.15773372 1.7525969 174 183 171
-0.082372054 -0.15773372 1.7525969 177 185 173
-0.080619454 -0.15773372 1.7525969 180 188 174
-0.07914712 -0.15829425 1.758825 184 189 177
-0.0773883 -0.15829425 1.758825 183 188 176
-0.07562947 -0.15829425 1.758825 185 188 178
-0.07418701 -0.15897217 1.7663574 184 189 176
-0.07242066 -0.15897217 1.7663574 176 179 167
-0.070654295 -0.15897217 1.7663574 161 162 149
-0.071279176 -0.1644904 1.8276712 123 108 100
-0.072447866 -0.17158705 1.9065229 97 60 58
-0.072210304 -0.17564668 1.9516299 96 54 53
-0.07025868 -0.17564668 1.9516299 92 51 47
-0.06830704 -0.17564668 1.9516299 86 47 43
-0.06656541 -0.17620255 1.957806 65 35 28
-0.0646076 -0.17620255 1.957806 62 35 26
-0.06314939 -0.17760767 1.9734185 77 44 38
-0.061175972 -0.17760767 1.9734185 79 43 37
-0.05920255 -0.17760767 1.9734185 75 40 36
-0.05722914 -0.17760767 1.9734185 74 41 34
-0.05525572 -0.17760767 1.9734185 70 38 31
-0.0532823 -0.17760767 1.9734185 68 38 33
-0.05130888 -0.17760767 1.9734185 67 38 33
-0.04953296 -0.17831866 1.9813185 56 28 26
-0.047551643 -0.17831866 1.9813185 56 29 26
-0.045570325 -0.17831866 1.9813185 65 35 34
-0.043940812 -0.17975788 1.9973097 68 35 33
-0.041943505 -0.17975788 1.9973097 60 32 29
-0.039946195 -0.17975788 1.9973097 56 29 23
-0.037948884 -0.17975788 1.9973097 62 33 27
-0.035951577 -0.17975788 1.9973097 68 35 32
-0.033954266 -0.17975788 1.9973097 72 37 36
-0.031956956 -0.17975788 1.9973097 76 38 37
-0.029959645 -0.17975788 1.9973097 76 37 36
-0.027962336 -0.17975788 1.9973097 77 40 37
-0.025965028 -0.17975788 1.9973097 79 40 37
-0.023967717 -0.17975788 1.9973097 78 37 35
-0.02205943 -0.18048623 2.0054026 82 41 38
-0.020054026 -0.18048623 2.0054026 84 42 37
-0.018048622 -0.18048623 2.0054026 83 41 34
-0.015978478 -0.17975788 1.9973097 83 41 33
-0.013981168 -0.17975788 1.9973097 82 41 32
-0.012032416 -0.18048623 2.0054026 83 42 33
-0.010027013 -0.18048623 2.0054026 85 43 37
-0.00802161 -0.18048623 2.0054026 83 42 34
-0.005991929 -0.17975788 1.9973097 84 43 37
-0.004010805 -0.18048623 2.0054026 85 43 37
-0.0019973097 -0.17975788 1.9973097 78 39 35
0.0 -0.17975788 1.9973097 75 36 31
0.0019973097 -0.17975788 1.9973097 75 35 34
0.0039946195 -0.17975788 1.9973097 67 34 31
0.005991929 -0.17975788 1.9973097 58 26 24
0.007957128 -0.17903537 1.9892819 65 32 32
0.00994641 -0.17903537 1.9892819 75 38 40
0.011935692 -0.17903537 1.9892819 69 35 37
0.013924973 -0.17903537 1.9892819 57 28 25
0.015850548 -0.17831866 1.9813185 63 32 28
0.017831868 -0.17831866 1.9813185 74 37 34
0.019813186 -0.17831866 1.9813185 75 41 35
0.021707604 -0.17760767 1.9734185 75 40 35
0.023775822 -0.17831866 1.9813185 74 39 32
0.025757141 -0.17831866 1.9813185 76 39 32
0.02762786 -0.17760767 1.9734185 81 45 36
0.029601276 -0.17760767 1.9734185 83 44 34
0.0314493 -0.17690231 1.9655812 81 45 34
0.033414878 -0.17690231 1.9655812 80 45 36
0.035380464 -0.17690231 1.9655812 85 44 38
0.037198316 -0.17620255 1.957806 94 50 44
0.03915612 -0.17620255 1.957806 96 51 45
0.041113924 -0.17620255 1.957806 98 48 41
0.042935856 -0.17564668 1.9516299 100 48 41
0.044887487 -0.17564668 1.9516299 98 49 42
0.04665515 -0.1749568 1.9439645 97 47 42
0.048599113 -0.1749568 1.9439645 96 47 38
0.050543077 -0.1749568 1.9439645 100 51 42
0.05248704 -0.1749568 1.9439645 114 64 57
0.054431006 -0.1749568 1.9439645 124 73 66
0.05637497 -0.1749568 1.9439645 127 68 61
0.058318935 -0.1749568 1.9439645 127 69 58
0.060262896 -0.1749568 1.9439645 126 71 57
0.062206864 -0.1749568 1.9439645 130 72 59
0.063899845 -0.17427231 1.9363589 132 73 56
0.065836206 -0.17427231 1.9363589 131 74 60
0.06777256 -0.17427231 1.9363589 132 73 64
0.06970892 -0.17427231 1.9363589 131 76 64
0.07164528 -0.17427231 1.9363589 117 65 53
0.07358164 -0.17427231 1.9363589 136 79 70
0.075518 -0.17427231 1.9363589 136 80 68
0.07745436 -0.17427231 1.9363589 145 86 74
0.07939072 -0.17427231 1.9363589 146 86 74
0.08132707 -0.17427231 1.9363589 148 87 74
0.083263434 -0.17427231 1.9363589 176 102 87
0.08519979 -0.17427231 1.9363589 166 98 83
0.08713616 -0.17427231 1.9363589 154 87 74
0.08907251 -0.17427231 1.9363589 135 75 61
0.091366336 -0.1749568 1.9439645 150 85 72
0.0933103 -0.1749568 1.9439645 156 93 83
0.0959325 -0.17620255 1.957806 223 166 142
0.097198226 -0.1749568 1.9439645 224 192 167
0.09685956 -0.17092863 1.899207 222 197 172
0.09682669 -0.16758466 1.8620517 186 171 152
0.0972256 -0.16510008 1.8344454 121 124 113
0.09833113 -0.1638852 1.8209468 116 122 112
0.100152075 -0.1638852 1.8209468 117 122 114
0.101524785 -0.16316484 1.8129426 117 123 114
0.10333773 -0.16316484 1.8129426 119 126 116
0.10476691 -0.16256934 1.8063262 117 124 115
0.10657324 -0.16256934 1.8063262 115 125 117
0.10837957 -0.16256934 1.8063262 117 122 116
0.109785214 -0.16197819 1.7997576 122 130 122
0.11158497 -0.16197819 1.7997576 125 133 125
0.11297391 -0.16139132 1.7932367 134 142 133
0.11476715 -0.16139132 1.7932367 140 152 141
0.116560385 -0.16139132 1.7932367 151 162 150
0.11835362 -0.16139132 1.7932367 156 168 156
0.120146856 -0.16139132 1.7932367 154 166 155
0.12194009 -0.16139132 1.7932367 158 167 156
0.123733334 -0.16139132 1.7932367 159 169 158
0.12552658 -0.16139132 1.7932367 161 171 160
0.12731981 -0.16139132 1.7932367 162 173 162
0.12911303 -0.16139132 1.7932367 170 178 168
0.13033958 -0.16069265 1.7854738 178 184 176
0.13212506 -0.16069265 1.7854738 174 181 172
0.13391054 -0.16069265 1.7854738 173 180 171
0.13569601 -0.16069265 1.7854738 179 182 177
0.1374815 -0.16069265 1.7854738 174 179 173
0.13926695 -0.16069265 1.7854738 174 177 171
0.14105242 -0.16069265 1.7854738 153 151 145
0.14283791 -0.16069265 1.7854738 127 124 120
