ply
format ascii 1.0
element vertex 1079
property float32 x
property float32 y
property float32 z
property uchar red
property uchar green
property uchar blue
element face 0
property list uint8 int32 vertex_indices
end_header
-0.13292912 -0.13657102 1.8209468 122 120 106
-0.13053188 -0.1359707 1.8129426 105 101 92
-0.12824915 -0.13547446 1.8063262 125 124 110
-0.12598303 -0.13498183 1.7997576 122 120 106
-0.123733334 -0.13449275 1.7932367 108 105 96
-0.120542504 -0.13295129 1.7726839 120 118 105
-0.11700965 -0.13098094 1.7464126 135 134 118
-0.11350104 -0.12897848 1.7197129 146 149 130
-0.11093333 -0.128 1.7066667 143 147 130
-0.10968052 -0.12853186 1.7137581 137 145 131
-0.10752001 -0.128 1.7066667 142 150 137
-0.10581334 -0.128 1.7066667 116 122 112
-0.104106665 -0.128 1.7066667 140 147 134
-0.102048114 -0.12756014 1.7008018 131 139 127
-0.1003473 -0.12756014 1.7008018 137 146 130
-0.09864651 -0.12756014 1.7008018 129 137 125
-0.09654757 -0.12703627 1.693817 137 145 134
-0.09485375 -0.12703627 1.693817 123 131 122
-0.09315994 -0.12703627 1.693817 133 144 135
-0.09146612 -0.12703627 1.693817 115 120 110
-0.08946612 -0.126603 1.68804 135 141 126
-0.087778084 -0.126603 1.68804 134 139 128
-0.08609004 -0.126603 1.68804 111 118 106
-0.08405798 -0.12608697 1.6811595 143 153 137
-0.082376815 -0.12608697 1.6811595 136 143 135
-0.08102593 -0.126603 1.68804 103 109 102
-0.07933788 -0.126603 1.68804 128 140 126
-0.07733334 -0.12608697 1.6811595 133 140 130
-0.075652175 -0.12608697 1.6811595 110 116 106
-0.07397102 -0.12608697 1.6811595 149 160 143
-0.072289854 -0.12608697 1.6811595 143 149 140
-0.0706087 -0.12608697 1.6811595 120 128 120
-0.068927534 -0.12608697 1.6811595 142 151 142
-0.067246385 -0.12608697 1.6811595 143 152 143
-0.06556522 -0.12608697 1.6811595 128 133 125
-0.06388406 -0.12608697 1.6811595 131 137 130
-0.0622029 -0.12608697 1.6811595 148 158 147
-0.06076944 -0.126603 1.68804 136 142 132
-0.0590814 -0.126603 1.68804 131 137 127
-0.05739336 -0.126603 1.68804 142 151 140
-0.055705324 -0.126603 1.68804 133 140 130
-0.05401728 -0.126603 1.68804 136 142 132
-0.052508328 -0.12703627 1.693817 153 160 151
-0.051024057 -0.12756014 1.7008018 132 138 129
-0.049323253 -0.12756014 1.7008018 160 168 160
-0.047426876 -0.12703627 1.693817 130 137 130
-0.04592165 -0.12756014 1.7008018 171 179 171
-0.044373333 -0.128 1.7066667 157 164 156
-0.042666666 -0.128 1.7066667 159 164 154
-0.041130196 -0.12853186 1.7137581 175 181 167
-0.039553393 -0.12897848 1.7197129 159 161 146
-0.038557127 -0.13144477 1.7525969 118 118 107
-0.038071796 -0.1359707 1.8129426 86 84 75
-0.03738167 -0.14018127 1.8690836 80 79 68
-0.035946995 -0.14189602 1.891947 83 82 71
-0.034055047 -0.14189602 1.891947 79 78 69
-0.032286517 -0.14244053 1.899207 74 73 64
-0.030387312 -0.14244053 1.899207 69 68 59
-0.028488105 -0.14244053 1.899207 75 73 65
-0.026588898 -0.14244053 1.899207 74 74 65
-0.024689691 -0.14244053 1.899207 70 69 60
-0.022790484 -0.14244053 1.899207 71 70 62
-0.021052849 -0.14354216 1.9138954 77 77 68
-0.019138955 -0.14354216 1.9138954 79 78 72
-0.017225057 -0.14354216 1.9138954 75 75 68
-0.015311163 -0.14354216 1.9138954 83 82 76
-0.013397267 -0.14354216 1.9138954 81 80 73
-0.011483372 -0.14354216 1.9138954 79 79 71
-0.009569477 -0.14354216 1.9138954 83 84 76
-0.0076555815 -0.14354216 1.9138954 80 82 73
-0.005741686 -0.14354216 1.9138954 80 81 72
-0.0038277907 -0.14354216 1.9138954 78 79 72
-0.0019138954 -0.14354216 1.9138954 79 80 73
0.0 -0.14354216 1.9138954 80 81 75
0.0019138954 -0.14354216 1.9138954 77 77 71
0.0038277907 -0.14354216 1.9138954 83 83 79
0.005741686 -0.14354216 1.9138954 82 82 77
0.0076555815 -0.14354216 1.9138954 81 80 72
0.009569477 -0.14354216 1.9138954 83 83 75
0.011483372 -0.14354216 1.9138954 73 74 67
0.013397267 -0.14354216 1.9138954 84 85 77
0.015311163 -0.14354216 1.9138954 82 83 75
0.017225057 -0.14354216 1.9138954 78 79 72
0.019138955 -0.14354216 1.9138954 83 83 76
0.021052849 -0.14354216 1.9138954 84 83 76
0.022966744 -0.14354216 1.9138954 78 78 70
0.02488064 -0.14354216 1.9138954 86 87 80
0.026794534 -0.14354216 1.9138954 82 82 75
0.028708432 -0.14354216 1.9138954 83 83 76
0.030741202 -0.14409938 1.9213251 84 85 79
0.03278982 -0.14466095 1.9288127 87 87 80
0.03471863 -0.14466095 1.9288127 78 79 73
0.036647443 -0.14466095 1.9288127 71 73 68
0.03872718 -0.14522691 1.9363589 68 71 65
0.040663537 -0.14522691 1.9363589 68 71 66
0.042599894 -0.14522691 1.9363589 73 76 70
0.044536255 -0.14522691 1.9363589 70 72 67
0.046472613 -0.14522691 1.9363589 78 80 75
0.048408974 -0.14522691 1.9363589 69 71 66
0.050543077 -0.14579733 1.9439645 70 72 68
0.05248704 -0.14579733 1.9439645 74 76 71
0.054431006 -0.14579733 1.9439645 72 73 67
0.05637497 -0.14579733 1.9439645 78 77 73
0.058318935 -0.14579733 1.9439645 81 81 76
0.060262896 -0.14579733 1.9439645 76 75 67
0.062206864 -0.14579733 1.9439645 96 93 86
0.064150825 -0.14579733 1.9439645 101 93 88
0.06609479 -0.14579733 1.9439645 114 102 97
0.068038754 -0.14579733 1.9439645 117 102 96
0.07025868 -0.14637224 1.9516299 113 98 90
0.07192669 -0.14579733 1.9439645 118 89 79
0.07416193 -0.14637224 1.9516299 114 68 60
0.07611357 -0.14637224 1.9516299 122 66 56
0.07775857 -0.14579733 1.9439645 119 63 52
0.08001682 -0.14637224 1.9516299 117 61 50
0.08164651 -0.14579733 1.9439645 118 61 48
0.083920084 -0.14637224 1.9516299 104 58 42
0.08587171 -0.14637224 1.9516299 155 93 82
0.0874784 -0.14579733 1.9439645 194 143 119
0.08942236 -0.14579733 1.9439645 231 208 180
0.09100887 -0.14522691 1.9363589 228 209 182
0.09258301 -0.14466095 1.9288127 231 206 182
0.09200202 -0.14081943 1.8775923 215 199 177
0.09138356 -0.13707533 1.8276712 111 114 105
0.09178764 -0.13498183 1.7997576 109 115 108
0.09324831 -0.13449275 1.7932367 118 125 117
0.09504155 -0.13449275 1.7932367 130 138 131
0.09641559 -0.13391054 1.7854738 134 143 138
0.09784807 -0.1334292 1.779056 173 188 179
0.09998653 -0.13391054 1.7854738 168 182 174
0.10177201 -0.13391054 1.7854738 194 211 203
0.102815665 -0.13295129 1.7726839 168 183 175
0.104588345 -0.13295129 1.7726839 187 202 195
0.10636103 -0.13295129 1.7726839 181 197 191
0.1077478 -0.1324768 1.7663574 162 175 167
0.10951416 -0.1324768 1.7663574 184 201 192
0.110805966 -0.13191186 1.758825 170 183 175
0.112166196 -0.13144477 1.7525969 180 195 186
0.113918796 -0.13144477 1.7525969 172 187 179
0.115671396 -0.13144477 1.7525969 169 184 175
0.11742399 -0.13144477 1.7525969 183 201 192
0.118756056 -0.13098094 1.7464126 184 200 191
0.12050247 -0.13098094 1.7464126 180 196 187
0.12224889 -0.13098094 1.7464126 191 206 198
0.123472475 -0.13042867 1.739049 187 201 192
0.12521152 -0.13042867 1.739049 190 205 196
0.12695058 -0.13042867 1.739049 197 212 202
0.12868962 -0.13042867 1.739049 177 192 183
0.13042867 -0.13042867 1.739049 188 201 192
0.13170496 -0.12997198 1.7329599 196 210 199
0.13343792 -0.12997198 1.7329599 191 205 194
0.13517086 -0.12997198 1.7329599 191 203 194
0.13690382 -0.12997198 1.7329599 195 208 197
0.1386368 -0.12997198 1.7329599 192 205 195
0.14036976 -0.12997198 1.7329599 186 199 189
0.1421027 -0.12997198 1.7329599 197 209 198
0.14383566 -0.12997198 1.7329599 189 202 193
0.14556864 -0.12997198 1.7329599 181 193 183
0.14781916 -0.13042867 1.739049 186 196 187
0.14955822 -0.13042867 1.739049 181 192 184
0.15129726 -0.13042867 1.739049 172 182 175
0.15303631 -0.13042867 1.739049 186 197 188
0.15477537 -0.13042867 1.739049 163 170 164
0.1565144 -0.13042867 1.739049 182 189 182
0.15892355 -0.13098094 1.7464126 197 204 197
0.16066997 -0.13098094 1.7464126 176 183 176
0.1629915 -0.13144477 1.7525969 179 188 181
0.16474411 -0.13144477 1.7525969 159 164 159
0.16708836 -0.13191186 1.758825 166 171 164
0.1682493 -0.13144477 1.7525969 185 189 179
0.17195033 -0.13295129 1.7726839 161 159 151
0.17766838 -0.1359707 1.8129426 175 173 161
0.19459254 -0.14741859 1.9655812 171 162 152
0.2249697 -0.16872728 2.249697 195 152 70
0.23579372 -0.17509437 2.3345914 198 139 0
0.23925689 -0.17592418 2.3456557 198 138 0
0.24160254 -0.17592418 2.3456557 197 137 0
0.24487664 -0.17659372 2.354583 195 138 0
0.24723122 -0.17659372 2.354583 191 136 0
0.2495858 -0.17659372 2.354583 77 86 99
0.25194037 -0.17659372 2.354583 38 82 141
0.25429496 -0.17659372 2.354583 39 82 142
0.25664952 -0.17659372 2.354583 40 83 140
0.25900412 -0.17659372 2.354583 40 83 139
0.2613587 -0.17659372 2.354583 39 82 139
0.2637133 -0.17659372 2.354583 39 82 139
0.26606786 -0.17659372 2.354583 38 81 139
0.26842245 -0.17659372 2.354583 38 81 139
0.27077705 -0.17659372 2.354583 38 81 139
0.2731316 -0.17659372 2.354583 38 81 139
0.2754862 -0.17659372 2.354583 39 81 139
0.2778408 -0.17659372 2.354583 38 81 140
-0.33618116 -0.17742895 2.3345914 209 191 170
-0.33384657 -0.17742895 2.3345914 208 191 171
-0.33151197 -0.17742895 2.3345914 209 191 170
-0.3291774 -0.17742895 2.3345914 208 192 171
-0.3268428 -0.17742895 2.3345914 210 194 173
-0.32450822 -0.17742895 2.3345914 211 195 172
-0.32217363 -0.17742895 2.3345914 213 197 178
-0.32135484 -0.17826983 2.3456557 212 195 181
-0.31900918 -0.17826983 2.3456557 210 193 176
-0.3166635 -0.17826983 2.3456557 211 190 164
-0.31431788 -0.17826983 2.3456557 214 168 143
-0.3119722 -0.17826983 2.3456557 213 136 107
-0.30962655 -0.17826983 2.3456557 214 131 93
-0.3072809 -0.17826983 2.3456557 215 128 91
-0.3034969 -0.17742895 2.3345914 214 125 90
-0.30258957 -0.17826983 2.3456557 212 126 91
-0.3002439 -0.17826983 2.3456557 214 127 91
-0.2978983 -0.17826983 2.3456557 216 126 90
-0.2955526 -0.17826983 2.3456557 218 126 92
-0.29320696 -0.17826983 2.3456557 219 125 92
-0.2908613 -0.17826983 2.3456557 218 127 93
-0.2896137 -0.1789483 2.354583 220 127 93
-0.28725913 -0.1789483 2.354583 220 128 92
-0.28490454 -0.1789483 2.354583 222 128 92
-0.28254995 -0.1789483 2.354583 219 126 92
-0.2801954 -0.1789483 2.354583 222 127 92
-0.27678737 -0.17826983 2.3456557 218 126 90
-0.2754862 -0.1789483 2.354583 221 126 90
-0.2731316 -0.1789483 2.354583 223 128 94
-0.2697504 -0.17826983 2.3456557 214 130 102
-0.26842245 -0.1789483 2.354583 229 174 148
-0.26606786 -0.1789483 2.354583 218 196 179
-0.2637133 -0.1789483 2.354583 217 194 168
-0.2613587 -0.1789483 2.354583 217 194 171
-0.2354583 -0.1789483 2.354583 219 199 176
-0.2331037 -0.1789483 2.354583 222 200 175
-0.23074913 -0.1789483 2.354583 223 202 175
-0.2275286 -0.17826983 2.3456557 223 204 181
-0.22412077 -0.17742895 2.3345914 222 203 181
-0.22178617 -0.17742895 2.3345914 220 201 176
-0.21862659 -0.17676191 2.3258147 218 199 176
-0.21528906 -0.17593515 2.3149362 218 198 174
-0.21297412 -0.17593515 2.3149362 216 195 169
-0.21065919 -0.17593515 2.3149362 223 201 176
-0.20756757 -0.17527927 2.3063064 223 202 178
-0.20449892 -0.1746283 2.2977407 221 200 177
-0.20052548 -0.1731811 2.2786987 221 200 176
-0.19572364 -0.17097698 2.249697 220 200 175
-0.18968032 -0.16762449 2.2055852 218 197 172
-0.17932369 -0.16033646 2.1096904 216 198 176
-0.16777402 -0.15179554 1.9973097 188 178 158
-0.15824139 -0.14489573 1.9065229 139 137 123
-0.15268825 -0.14151593 1.8620517 117 117 107
-0.14969978 -0.14045906 1.8481455 128 126 114
-0.14675564 -0.13941784 1.8344454 117 115 105
-0.14546031 -0.1399365 1.8412699 137 136 121
-0.14361905 -0.1399365 1.8412699 118 115 105
-0.14177777 -0.1399365 1.8412699 135 133 119
-0.1399365 -0.1399365 1.8412699 116 112 102
-0.13809524 -0.1399365 1.8412699 113 108 97
-0.13625397 -0.1399365 1.8412699 129 125 111
-0.1339145 -0.13941784 1.8344454 111 105 93
-0.13110816 -0.13839196 1.8209468 113 105 94
-0.12928721 -0.13839196 1.8209468 130 120 106
-0.12690598 -0.13778365 1.8129426 110 97 89
-0.12463651 -0.13728079 1.8063262 119 106 97
-0.12238351 -0.13678157 1.7997576 130 120 107
-0.118769825 -0.13472396 1.7726839 117 107 97
-0.11477723 -0.13216773 1.739049 152 149 132
-0.11139428 -0.13024563 1.7137581 142 145 128
-0.10922667 -0.12970667 1.7066667 139 144 130
-0.10752001 -0.12970667 1.7066667 135 141 130
-0.10581334 -0.12970667 1.7066667 131 136 126
-0.10374892 -0.12926094 1.7008018 142 150 140
-0.102048114 -0.12926094 1.7008018 126 132 123
-0.1003473 -0.12926094 1.7008018 139 150 138
-0.09864651 -0.12926094 1.7008018 127 134 126
-0.09654757 -0.12873009 1.693817 137 144 134
-0.09485375 -0.12873009 1.693817 122 127 114
-0.09315994 -0.12873009 1.693817 142 150 136
-0.09115416 -0.12829104 1.68804 121 129 116
-0.08946612 -0.12829104 1.68804 138 147 137
-0.087778084 -0.12829104 1.68804 129 139 128
-0.08609004 -0.12829104 1.68804 113 119 109
-0.08405798 -0.12776811 1.6811595 132 138 127
-0.082376815 -0.12776811 1.6811595 136 144 134
-0.08102593 -0.12829104 1.68804 127 137 125
-0.079014495 -0.12776811 1.6811595 130 140 127
-0.07733334 -0.12776811 1.6811595 140 147 135
-0.075652175 -0.12776811 1.6811595 104 109 102
-0.07397102 -0.12776811 1.6811595 139 149 138
-0.072289854 -0.12776811 1.6811595 136 142 134
-0.0706087 -0.12776811 1.6811595 126 129 122
-0.068927534 -0.12776811 1.6811595 132 137 130
-0.067246385 -0.12776811 1.6811595 144 150 141
-0.06556522 -0.12776811 1.6811595 156 162 152
-0.06388406 -0.12776811 1.6811595 133 141 131
-0.0622029 -0.12776811 1.6811595 155 164 153
-0.060521744 -0.12776811 1.6811595 137 144 134
-0.058840584 -0.12776811 1.6811595 145 153 142
-0.05739336 -0.12829104 1.68804 161 170 158
-0.055705324 -0.12829104 1.68804 139 147 137
-0.05401728 -0.12829104 1.68804 160 168 156
-0.052508328 -0.12873009 1.693817 170 177 166
-0.05081451 -0.12873009 1.693817 143 150 140
-0.049120694 -0.12873009 1.693817 166 175 164
-0.047622453 -0.12926094 1.7008018 158 164 156
-0.04592165 -0.12926094 1.7008018 167 171 165
-0.044039242 -0.12873009 1.693817 155 160 153
-0.042520046 -0.12926094 1.7008018 167 172 163
-0.04096 -0.12970667 1.7066667 151 155 145
-0.039416436 -0.13024563 1.7137581 159 163 149
-0.038259078 -0.13216773 1.739049 162 161 145
-0.03765797 -0.13628599 1.7932367 91 90 81
-0.037101448 -0.1409855 1.8550725 82 80 71
-0.035946995 -0.14378798 1.891947 79 77 67
-0.034185726 -0.14433974 1.899207 73 71 63
-0.032286517 -0.14433974 1.899207 74 72 65
-0.030504366 -0.14489573 1.9065229 77 76 68
-0.028597843 -0.14489573 1.9065229 74 72 65
-0.026794534 -0.14545606 1.9138954 72 70 63
-0.02488064 -0.14545606 1.9138954 74 72 65
-0.022878274 -0.14489573 1.9065229 79 77 70
-0.021052849 -0.14545606 1.9138954 78 77 70
-0.019138955 -0.14545606 1.9138954 75 74 68
-0.017291926 -0.14602071 1.9213251 80 80 73
-0.015370601 -0.14602071 1.9213251 80 80 74
-0.013449276 -0.14602071 1.9213251 79 78 71
-0.011572876 -0.14658977 1.9288127 79 79 71
-0.009644064 -0.14658977 1.9288127 79 80 72
-0.0076853004 -0.14602071 1.9213251 78 78 71
-0.005763975 -0.14602071 1.9213251 86 87 79
-0.0038576254 -0.14658977 1.9288127 78 79 72
-0.0019288127 -0.14658977 1.9288127 81 82 76
0.0 -0.14658977 1.9288127 81 81 75
0.0019213251 -0.14602071 1.9213251 79 79 73
0.0038426502 -0.14602071 1.9213251 82 81 76
0.005763975 -0.14602071 1.9213251 77 78 72
0.0076853004 -0.14602071 1.9213251 82 82 74
0.009606626 -0.14602071 1.9213251 83 82 75
0.01152795 -0.14602071 1.9213251 80 80 74
0.013449276 -0.14602071 1.9213251 84 84 77
0.015370601 -0.14602071 1.9213251 80 81 73
0.017291926 -0.14602071 1.9213251 77 77 69
0.019213252 -0.14602071 1.9213251 86 86 78
0.02121694 -0.14658977 1.9288127 84 83 75
0.023145752 -0.14658977 1.9288127 79 79 71
0.025074566 -0.14658977 1.9288127 86 86 78
0.027003378 -0.14658977 1.9288127 80 80 72
0.028932191 -0.14658977 1.9288127 84 84 77
0.030861003 -0.14658977 1.9288127 81 82 74
0.03278982 -0.14658977 1.9288127 84 84 77
0.03471863 -0.14658977 1.9288127 78 78 71
0.03679082 -0.14716329 1.9363589 69 70 64
0.03872718 -0.14716329 1.9363589 75 78 74
0.040663537 -0.14716329 1.9363589 67 70 65
0.042599894 -0.14716329 1.9363589 75 78 74
0.044536255 -0.14716329 1.9363589 67 70 66
0.046472613 -0.14716329 1.9363589 73 76 69
0.048599113 -0.1477413 1.9439645 73 75 70
0.050543077 -0.1477413 1.9439645 69 71 66
0.05248704 -0.1477413 1.9439645 74 76 71
0.054431006 -0.1477413 1.9439645 71 72 66
0.05637497 -0.1477413 1.9439645 74 74 66
0.058318935 -0.1477413 1.9439645 86 84 77
0.060500525 -0.14832386 1.9516299 79 76 65
0.061963487 -0.14716329 1.9363589 101 94 85
0.064150825 -0.1477413 1.9439645 113 98 91
0.06609479 -0.1477413 1.9439645 112 98 91
0.06830704 -0.14832386 1.9516299 116 96 87
0.07025868 -0.14832386 1.9516299 115 86 77
0.072210304 -0.14832386 1.9516299 110 61 50
0.07387065 -0.1477413 1.9439645 118 62 52
0.07611357 -0.14832386 1.9516299 127 68 58
0.078065194 -0.14832386 1.9516299 135 73 66
0.08001682 -0.14832386 1.9516299 135 78 70
0.08164651 -0.1477413 1.9439645 131 73 62
0.08359047 -0.1477413 1.9439645 131 77 63
0.08587171 -0.14832386 1.9516299 155 89 75
0.08782334 -0.14832386 1.9516299 164 111 94
0.08907251 -0.14716329 1.9363589 228 196 166
0.09100887 -0.14716329 1.9363589 229 206 182
0.09258301 -0.14658977 1.9288127 231 207 183
0.092705406 -0.14378798 1.891947 227 204 183
0.09138356 -0.13890302 1.8276712 129 127 118
0.09145507 -0.13628599 1.7932367 118 123 114
0.09324831 -0.13628599 1.7932367 125 132 125
0.09504155 -0.13628599 1.7932367 166 175 168
0.09641559 -0.13569601 1.7854738 165 181 171
0.09749761 -0.13472396 1.7726839 180 197 187
0.09962714 -0.13520825 1.779056 183 197 188
0.10177201 -0.13569601 1.7854738 187 198 193
0.102815665 -0.13472396 1.7726839 187 196 191
0.104588345 -0.13472396 1.7726839 191 206 199
0.10636103 -0.13472396 1.7726839 188 201 196
0.1077478 -0.13424316 1.7663574 195 211 201
0.10904715 -0.1336707 1.758825 189 206 196
0.110805966 -0.1336707 1.758825 191 207 198
0.112166196 -0.13319735 1.7525969 190 203 194
0.113918796 -0.13319735 1.7525969 176 191 183
0.115671396 -0.13319735 1.7525969 187 203 194
0.11700965 -0.13272735 1.7464126 184 199 190
0.118756056 -0.13272735 1.7464126 182 196 187
0.11999438 -0.13216773 1.739049 182 196 187
0.12173343 -0.13216773 1.739049 183 196 188
0.123472475 -0.13216773 1.739049 180 193 185
0.12521152 -0.13216773 1.739049 190 200 192
0.12695058 -0.13216773 1.739049 192 203 196
0.12868962 -0.13216773 1.739049 176 191 182
0.12997198 -0.13170496 1.7329599 174 187 178
0.13170496 -0.13170496 1.7329599 189 200 190
0.13343792 -0.13170496 1.7329599 182 194 182
0.13517086 -0.13170496 1.7329599 171 180 170
0.13642615 -0.1312454 1.7269133 178 188 178
0.1386368 -0.13170496 1.7329599 174 185 175
0.14036976 -0.13170496 1.7329599 163 172 163
0.1421027 -0.13170496 1.7329599 162 171 162
0.14383566 -0.13170496 1.7329599 152 160 151
0.14556864 -0.13170496 1.7329599 152 161 152
0.14730158 -0.13170496 1.7329599 181 190 179
0.14903454 -0.13170496 1.7329599 182 188 180
0.1507675 -0.13170496 1.7329599 167 175 167
0.15250048 -0.13170496 1.7329599 188 196 188
0.15423343 -0.13170496 1.7329599 175 182 176
0.1565144 -0.13216773 1.739049 162 169 163
0.15825345 -0.13216773 1.739049 161 169 162
0.1599925 -0.13216773 1.739049 155 162 156
0.16241638 -0.13272735 1.7464126 182 191 182
0.16416278 -0.13272735 1.7464126 179 183 178
0.1659092 -0.13272735 1.7464126 181 186 177
0.1682493 -0.13319735 1.7525969 161 163 156
0.17195033 -0.13472396 1.7726839 166 167 158
0.17845279 -0.13839196 1.8209468 161 157 153
0.1969389 -0.15118542 1.9892819 180 155 119
0.22682555 -0.17238742 2.2682555 194 142 40
0.23490728 -0.17676191 2.3258147 198 139 0
0.23812832 -0.17742895 2.3345914 196 137 0
0.2404629 -0.17742895 2.3345914 197 136 0
0.24487664 -0.1789483 2.354583 195 137 0
0.24723122 -0.1789483 2.354583 190 134 0
0.2495858 -0.1789483 2.354583 70 84 104
0.25194037 -0.1789483 2.354583 38 82 143
0.25429496 -0.1789483 2.354583 40 83 143
0.25664952 -0.1789483 2.354583 40 83 140
0.25900412 -0.1789483 2.354583 40 83 140
0.2613587 -0.1789483 2.354583 39 82 140
0.2637133 -0.1789483 2.354583 38 82 140
0.26606786 -0.1789483 2.354583 38 81 140
0.26842245 -0.1789483 2.354583 37 81 140
0.27077705 -0.1789483 2.354583 39 81 139
0.2731316 -0.1789483 2.354583 39 81 140
0.2754862 -0.1789483 2.354583 38 81 139
0.2778408 -0.1789483 2.354583 37 81 139
0.2801954 -0.1789483 2.354583 38 81 139
0.28254995 -0.1789483 2.354583 38 81 139
0.28490454 -0.1789483 2.354583 37 81 139
-0.33618116 -0.17976354 2.3345914 209 192 172
-0.33384657 -0.17976354 2.3345914 211 191 171
-0.3302657 -0.17908774 2.3258147 211 191 171
-0.3291774 -0.17976354 2.3345914 212 194 173
-0.3268428 -0.17976354 2.3345914 214 196 175
-0.32450822 -0.17976354 2.3345914 212 194 174
-0.32217363 -0.17976354 2.3345914 212 194 174
-0.31983903 -0.17976354 2.3345914 212 195 170
-0.31750444 -0.17976354 2.3345914 215 189 158
-0.31516984 -0.17976354 2.3345914 208 156 128
-0.31283525 -0.17976354 2.3345914 213 134 107
-0.31050065 -0.17976354 2.3345914 215 127 92
-0.3081661 -0.17976354 2.3345914 211 124 88
-0.30468172 -0.17908774 2.3258147 208 122 88
-0.30235592 -0.17908774 2.3258147 212 127 91
-0.3011623 -0.17976354 2.3345914 215 126 90
-0.2988277 -0.17976354 2.3345914 212 127 93
-0.2964931 -0.17976354 2.3345914 214 127 95
-0.29415852 -0.17976354 2.3345914 216 125 94
-0.29072684 -0.17908774 2.3258147 216 124 89
-0.28948933 -0.17976354 2.3345914 218 124 89
-0.28851566 -0.1806155 2.3456557 218 127 90
-0.28616998 -0.1806155 2.3456557 216 127 92
-0.28382435 -0.1806155 2.3456557 220 126 92
-0.28147867 -0.1806155 2.3456557 220 128 91
-0.27913302 -0.1806155 2.3456557 221 125 89
-0.27678737 -0.1806155 2.3456557 224 127 91
-0.27444172 -0.1806155 2.3456557 219 127 92
-0.27209607 -0.1806155 2.3456557 219 129 95
-0.2697504 -0.1806155 2.3456557 217 148 121
-0.26842245 -0.18130289 2.354583 230 193 171
-0.26606786 -0.18130289 2.354583 224 198 181
-0.26271343 -0.1806155 2.3456557 220 198 177
-0.26036778 -0.1806155 2.3456557 218 197 172
-0.25802213 -0.1806155 2.3456557 218 195 175
-0.25567648 -0.1806155 2.3456557 221 199 180
-0.2533308 -0.1806155 2.3456557 218 202 180
-0.25098515 -0.1806155 2.3456557 222 200 177
-0.2486395 -0.1806155 2.3456557 222 200 176
-0.24629386 -0.1806155 2.3456557 221 199 172
-0.24252205 -0.18130289 2.354583 222 198 176
-0.24016747 -0.18130289 2.354583 220 196 176
-0.23781288 -0.18130289 2.354583 218 197 174
-0.23456557 -0.1806155 2.3456557 221 196 174
-0.2322199 -0.1806155 2.3456557 222 200 174
-0.22878996 -0.17976354 2.3345914 223 202 177
-0.22645536 -0.17976354 2.3345914 222 204 182
-0.22327821 -0.17908774 2.3258147 221 203 181
-0.21991894 -0.17825009 2.3149362 222 200 175
-0.21760401 -0.17825009 2.3149362 220 198 172
-0.21528906 -0.17825009 2.3149362 215 194 169
-0.2121802 -0.17758559 2.3063064 217 196 170
-0.20987388 -0.17758559 2.3063064 220 198 174
-0.20679666 -0.17692605 2.2977407 220 199 174
-0.20449892 -0.17692605 2.2977407 217 196 169
-0.20052548 -0.17545979 2.2786987 218 197 171
-0.19824678 -0.17545979 2.2786987 219 197 172
-0.1943574 -0.17401767 2.2599697 218 197 171
-0.186643 -0.16907659 2.1958 218 195 171
-0.17661174 -0.16189408 2.1025207 216 195 171
-0.16444944 -0.15256153 1.9813185 193 180 158
-0.15573497 -0.14623894 1.899207 122 121 106
-0.15026088 -0.14284058 1.8550725 124 121 106
-0.14840579 -0.14284058 1.8550725 118 114 101
-0.14655071 -0.14284058 1.8550725 131 124 110
-0.14469565 -0.14284058 1.8550725 119 114 102
-0.14284058 -0.14284058 1.8550725 131 126 112
-0.14045906 -0.1423072 1.8481455 110 103 94
-0.13913043 -0.14284058 1.8550725 117 108 98
-0.13727535 -0.14284058 1.8550725 123 113 101
-0.1344127 -0.14177777 1.8412699 103 93 82
-0.13159233 -0.14073068 1.8276712 115 102 94
-0.12976465 -0.14073068 1.8276712 112 97 89
-0.12793697 -0.14073068 1.8276712 82 59 52
-0.12564534 -0.14021291 1.8209468 78 54 47
-0.12382439 -0.14021291 1.8209468 86 62 55
-0.120146856 -0.13807923 1.7932367 87 63 56
-0.116082445 -0.13542952 1.758825 137 133 119
-0.11178134 -0.13241789 1.7197129 143 148 130
-0.10922667 -0.13141333 1.7066667 140 145 129
-0.10752001 -0.13141333 1.7066667 141 148 136
-0.105449714 -0.13096175 1.7008018 125 129 120
-0.10374892 -0.13096175 1.7008018 131 137 128
-0.102048114 -0.13096175 1.7008018 137 143 132
-0.1003473 -0.13096175 1.7008018 142 148 138
-0.09824139 -0.1304239 1.693817 127 132 123
-0.09654757 -0.1304239 1.693817 137 142 132
-0.09485375 -0.1304239 1.693817 124 130 118
-0.09315994 -0.1304239 1.693817 148 155 143
-0.09115416 -0.12997907 1.68804 122 129 117
-0.08946612 -0.12997907 1.68804 120 128 119
-0.087778084 -0.12997907 1.68804 138 144 132
-0.085739136 -0.12944928 1.6811595 130 136 124
-0.08405798 -0.12944928 1.6811595 131 138 126
-0.082376815 -0.12944928 1.6811595 147 156 146
-0.08069566 -0.12944928 1.6811595 111 118 110
-0.079014495 -0.12944928 1.6811595 127 135 124
-0.07733334 -0.12944928 1.6811595 139 146 135
-0.075652175 -0.12944928 1.6811595 110 116 109
-0.07397102 -0.12944928 1.6811595 135 144 138
-0.072289854 -0.12944928 1.6811595 139 145 139
-0.0706087 -0.12944928 1.6811595 139 143 138
-0.068927534 -0.12944928 1.6811595 140 147 140
-0.067246385 -0.12944928 1.6811595 147 155 146
-0.06556522 -0.12944928 1.6811595 115 120 113
-0.06388406 -0.12944928 1.6811595 127 133 125
-0.0622029 -0.12944928 1.6811595 141 150 139
-0.060521744 -0.12944928 1.6811595 134 145 135
-0.058840584 -0.12944928 1.6811595 125 132 123
-0.05739336 -0.12997907 1.68804 150 156 145
-0.055705324 -0.12997907 1.68804 139 145 134
-0.05401728 -0.12997907 1.68804 119 123 116
-0.052508328 -0.1304239 1.693817 156 161 152
-0.05081451 -0.1304239 1.693817 139 143 134
-0.049120694 -0.1304239 1.693817 150 154 145
-0.047622453 -0.13096175 1.7008018 150 153 145
-0.04592165 -0.13096175 1.7008018 149 151 144
-0.04422085 -0.13096175 1.7008018 154 156 147
-0.042520046 -0.13096175 1.7008018 163 168 157
-0.041130196 -0.13195938 1.7137581 160 165 153
-0.039553393 -0.13241789 1.7197129 167 172 156
-0.037992094 -0.13297231 1.7269133 159 159 145
-0.03722636 -0.13649666 1.7726839 124 123 113
-0.03696291 -0.1423072 1.8481455 79 79 70
-0.035946995 -0.14567992 1.891947 73 71 63
-0.03431741 -0.14680226 1.9065229 78 76 69
-0.03241089 -0.14680226 1.9065229 78 76 70
-0.030622326 -0.14736995 1.9138954 75 74 67
-0.028708432 -0.14736995 1.9138954 72 70 63
-0.026794534 -0.14736995 1.9138954 74 72 65
-0.02488064 -0.14736995 1.9138954 81 79 73
-0.022966744 -0.14736995 1.9138954 81 79 73
-0.021052849 -0.14736995 1.9138954 76 75 68
-0.019138955 -0.14736995 1.9138954 76 76 69
-0.017291926 -0.14794204 1.9213251 81 80 74
-0.015370601 -0.14794204 1.9213251 76 76 69
-0.013501689 -0.14851859 1.9288127 78 77 69
-0.011572876 -0.14851859 1.9288127 82 82 74
-0.009606626 -0.14794204 1.9213251 79 79 71
-0.0076853004 -0.14794204 1.9213251 79 80 72
-0.005741686 -0.14736995 1.9138954 80 81 73
-0.0038426502 -0.14794204 1.9213251 76 78 71
-0.0019213251 -0.14794204 1.9213251 82 83 76
0.0 -0.14794204 1.9213251 74 75 69
0.0019213251 -0.14794204 1.9213251 85 86 80
0.0038426502 -0.14794204 1.9213251 82 83 76
0.005763975 -0.14794204 1.9213251 81 82 75
0.0076853004 -0.14794204 1.9213251 83 84 77
0.009606626 -0.14794204 1.9213251 83 84 77
0.01152795 -0.14794204 1.9213251 73 76 69
0.013449276 -0.14794204 1.9213251 85 86 79
0.015430502 -0.14851859 1.9288127 81 79 71
0.017291926 -0.14794204 1.9213251 84 82 75
0.019288128 -0.14851859 1.9288127 86 85 77
0.02121694 -0.14851859 1.9288127 83 82 74
0.023145752 -0.14851859 1.9288127 76 76 68
0.025074566 -0.14851859 1.9288127 83 83 76
0.027003378 -0.14851859 1.9288127 78 77 69
0.028819876 -0.14794204 1.9213251 86 86 80
0.030861003 -0.14851859 1.9288127 82 81 75
0.03278982 -0.14851859 1.9288127 82 80 75
0.03471863 -0.14851859 1.9288127 77 76 70
0.036647443 -0.14851859 1.9288127 69 69 63
0.03872718 -0.14909963 1.9363589 78 81 76
0.040663537 -0.14909963 1.9363589 69 71 66
0.042599894 -0.14909963 1.9363589 76 78 74
0.044536255 -0.14909963 1.9363589 70 71 67
0.04665515 -0.14968528 1.9439645 69 72 65
0.048599113 -0.14968528 1.9439645 75 77 71
0.050543077 -0.14968528 1.9439645 68 70 63
0.05248704 -0.14968528 1.9439645 78 79 73
0.054431006 -0.14968528 1.9439645 76 77 70
0.05637497 -0.14968528 1.9439645 75 73 67
0.058318935 -0.14968528 1.9439645 95 89 84
0.060262896 -0.14968528 1.9439645 85 76 68
0.061963487 -0.14909963 1.9363589 106 94 87
0.064150825 -0.14968528 1.9439645 113 97 89
0.066355415 -0.1502755 1.9516299 114 91 82
0.06830704 -0.1502755 1.9516299 102 65 56
0.07025868 -0.1502755 1.9516299 101 54 41
0.072210304 -0.1502755 1.9516299 109 56 44
0.07387065 -0.14968528 1.9439645 115 62 51
0.07611357 -0.1502755 1.9516299 119 66 56
0.07831224 -0.15075107 1.957806 126 69 60
0.08001682 -0.1502755 1.9516299 113 65 53
0.08196845 -0.1502755 1.9516299 77 45 24
0.083920084 -0.1502755 1.9516299 136 82 71
0.08587171 -0.1502755 1.9516299 157 92 79
0.08782334 -0.1502755 1.9516299 159 106 92
0.08942236 -0.14968528 1.9439645 242 194 168
0.091366336 -0.14968528 1.9439645 227 203 179
0.09258301 -0.14851859 1.9288127 229 206 183
0.09306114 -0.14623894 1.899207 229 207 183
0.091722265 -0.1412523 1.8344454 145 139 128
0.09178764 -0.13858134 1.7997576 132 136 129
0.09324831 -0.13807923 1.7932367 154 164 154
0.094630115 -0.1374815 1.7854738 183 192 184
0.09606902 -0.1369873 1.779056 180 196 185
0.09749761 -0.13649666 1.7726839 180 192 183
0.09962714 -0.1369873 1.779056 183 195 187
0.10140619 -0.1369873 1.779056 186 200 192
0.102815665 -0.13649666 1.7726839 184 197 190
0.104588345 -0.13649666 1.7726839 180 192 186
0.10598145 -0.13600951 1.7663574 179 191 184
0.1077478 -0.13600951 1.7663574 173 188 178
0.10904715 -0.13542952 1.758825 151 162 155
0.110805966 -0.13542952 1.758825 155 167 160
0.112166196 -0.13494995 1.7525969 177 189 180
0.113918796 -0.13494995 1.7525969 177 186 180
0.11526324 -0.13447377 1.7464126 166 177 169
0.11700965 -0.13447377 1.7464126 151 161 154
0.118255325 -0.13390677 1.739049 148 159 152
0.11999438 -0.13390677 1.739049 175 193 184
0.12173343 -0.13390677 1.739049 169 181 173
0.123472475 -0.13390677 1.739049 170 184 176
0.12477311 -0.13343792 1.7329599 173 184 176
0.12650608 -0.13343792 1.7329599 159 169 162
0.12823904 -0.13343792 1.7329599 154 164 156
0.12997198 -0.13343792 1.7329599 160 171 163
0.13170496 -0.13343792 1.7329599 158 168 159
0.13297231 -0.13297231 1.7269133 153 162 152
0.13469924 -0.13297231 1.7269133 168 177 165
0.13642615 -0.13297231 1.7269133 169 178 167
0.13815306 -0.13297231 1.7269133 167 176 165
0.13987997 -0.13297231 1.7269133 158 166 156
0.1421027 -0.13343792 1.7329599 163 174 163
0.14383566 -0.13343792 1.7329599 161 169 159
0.14506072 -0.13297231 1.7269133 142 150 141
0.14678763 -0.13297231 1.7269133 148 155 147
0.14903454 -0.13343792 1.7329599 137 143 137
0.1507675 -0.13343792 1.7329599 131 136 131
0.15250048 -0.13343792 1.7329599 144 149 143
0.15423343 -0.13343792 1.7329599 134 140 136
0.15596639 -0.13343792 1.7329599 172 181 173
0.15769935 -0.13343792 1.7329599 171 178 172
0.1599925 -0.13390677 1.739049 173 177 172
0.16173156 -0.13390677 1.739049 181 187 177
0.16416278 -0.13447377 1.7464126 163 171 160
0.1659092 -0.13447377 1.7464126 175 181 170
0.1682493 -0.13494995 1.7525969 173 178 171
0.17256843 -0.1369873 1.779056 155 156 158
0.17911176 -0.14073068 1.8276712 165 165 158
0.19853485 -0.154416 2.0054026 183 155 107
0.22786987 -0.17545979 2.2786987 195 141 25
0.23490728 -0.17908774 2.3258147 198 137 0
0.23812832 -0.17976354 2.3345914 197 136 0
0.2404629 -0.17976354 2.3345914 197 136 0
0.24394819 -0.1806155 2.3456557 197 135 0
0.24629386 -0.1806155 2.3456557 190 134 0
0.2486395 -0.1806155 2.3456557 69 82 105
0.25098515 -0.1806155 2.3456557 42 82 144
0.2533308 -0.1806155 2.3456557 42 84 142
0.25567648 -0.1806155 2.3456557 41 82 138
0.25802213 -0.1806155 2.3456557 42 82 140
0.26036778 -0.1806155 2.3456557 40 83 140
0.26271343 -0.1806155 2.3456557 40 82 141
0.26505908 -0.1806155 2.3456557 40 82 140
0.26740476 -0.1806155 2.3456557 39 82 140
0.27077705 -0.18130289 2.354583 39 81 140
0.2731316 -0.18130289 2.354583 38 81 140
0.2754862 -0.18130289 2.354583 39 81 140
0.27678737 -0.1806155 2.3456557 39 81 140
0.27913302 -0.1806155 2.3456557 38 81 139
0.28147867 -0.1806155 2.3456557 38 81 139
0.28382435 -0.1806155 2.3456557 38 81 139
0.28725913 -0.18130289 2.354583 39 81 140
-0.33491734 -0.18141355 2.3258147 211 191 171
-0.3325915 -0.18141355 2.3258147 211 193 172
-0.32872096 -0.18056501 2.3149362 213 192 172
-0.326406 -0.18056501 2.3149362 214 196 175
-0.32409108 -0.18056501 2.3149362 215 197 175
-0.32177612 -0.18056501 2.3149362 212 194 174
-0.32096243 -0.18141355 2.3258147 211 193 171
-0.31863663 -0.18141355 2.3258147 213 192 169
-0.3163108 -0.18141355 2.3258147 215 187 160
-0.313985 -0.18141355 2.3258147 204 158 134
-0.3116592 -0.18141355 2.3258147 215 159 126
-0.30933335 -0.18141355 2.3258147 204 137 105
-0.30700755 -0.18141355 2.3258147 197 123 98
-0.30468172 -0.18141355 2.3258147 198 129 102
-0.30235592 -0.18141355 2.3258147 213 148 119
-0.30003008 -0.18141355 2.3258147 211 147 120
-0.29770428 -0.18141355 2.3258147 214 152 122
-0.29537848 -0.18141355 2.3258147 211 151 120
-0.29305264 -0.18141355 2.3258147 216 149 116
-0.29072684 -0.18141355 2.3258147 200 132 100
-0.28840104 -0.18141355 2.3258147 206 128 96
-0.28715476 -0.18209814 2.3345914 213 129 97
-0.28482017 -0.18209814 2.3345914 212 128 97
-0.28248557 -0.18209814 2.3345914 216 127 95
-0.28015098 -0.18209814 2.3345914 213 127 93
-0.27781639 -0.18209814 2.3345914 208 129 99
-0.2754818 -0.18209814 2.3345914 206 137 106
-0.2731472 -0.18209814 2.3345914 213 143 113
-0.2708126 -0.18209814 2.3345914 212 148 118
-0.268478 -0.18209814 2.3345914 220 174 150
-0.26740476 -0.18296114 2.3456557 230 188 170
-0.26505908 -0.18296114 2.3456557 214 165 141
-0.26147425 -0.18209814 2.3345914 223 186 156
-0.25913966 -0.18209814 2.3345914 215 189 163
-0.25802213 -0.18296114 2.3456557 216 195 169
-0.25567648 -0.18296114 2.3456557 217 197 171
-0.2533308 -0.18296114 2.3456557 220 198 169
-0.25098515 -0.18296114 2.3456557 232 195 172
-0.2486395 -0.18296114 2.3456557 227 199 177
-0.24629386 -0.18296114 2.3456557 221 198 177
-0.24487664 -0.18365747 2.354583 221 196 172
-0.24160254 -0.18296114 2.3456557 219 197 171
-0.23925689 -0.18296114 2.3456557 216 192 170
-0.23691122 -0.18296114 2.3456557 214 194 172
-0.23345913 -0.18209814 2.3345914 215 194 172
-0.23112454 -0.18209814 2.3345914 220 199 176
-0.22792985 -0.18141355 2.3258147 218 197 176
-0.22560403 -0.18141355 2.3258147 218 197 178
-0.22140542 -0.17989188 2.3063064 218 195 177
-0.2190991 -0.17989188 2.3063064 217 196 168
-0.2167928 -0.17989188 2.3063064 213 192 167
-0.21368988 -0.17922378 2.2977407 214 193 167
-0.21139215 -0.17922378 2.2977407 219 198 171
-0.2090944 -0.17922378 2.2977407 220 198 172
-0.20679666 -0.17922378 2.2977407 217 196 170
-0.20280418 -0.17773849 2.2786987 218 197 172
-0.19887733 -0.17627764 2.2599697 215 194 168
-0.19661736 -0.17627764 2.2599697 217 196 171
-0.19347394 -0.17547636 2.249697 217 196 169
-0.18899071 -0.17342678 2.2234201 215 194 168
-0.18234387 -0.1693193 2.1707604 215 194 168
-0.17102192 -0.16071941 2.0605052 211 194 168
-0.16054009 -0.15270886 1.957806 123 119 104
-0.15324771 -0.14757186 1.891947 114 110 95
-0.14896414 -0.14524004 1.8620517 109 104 90
-0.14710209 -0.14524004 1.8620517 109 103 90
-0.14578854 -0.14578854 1.8690836 113 107 95
-0.14391944 -0.14578854 1.8690836 114 106 96
-0.14205036 -0.14578854 1.8690836 115 106 96
-0.13965389 -0.14524004 1.8620517 109 100 91
-0.13831219 -0.14578854 1.8690836 111 98 91
-0.1354203 -0.14469565 1.8550725 81 65 57
-0.13208006 -0.14308673 1.8344454 96 82 73
-0.13073017 -0.14361905 1.8412699 99 78 70
-0.12841117 -0.14308673 1.8344454 81 51 44
-0.12657672 -0.14308673 1.8344454 78 55 46
-0.124742284 -0.14308673 1.8344454 69 45 35
-0.12146716 -0.14140953 1.8129426 88 58 52
-0.11699713 -0.13826935 1.7726839 131 113 104
-0.11224937 -0.13469924 1.7269133 147 150 133
-0.10922667 -0.13312002 1.7066667 146 148 132
-0.10752001 -0.13312002 1.7066667 131 135 122
-0.105449714 -0.13266253 1.7008018 139 143 133
-0.10374892 -0.13266253 1.7008018 149 156 148
-0.102048114 -0.13266253 1.7008018 119 124 115
-0.099935204 -0.13211772 1.693817 146 153 142
-0.09824139 -0.13211772 1.693817 134 142 131
-0.09654757 -0.13211772 1.693817 139 145 134
-0.09485375 -0.13211772 1.693817 112 118 107
-0.0928422 -0.1316671 1.68804 142 151 137
-0.09115416 -0.1316671 1.68804 133 143 128
-0.08946612 -0.1316671 1.68804 130 139 127
-0.087778084 -0.1316671 1.68804 145 153 139
-0.085739136 -0.13113044 1.6811595 118 124 113
-0.08405798 -0.13113044 1.6811595 130 139 125
-0.082376815 -0.13113044 1.6811595 146 157 144
-0.08069566 -0.13113044 1.6811595 135 146 133
-0.079014495 -0.13113044 1.6811595 113 122 111
-0.07733334 -0.13113044 1.6811595 146 152 140
-0.075652175 -0.13113044 1.6811595 127 133 124
-0.07397102 -0.13113044 1.6811595 138 148 137
-0.072289854 -0.13113044 1.6811595 138 146 137
-0.0706087 -0.13113044 1.6811595 117 121 115
-0.068927534 -0.13113044 1.6811595 129 133 124
-0.067246385 -0.13113044 1.6811595 140 146 136
-0.06556522 -0.13113044 1.6811595 137 141 131
-0.06388406 -0.13113044 1.6811595 115 122 112
-0.0622029 -0.13113044 1.6811595 144 150 137
-0.060521744 -0.13113044 1.6811595 147 153 141
-0.058840584 -0.13113044 1.6811595 134 141 130
-0.05739336 -0.1316671 1.68804 159 163 150
-0.055705324 -0.1316671 1.68804 152 156 145
-0.053797103 -0.13113044 1.6811595 149 155 144
-0.052508328 -0.13211772 1.693817 162 165 154
-0.05081451 -0.13211772 1.693817 158 163 151
-0.049120694 -0.13211772 1.693817 150 156 145
-0.047622453 -0.13266253 1.7008018 173 176 166
-0.04592165 -0.13266253 1.7008018 144 146 140
-0.04422085 -0.13266253 1.7008018 166 168 161
-0.042520046 -0.13266253 1.7008018 132 134 128
-0.04096 -0.13312002 1.7066667 149 153 144
-0.039416436 -0.13367313 1.7137581 144 148 135
-0.037833683 -0.1341376 1.7197129 151 153 142
-0.036935326 -0.13718835 1.758825 158 160 145
-0.036258854 -0.14140953 1.8129426 92 91 83
-0.035674255 -0.14645219 1.8775923 82 80 72
-0.034185726 -0.14813815 1.899207 75 73 66
-0.03241089 -0.14870879 1.9065229 74 73 65
-0.030504366 -0.14870879 1.9065229 76 73 67
-0.028819876 -0.14986336 1.9213251 83 80 74
-0.026898552 -0.14986336 1.9213251 82 80 74
-0.024977226 -0.14986336 1.9213251 79 77 71
-0.0230559 -0.14986336 1.9213251 76 74 67
-0.021134578 -0.14986336 1.9213251 78 75 68
-0.019213252 -0.14986336 1.9213251 81 79 73
-0.017291926 -0.14986336 1.9213251 79 77 71
-0.015370601 -0.14986336 1.9213251 77 75 68
-0.013501689 -0.15044738 1.9288127 78 78 70
-0.01152795 -0.14986336 1.9213251 79 78 71
-0.009606626 -0.14986336 1.9213251 76 74 67
-0.0076853004 -0.14986336 1.9213251 80 81 73
-0.005763975 -0.14986336 1.9213251 81 81 73
-0.0038576254 -0.15044738 1.9288127 81 82 75
-0.0019213251 -0.14986336 1.9213251 82 84 76
0.0 -0.14986336 1.9213251 79 81 73
0.0019213251 -0.14986336 1.9213251 80 82 75
0.0038576254 -0.15044738 1.9288127 79 80 74
0.005763975 -0.14986336 1.9213251 78 81 73
0.0076853004 -0.14986336 1.9213251 82 83 75
0.009644064 -0.15044738 1.9288127 80 82 74
0.011572876 -0.15044738 1.9288127 84 85 78
0.013501689 -0.15044738 1.9288127 85 85 79
0.015430502 -0.15044738 1.9288127 81 79 74
0.017291926 -0.14986336 1.9213251 81 81 74
0.019213252 -0.14986336 1.9213251 85 84 77
0.021134578 -0.14986336 1.9213251 77 77 70
0.0230559 -0.14986336 1.9213251 82 81 74
0.024977226 -0.14986336 1.9213251 81 79 73
0.026898552 -0.14986336 1.9213251 81 80 73
0.028819876 -0.14986336 1.9213251 82 83 76
0.030861003 -0.15044738 1.9288127 85 82 76
0.03278982 -0.15044738 1.9288127 83 81 76
0.03485446 -0.151036 1.9363589 76 76 70
0.03679082 -0.151036 1.9363589 73 74 68
0.03872718 -0.151036 1.9363589 74 76 71
0.040663537 -0.151036 1.9363589 72 74 69
0.04276722 -0.15162922 1.9439645 75 76 73
0.04471118 -0.15162922 1.9439645 74 75 70
0.04665515 -0.15162922 1.9439645 72 73 67
0.048599113 -0.15162922 1.9439645 77 78 71
0.050543077 -0.15162922 1.9439645 70 71 64
0.05248704 -0.15162922 1.9439645 79 79 74
0.054431006 -0.15162922 1.9439645 79 79 73
0.05637497 -0.15162922 1.9439645 82 78 71
0.058318935 -0.15162922 1.9439645 101 93 87
0.060500525 -0.15222713 1.9516299 97 84 76
0.061963487 -0.151036 1.9363589 111 94 87
0.063899845 -0.151036 1.9363589 109 83 77
0.06609479 -0.15162922 1.9439645 94 55 49
0.06830704 -0.15222713 1.9516299 101 52 42
0.06998272 -0.15162922 1.9439645 106 56 47
0.072210304 -0.15222713 1.9516299 114 61 54
0.07416193 -0.15222713 1.9516299 123 67 59
0.07581461 -0.15162922 1.9439645 124 67 55
0.078065194 -0.15222713 1.9516299 126 69 59
0.080270045 -0.15270886 1.957806 121 72 61
0.08164651 -0.15162922 1.9439645 82 43 24
0.08359047 -0.15162922 1.9439645 126 74 62
0.08553444 -0.15162922 1.9439645 141 84 70
0.0874784 -0.15162922 1.9439645 154 98 85
0.08942236 -0.15162922 1.9439645 174 125 110
0.091366336 -0.15162922 1.9439645 225 204 176
0.092945226 -0.151036 1.9363589 225 203 178
0.093780875 -0.14928384 1.9138954 228 205 180
0.09240727 -0.14415535 1.8481455 137 131 122
0.09246007 -0.14140953 1.8129426 137 140 132
0.09324831 -0.13987246 1.7932367 147 158 148
0.094630115 -0.13926695 1.7854738 143 153 145
0.09572493 -0.13826935 1.7726839 162 171 163
0.09749761 -0.13826935 1.7726839 140 149 142
0.09998653 -0.13926695 1.7854738 166 177 169
0.10140619 -0.13876636 1.779056 133 141 136
0.102815665 -0.13826935 1.7726839 158 169 161
0.104588345 -0.13826935 1.7726839 158 171 163
0.10598145 -0.13777588 1.7663574 151 161 153
0.1077478 -0.13777588 1.7663574 154 164 157
0.10904715 -0.13718835 1.758825 138 147 141
0.110805966 -0.13718835 1.758825 146 155 149
0.11177041 -0.13622019 1.7464126 141 148 143
0.11351682 -0.13622019 1.7464126 124 130 126
0.11526324 -0.13622019 1.7464126 129 135 131
0.116516285 -0.1356458 1.739049 157 167 161
0.118255325 -0.1356458 1.739049 146 155 149
0.11999438 -0.1356458 1.739049 155 168 161
0.12173343 -0.1356458 1.739049 157 168 160
0.123040155 -0.13517086 1.7329599 139 148 141
0.12477311 -0.13517086 1.7329599 149 159 152
0.12650608 -0.13517086 1.7329599 167 178 170
0.12823904 -0.13517086 1.7329599 139 148 141
0.1295185 -0.13469924 1.7269133 142 150 143
0.1312454 -0.13469924 1.7269133 154 162 154
0.13297231 -0.13469924 1.7269133 122 128 120
0.13469924 -0.13469924 1.7269133 125 130 124
0.13642615 -0.13469924 1.7269133 128 134 126
0.13815306 -0.13469924 1.7269133 102 106 100
0.13987997 -0.13469924 1.7269133 121 127 119
0.14160688 -0.13469924 1.7269133 126 132 123
0.14333381 -0.13469924 1.7269133 119 126 118
0.14506072 -0.13469924 1.7269133 142 148 138
0.14678763 -0.13469924 1.7269133 153 160 152
0.14851454 -0.13469924 1.7269133 141 145 139
0.15024145 -0.13469924 1.7269133 129 131 127
0.15196837 -0.13469924 1.7269133 127 132 126
0.15369529 -0.13469924 1.7269133 112 116 112
0.1554222 -0.13469924 1.7269133 123 127 123
0.15769935 -0.13517086 1.7329599 128 132 128
0.1594323 -0.13517086 1.7329599 136 140 134
0.16173156 -0.1356458 1.739049 160 163 156
0.1634706 -0.1356458 1.739049 164 169 162
0.16520965 -0.1356458 1.739049 183 188 184
0.1682493 -0.13670257 1.7525969 162 164 153
0.17256843 -0.13876636 1.779056 171 174 176
0.18044445 -0.14361905 1.8412699 172 159 143
0.20081313 -0.1582164 2.0284154 195 152 75
0.22871228 -0.17839557 2.2871227 197 140 1
0.23490728 -0.18141355 2.3258147 195 137 0
0.23812832 -0.18209814 2.3345914 196 136 0
0.2404629 -0.18209814 2.3345914 196 136 0
0.24394819 -0.18296114 2.3456557 196 136 0
0.24629386 -0.18296114 2.3456557 188 134 0
0.2486395 -0.18296114 2.3456557 67 82 108
0.25098515 -0.18296114 2.3456557 42 82 143
0.2533308 -0.18296114 2.3456557 42 83 142
0.25567648 -0.18296114 2.3456557 41 83 137
0.25802213 -0.18296114 2.3456557 40 83 140
0.26036778 -0.18296114 2.3456557 41 82 141
0.26271343 -0.18296114 2.3456557 40 82 141
0.26505908 -0.18296114 2.3456557 40 82 141
0.26740476 -0.18296114 2.3456557 38 82 140
0.2697504 -0.18296114 2.3456557 38 81 140
0.27209607 -0.18296114 2.3456557 39 81 140
0.27444172 -0.18296114 2.3456557 39 81 140
0.27678737 -0.18296114 2.3456557 38 81 140
0.27913302 -0.18296114 2.3456557 38 81 139
0.28147867 -0.18296114 2.3456557 38 81 139
0.28382435 -0.18296114 2.3456557 38 81 139
0.28725913 -0.18365747 2.354583 39 82 141
0.2896137 -0.18365747 2.354583 7 46 104
0.2919683 -0.18365747 2.354583 9 43 106
0.29432288 -0.18365747 2.354583 10 50 105
0.29667747 -0.18365747 2.354583 56 97 104
0.29903203 -0.18365747 2.354583 53 107 66
0.30138662 -0.18365747 2.354583 56 116 67
-0.33491734 -0.18373936 2.3258147 210 193 172
-0.3325915 -0.18373936 2.3258147 209 194 172
-0.3302657 -0.18373936 2.3258147 213 193 172
-0.32793987 -0.18373936 2.3258147 210 192 171
-0.32409108 -0.18287995 2.3149362 208 190 170
-0.32177612 -0.18287995 2.3149362 210 191 170
-0.32096243 -0.18373936 2.3258147 213 194 172
-0.31863663 -0.18373936 2.3258147 211 193 172
-0.3163108 -0.18373936 2.3258147 214 194 171
-0.313985 -0.18373936 2.3258147 216 194 172
-0.3116592 -0.18373936 2.3258147 215 193 169
-0.3078865 -0.18287995 2.3149362 221 198 169
-0.30557156 -0.18287995 2.3149362 228 196 169
-0.30325663 -0.18287995 2.3149362 221 192 169
-0.3009417 -0.18287995 2.3149362 220 198 175
-0.29862678 -0.18287995 2.3149362 225 196 176
-0.29631183 -0.18287995 2.3149362 218 196 174
-0.29537848 -0.18373936 2.3258147 215 197 174
-0.29168195 -0.18287995 2.3149362 218 195 172
-0.28936702 -0.18287995 2.3149362 228 198 173
-0.2870521 -0.18287995 2.3149362 227 191 163
-0.28607523 -0.18373936 2.3258147 218 178 151
-0.2837494 -0.18373936 2.3258147 223 182 153
-0.2814236 -0.18373936 2.3258147 224 175 144
-0.27909777 -0.18373936 2.3258147 216 170 142
-0.27677193 -0.18373936 2.3258147 227 192 165
-0.27444613 -0.18373936 2.3258147 219 192 169
-0.27212033 -0.18373936 2.3258147 219 190 171
-0.2697945 -0.18373936 2.3258147 229 196 175
-0.2674687 -0.18373936 2.3258147 225 174 151
-0.2651429 -0.18373936 2.3258147 205 131 105
-0.26281708 -0.18373936 2.3258147 198 119 83
-0.26049125 -0.18373936 2.3258147 209 135 91
-0.25816545 -0.18373936 2.3258147 206 136 103
-0.25680506 -0.18443273 2.3345914 224 156 126
-0.25447047 -0.18443273 2.3345914 222 157 124
-0.25213587 -0.18443273 2.3345914 198 131 97
-0.24980128 -0.18443273 2.3345914 193 120 90
-0.24746668 -0.18443273 2.3345914 204 134 107
-0.24513209 -0.18443273 2.3345914 211 144 119
-0.24394819 -0.18530679 2.3456557 226 151 121
-0.24160254 -0.18530679 2.3456557 199 130 99
-0.23812832 -0.18443273 2.3345914 221 154 121
-0.23490728 -0.18373936 2.3258147 224 165 137
-0.23258147 -0.18373936 2.3258147 225 162 135
-0.22917868 -0.18287995 2.3149362 226 165 127
-0.22686374 -0.18287995 2.3149362 211 160 129
-0.22371171 -0.1821982 2.3063064 225 183 153
-0.2205831 -0.18152152 2.2977407 220 190 163
-0.2190991 -0.1821982 2.3063064 216 190 164
-0.21598762 -0.18152152 2.2977407 214 190 163
-0.21270241 -0.18068269 2.2871227 219 196 168
-0.21041529 -0.18068269 2.2871227 219 198 171
-0.20812817 -0.18068269 2.2871227 217 197 169
-0.20508288 -0.1800172 2.2786987 217 196 169
-0.20187475 -0.17919219 2.2682555 218 196 171
-0.19887733 -0.1785376 2.2599697 219 198 172
-0.19572364 -0.17772606 2.249697 217 196 169
-0.19207703 -0.17644285 2.2334538 217 196 169
-0.18899071 -0.1756502 2.2234201 216 195 169
-0.1844472 -0.1734682 2.1958 216 195 169
-0.1751043 -0.16666554 2.1096904 217 199 172
-0.16565117 -0.15959077 2.020136 163 154 134
-0.15746112 -0.1535732 1.9439645 123 117 102
-0.15020739 -0.1483298 1.8775923 111 104 90
-0.1483298 -0.1483298 1.8775923 100 94 82
-0.14578854 -0.1476576 1.8690836 99 91 81
-0.14391944 -0.1476576 1.8690836 93 85 75
-0.14269702 -0.1483298 1.8775923 89 79 69
-0.14081943 -0.1483298 1.8775923 80 68 58
-0.13894184 -0.1483298 1.8775923 80 65 55
-0.13592978 -0.14710209 1.8620517 72 56 45
-0.13257143 -0.14546031 1.8412699 193 167 149
-0.13073017 -0.14546031 1.8412699 108 87 78
-0.12888889 -0.14546031 1.8412699 93 59 53
-0.12704763 -0.14546031 1.8412699 83 56 48
-0.12520635 -0.14546031 1.8412699 70 46 36
-0.12245397 -0.14438602 1.8276712 89 59 53
-0.11835362 -0.1416657 1.7932367 113 89 83
-0.11303818 -0.13738488 1.739049 145 149 131
-0.10885132 -0.13436334 1.7008018 148 149 132
-0.10715051 -0.13436334 1.7008018 142 145 130
-0.105449714 -0.13436334 1.7008018 137 142 128
-0.10374892 -0.13436334 1.7008018 136 143 129
-0.10162902 -0.13381153 1.693817 135 143 130
-0.099935204 -0.13381153 1.693817 143 153 143
-0.09824139 -0.13381153 1.693817 117 124 115
-0.09654757 -0.13381153 1.693817 142 151 137
-0.09453024 -0.13335517 1.68804 127 136 124
-0.0928422 -0.13335517 1.68804 145 155 141
-0.09115416 -0.13335517 1.68804 138 148 137
-0.089101456 -0.1328116 1.6811595 115 120 112
