ply
format ascii 1.0
element vertex 1087
property float32 x
property float32 y
property float32 z
property uchar red
property uchar green
property uchar blue
element face 0
property list uint8 int32 vertex_indices
end_header
-0.18851084 -0.2605885 1.8481455 152 132 111
-0.18736231 -0.2615652 1.8550725 150 131 110
-0.18550725 -0.2615652 1.8550725 149 129 109
-0.18365218 -0.2615652 1.8550725 145 128 108
-0.1817971 -0.2615652 1.8550725 147 128 107
-0.17994203 -0.2615652 1.8550725 139 121 103
-0.17742197 -0.2605885 1.8481455 139 121 102
-0.17623189 -0.2615652 1.8550725 141 121 103
-0.17437682 -0.2615652 1.8550725 137 120 102
-0.1731708 -0.26254928 1.8620517 145 125 106
-0.17130876 -0.26254928 1.8620517 144 126 107
-0.1694467 -0.26254928 1.8620517 149 130 109
-0.16758466 -0.26254928 1.8620517 144 127 107
-0.16572261 -0.26254928 1.8620517 145 126 107
-0.16324638 -0.2615652 1.8550725 144 127 107
-0.16139132 -0.2615652 1.8550725 137 121 101
-0.15894051 -0.2605885 1.8481455 136 117 99
-0.15709236 -0.2605885 1.8481455 143 122 104
-0.15466668 -0.25961906 1.8412699 143 124 104
-0.15339607 -0.2605885 1.8481455 135 116 99
-0.14986904 -0.25770164 1.8276712 130 112 96
-0.14196034 -0.24711615 1.7525969 97 83 69
-0.13710065 -0.2416399 1.7137581 89 78 71
-0.13538688 -0.2416399 1.7137581 83 72 68
-0.13312002 -0.24064 1.7066667 81 72 69
-0.13096175 -0.23981306 1.7008018 78 68 64
-0.12873009 -0.2388282 1.693817 77 67 66
-0.12703627 -0.2388282 1.693817 74 66 64
-0.12491496 -0.23801364 1.68804 76 67 66
-0.12322692 -0.23801364 1.68804 72 63 62
-0.12104349 -0.23704349 1.6811595 74 65 63
-0.119362324 -0.23704349 1.6811595 72 63 63
-0.11768117 -0.23704349 1.6811595 73 66 64
-0.116000004 -0.23704349 1.6811595 71 63 63
-0.11431885 -0.23704349 1.6811595 70 62 62
-0.11263769 -0.23704349 1.6811595 68 61 60
-0.11095653 -0.23704349 1.6811595 68 59 59
-0.10927537 -0.23704349 1.6811595 64 57 57
-0.10759421 -0.23704349 1.6811595 67 58 56
-0.10591305 -0.23704349 1.6811595 65 57 53
-0.10423189 -0.23704349 1.6811595 67 58 57
-0.10104061 -0.23355289 1.6564034 76 67 63
-0.09511852 -0.22352852 1.5853087 120 115 105
-0.09211694 -0.22014385 1.561304 149 149 134
-0.09027087 -0.21945158 1.5563942 149 148 134
-0.08871447 -0.21945158 1.5563942 149 146 132
-0.086830415 -0.21862657 1.5505431 148 144 130
-0.08527987 -0.21862657 1.5505431 141 135 123
-0.08372933 -0.21862657 1.5505431 136 125 112
-0.08217878 -0.21862657 1.5505431 131 113 98
-0.08032627 -0.21780774 1.5447358 135 102 85
-0.07878152 -0.21780774 1.5447358 135 96 76
-0.07723679 -0.21780774 1.5447358 139 95 73
-0.07540962 -0.21699505 1.5389719 143 98 71
-0.07332346 -0.21538764 1.527572 154 103 73
-0.07179588 -0.21538764 1.527572 160 105 78
-0.07026831 -0.21538764 1.527572 166 107 85
-0.06874074 -0.21538764 1.527572 170 111 83
-0.06696515 -0.21459286 1.5219352 171 113 82
-0.06544322 -0.21459286 1.5219352 173 115 84
-0.06372532 -0.21393502 1.5172696 180 119 88
-0.062208053 -0.21393502 1.5172696 184 122 93
-0.060690783 -0.21393502 1.5172696 185 125 97
-0.059173517 -0.21393502 1.5172696 190 128 100
-0.057656247 -0.21393502 1.5172696 192 131 99
-0.056138977 -0.21393502 1.5172696 196 132 101
-0.054421507 -0.21315089 1.5117085 195 131 102
-0.053104434 -0.21393502 1.5172696 196 133 104
-0.051587164 -0.21393502 1.5172696 197 134 104
-0.04988638 -0.21315089 1.5117085 198 135 102
-0.04837467 -0.21315089 1.5117085 201 138 104
-0.04703536 -0.21393502 1.5172696 204 138 107
-0.04551809 -0.21393502 1.5172696 207 140 108
-0.04400082 -0.21393502 1.5172696 209 141 110
-0.04248355 -0.21393502 1.5172696 210 142 112
-0.04096628 -0.21393502 1.5172696 213 142 112
-0.03944901 -0.21393502 1.5172696 213 142 114
-0.03793174 -0.21393502 1.5172696 213 142 114
-0.03641447 -0.21393502 1.5172696 213 142 114
-0.0348972 -0.21393502 1.5172696 210 142 113
-0.033482574 -0.21459286 1.5219352 209 140 112
-0.03196064 -0.21459286 1.5219352 209 141 111
-0.030551441 -0.21538764 1.527572 198 134 105
-0.029131765 -0.21618837 1.5332508 159 114 93
-0.02894347 -0.22672385 1.6079706 96 75 62
-0.029357526 -0.24349478 1.7269133 75 57 46
-0.028691787 -0.25284636 1.7932367 72 57 50
-0.026996365 -0.25376582 1.7997576 70 55 48
-0.025288567 -0.254692 1.8063262 72 55 49
-0.02348224 -0.254692 1.8063262 64 47 40
-0.021851363 -0.2567535 1.8209468 65 48 41
-0.020030415 -0.2567535 1.8209468 69 54 47
-0.018276712 -0.25770164 1.8276712 82 65 60
-0.016449042 -0.25770164 1.8276712 93 78 72
-0.0145675745 -0.2567535 1.8209468 94 79 72
-0.012746627 -0.2567535 1.8209468 97 82 74
-0.010925681 -0.2567535 1.8209468 93 77 69
-0.009104734 -0.2567535 1.8209468 93 79 67
-0.0072837872 -0.2567535 1.8209468 88 73 64
-0.0054830136 -0.25770164 1.8276712 83 69 60
-0.0036553424 -0.25770164 1.8276712 74 58 51
-0.0018276712 -0.25770164 1.8276712 77 62 54
0.0 -0.25770164 1.8276712 76 60 52
0.0018276712 -0.25770164 1.8276712 75 57 49
0.0036553424 -0.25770164 1.8276712 73 55 47
0.0054830136 -0.25770164 1.8276712 72 55 47
0.007310685 -0.25770164 1.8276712 73 55 48
0.009138356 -0.25770164 1.8276712 71 54 48
0.010966027 -0.25770164 1.8276712 71 55 50
0.012793698 -0.25770164 1.8276712 73 57 51
0.01462137 -0.25770164 1.8276712 72 59 51
0.016449042 -0.25770164 1.8276712 72 57 51
0.018276712 -0.25770164 1.8276712 76 59 52
0.020104384 -0.25770164 1.8276712 75 61 52
0.021932054 -0.25770164 1.8276712 78 63 55
0.023759726 -0.25770164 1.8276712 75 62 54
0.025587397 -0.25770164 1.8276712 76 63 55
0.027415067 -0.25770164 1.8276712 77 61 55
0.02924274 -0.25770164 1.8276712 78 62 56
0.03107041 -0.25770164 1.8276712 79 64 57
0.03277704 -0.2567535 1.8209468 77 62 56
0.034725755 -0.25770164 1.8276712 73 60 53
0.036553424 -0.25770164 1.8276712 70 56 50
0.038381096 -0.25770164 1.8276712 64 52 46
0.0403578 -0.2586568 1.8344454 62 49 45
0.042036436 -0.25770164 1.8276712 65 51 47
0.043702725 -0.2567535 1.8209468 59 43 41
0.04552367 -0.2567535 1.8209468 55 42 38
0.047344618 -0.2567535 1.8209468 51 39 35
0.049165566 -0.2567535 1.8209468 48 34 32
0.05136447 -0.2586568 1.8344454 42 32 29
0.053198915 -0.2586568 1.8344454 45 37 35
0.054830134 -0.25770164 1.8276712 65 59 57
0.056449354 -0.2567535 1.8209468 45 38 39
0.058270298 -0.2567535 1.8209468 43 37 39
0.059827108 -0.25562492 1.8129426 42 34 37
0.06164005 -0.25562492 1.8129426 46 38 39
0.06322142 -0.254692 1.8063262 39 31 34
0.06502774 -0.254692 1.8063262 40 31 35
0.06683407 -0.254692 1.8063262 43 34 35
0.068640396 -0.254692 1.8063262 42 36 35
0.070446715 -0.254692 1.8063262 49 43 42
0.0719903 -0.25376582 1.7997576 61 55 54
0.07379006 -0.25376582 1.7997576 65 59 59
0.07558982 -0.25376582 1.7997576 50 41 43
0.07738958 -0.25376582 1.7997576 47 41 42
0.079478346 -0.254692 1.8063262 48 42 42
0.08098909 -0.25376582 1.7997576 49 42 43
0.082488894 -0.25284636 1.7932367 49 42 43
0.08428213 -0.25284636 1.7932367 48 40 42
0.086388364 -0.25376582 1.7997576 46 41 42
0.08818813 -0.25376582 1.7997576 47 40 42
0.08966184 -0.25284636 1.7932367 47 40 42
0.09145507 -0.25284636 1.7932367 47 41 43
0.09324831 -0.25284636 1.7932367 48 41 44
0.09504155 -0.25284636 1.7932367 46 40 41
0.096834786 -0.25284636 1.7932367 47 41 42
0.09862802 -0.25284636 1.7932367 47 41 43
0.10042126 -0.25284636 1.7932367 48 40 42
0.10258618 -0.25376582 1.7997576 47 41 42
0.10438594 -0.25376582 1.7997576 48 42 44
0.1061857 -0.25376582 1.7997576 50 42 44
0.10798546 -0.25376582 1.7997576 50 44 45
0.10938744 -0.25284636 1.7932367 50 45 45
0.109906405 -0.24994843 1.7726839 51 46 46
0.10879554 -0.24349478 1.7269133 59 51 46
0.10257686 -0.22598964 1.6027634 118 114 105
0.10265051 -0.22267264 1.5792385 83 76 69
0.10463037 -0.22352852 1.5853087 60 49 43
0.104607366 -0.22014385 1.561304 59 43 37
0.10504203 -0.21780774 1.5447358 125 94 78
0.106189065 -0.21699505 1.5389719 145 100 78
0.107728034 -0.21699505 1.5389719 154 102 84
0.109267004 -0.21699505 1.5389719 164 107 89
0.11039406 -0.21618837 1.5332508 180 119 95
0.11192731 -0.21618837 1.5332508 194 130 107
0.113460556 -0.21618837 1.5332508 205 135 112
0.1145679 -0.21538764 1.527572 209 138 114
0.116095476 -0.21538764 1.527572 209 140 115
0.117623046 -0.21538764 1.527572 211 141 115
0.11871094 -0.21459286 1.5219352 214 144 118
0.12023288 -0.21459286 1.5219352 216 148 121
0.121754825 -0.21459286 1.5219352 218 145 119
0.123276755 -0.21459286 1.5219352 218 147 119
0.12479869 -0.21459286 1.5219352 221 147 121
0.12593338 -0.21393502 1.5172696 222 149 122
0.12745064 -0.21393502 1.5172696 223 149 122
0.12936449 -0.21459286 1.5219352 221 149 123
0.1313712 -0.21538764 1.527572 219 148 122
0.13289878 -0.21538764 1.527572 221 148 122
0.13442634 -0.21538764 1.527572 219 147 122
0.13595392 -0.21538764 1.527572 217 146 120
0.13748148 -0.21538764 1.527572 215 147 120
0.13900904 -0.21538764 1.527572 216 147 120
0.14053662 -0.21538764 1.527572 215 146 121
0.1420642 -0.21538764 1.527572 213 146 119
0.14412558 -0.21618837 1.5332508 209 145 119
0.14620233 -0.21699505 1.5389719 204 143 123
0.14829463 -0.21780774 1.5447358 186 132 106
0.15377495 -0.22352852 1.5853087 158 128 114
0.15758112 -0.22672385 1.6079706 184 164 145
0.16837938 -0.23981306 1.7008018 204 179 164
0.18344453 -0.2586568 1.8344454 213 188 172
0.18877745 -0.2635408 1.8690836 218 194 173
0.19224373 -0.26574868 1.8847424 219 192 170
0.19339201 -0.2647405 1.8775923 214 191 169
0.19438471 -0.2635408 1.8690836 214 190 168
0.1971472 -0.2647405 1.8775923 220 193 171
0.1997827 -0.26574868 1.8847424 216 192 170
0.20090237 -0.2647405 1.8775923 217 193 171
0.20277996 -0.2647405 1.8775923 218 193 172
0.20465757 -0.2647405 1.8775923 214 191 169
0.20653516 -0.2647405 1.8775923 215 192 171
0.20841275 -0.2647405 1.8775923 218 194 172
0.21029034 -0.2647405 1.8775923 213 190 169
0.21216793 -0.2647405 1.8775923 214 190 171
0.21404554 -0.2647405 1.8775923 211 186 166
0.21592312 -0.2647405 1.8775923 213 189 168
0.2178007 -0.2647405 1.8775923 211 187 166
0.2196783 -0.2647405 1.8775923 215 194 172
0.22155589 -0.2647405 1.8775923 216 192 171
0.22428435 -0.26574868 1.8847424 218 192 172
0.22616908 -0.26574868 1.8847424 206 181 162
0.22805384 -0.26574868 1.8847424 198 175 156
0.22993857 -0.26574868 1.8847424 204 181 161
0.23182333 -0.26574868 1.8847424 208 182 162
0.23370805 -0.26574868 1.8847424 210 184 163
0.2355928 -0.26574868 1.8847424 202 178 158
0.23747754 -0.26574868 1.8847424 207 181 161
0.23936228 -0.26574868 1.8847424 212 185 167
0.24124703 -0.26574868 1.8847424 214 188 170
0.24313176 -0.26574868 1.8847424 216 190 172
0.24501652 -0.26574868 1.8847424 216 190 174
0.24690124 -0.26574868 1.8847424 217 193 175
0.248786 -0.26574868 1.8847424 214 188 172
0.25067073 -0.26574868 1.8847424 214 190 174
0.2525555 -0.26574868 1.8847424 219 194 179
0.25444022 -0.26574868 1.8847424 217 193 177
0.25535256 -0.2647405 1.8775923 216 192 175
0.25723016 -0.2647405 1.8775923 216 192 176
0.25910774 -0.2647405 1.8775923 218 194 177
0.2609853 -0.2647405 1.8775923 189 168 154
0.26286292 -0.2647405 1.8775923 202 180 165
0.2647405 -0.2647405 1.8775923 222 197 181
0.2666181 -0.2647405 1.8775923 216 192 176
0.26727897 -0.2635408 1.8690836 217 193 175
-0.26914805 -0.2654099 1.8690836 127 100 72
-0.26727897 -0.2654099 1.8690836 124 98 70
-0.2654099 -0.2654099 1.8690836 125 97 72
-0.2635408 -0.2654099 1.8690836 122 95 70
-0.26167172 -0.2654099 1.8690836 122 96 70
-0.2598026 -0.2654099 1.8690836 119 94 68
-0.25793353 -0.2654099 1.8690836 111 88 61
-0.25606444 -0.2654099 1.8690836 115 91 66
-0.25419536 -0.2654099 1.8690836 113 90 64
-0.25232628 -0.2654099 1.8690836 117 93 66
-0.24951494 -0.26441136 1.8620517 111 87 58
-0.24765287 -0.26441136 1.8620517 108 85 56
-0.24579084 -0.26441136 1.8620517 114 90 63
-0.24392878 -0.26441136 1.8620517 113 89 63
-0.24206673 -0.26441136 1.8620517 113 90 64
-0.24020466 -0.26441136 1.8620517 113 90 63
-0.23834263 -0.26441136 1.8620517 108 84 58
-0.23648058 -0.26441136 1.8620517 113 89 64
-0.23461851 -0.26441136 1.8620517 110 86 62
-0.23275647 -0.26441136 1.8620517 111 87 61
-0.23089442 -0.26441136 1.8620517 111 87 61
-0.22903237 -0.26441136 1.8620517 115 89 63
-0.2271703 -0.26441136 1.8620517 113 87 61
-0.22530825 -0.26441136 1.8620517 117 91 64
-0.22344622 -0.26441136 1.8620517 121 95 69
-0.22075363 -0.26342028 1.8550725 120 98 78
-0.21889856 -0.26342028 1.8550725 149 125 103
-0.21704349 -0.26342028 1.8550725 155 134 114
-0.21518841 -0.26342028 1.8550725 152 133 115
-0.21333334 -0.26342028 1.8550725 150 130 113
-0.21147828 -0.26342028 1.8550725 153 135 116
-0.2096232 -0.26342028 1.8550725 157 136 118
-0.2069923 -0.26243666 1.8481455 151 133 114
-0.20591304 -0.26342028 1.8550725 154 135 117
-0.20405796 -0.26342028 1.8550725 149 132 114
-0.2022029 -0.26342028 1.8550725 149 131 112
-0.19959971 -0.26243666 1.8481455 147 128 108
-0.19775157 -0.26243666 1.8481455 146 129 109
-0.19590342 -0.26243666 1.8481455 150 130 110
-0.19405529 -0.26243666 1.8481455 145 126 107
-0.19220713 -0.26243666 1.8481455 150 130 110
-0.19107246 -0.26342028 1.8550725 153 133 112
-0.18851084 -0.26243666 1.8481455 147 127 108
-0.18666269 -0.26243666 1.8481455 147 129 109
-0.18481454 -0.26243666 1.8481455 146 128 108
-0.1829664 -0.26243666 1.8481455 151 132 110
-0.18111825 -0.26243666 1.8481455 144 125 105
-0.17927012 -0.26243666 1.8481455 143 126 106
-0.17742197 -0.26243666 1.8481455 140 122 103
-0.17623189 -0.26342028 1.8550725 142 123 103
-0.17437682 -0.26342028 1.8550725 135 118 99
-0.17187753 -0.26243666 1.8481455 141 124 104
-0.17066666 -0.26342028 1.8550725 144 125 106
-0.1688116 -0.26342028 1.8550725 144 127 107
-0.16695653 -0.26342028 1.8550725 141 125 106
-0.16510145 -0.26342028 1.8550725 143 126 107
-0.16324638 -0.26342028 1.8550725 138 121 104
-0.16139132 -0.26342028 1.8550725 136 120 100
-0.15834922 -0.26146033 1.8412699 137 119 100
-0.15650794 -0.26146033 1.8412699 138 119 100
-0.15409341 -0.26049125 1.8344454 138 119 101
-0.1528254 -0.26146033 1.8412699 129 111 95
-0.14931764 -0.25857443 1.8209468 128 111 95
-0.14246482 -0.24975315 1.758825 95 82 69
-0.13710065 -0.24335365 1.7137581 89 76 69
-0.13482668 -0.24234667 1.7066667 83 72 69
-0.13312002 -0.24234667 1.7066667 82 71 68
-0.13096175 -0.24151385 1.7008018 80 71 68
-0.12873009 -0.24052201 1.693817 77 67 66
-0.12703627 -0.24052201 1.693817 75 65 65
-0.12491496 -0.23970167 1.68804 75 65 65
-0.12322692 -0.23970167 1.68804 75 65 64
-0.12104349 -0.23872465 1.6811595 74 65 62
-0.119362324 -0.23872465 1.6811595 72 64 63
-0.11768117 -0.23872465 1.6811595 72 63 63
-0.116000004 -0.23872465 1.6811595 69 61 61
-0.11431885 -0.23872465 1.6811595 69 61 62
-0.11263769 -0.23872465 1.6811595 68 60 61
-0.11095653 -0.23872465 1.6811595 66 58 57
-0.10927537 -0.23872465 1.6811595 65 58 59
-0.10759421 -0.23872465 1.6811595 66 58 57
-0.10591305 -0.23872465 1.6811595 65 59 55
-0.10423189 -0.23872465 1.6811595 66 58 56
-0.10104061 -0.23520929 1.6564034 75 67 62
-0.09511852 -0.22511382 1.5853087 117 111 103
-0.092466965 -0.2225476 1.5672367 150 147 133
-0.09027087 -0.22100797 1.5563942 150 147 133
-0.08871447 -0.22100797 1.5563942 147 145 131
-0.086830415 -0.22017711 1.5505431 139 135 122
-0.08527987 -0.22017711 1.5505431 128 123 112
-0.08372933 -0.22017711 1.5505431 129 111 95
-0.08217878 -0.22017711 1.5505431 125 100 81
-0.08032627 -0.21935248 1.5447358 134 93 74
-0.07878152 -0.21935248 1.5447358 141 94 73
-0.07723679 -0.21935248 1.5447358 151 98 76
-0.07540962 -0.21853401 1.5389719 159 105 80
-0.07332346 -0.21691522 1.527572 165 108 82
-0.07179588 -0.21691522 1.527572 169 110 83
-0.07026831 -0.21691522 1.527572 170 112 82
-0.068487085 -0.2161148 1.5219352 174 113 80
-0.06696515 -0.2161148 1.5219352 173 114 80
-0.06524259 -0.21545228 1.5172696 175 118 83
-0.06372532 -0.21545228 1.5172696 181 120 87
-0.062208053 -0.21545228 1.5172696 185 122 91
-0.060690783 -0.21545228 1.5172696 186 123 95
-0.059173517 -0.21545228 1.5172696 189 125 100
-0.057656247 -0.21545228 1.5172696 192 126 98
-0.056138977 -0.21545228 1.5172696 194 129 101
-0.054621704 -0.21545228 1.5172696 194 128 104
-0.0529098 -0.21466261 1.5117085 193 130 100
-0.051587164 -0.21545228 1.5172696 195 132 102
-0.04988638 -0.21466261 1.5117085 197 134 101
-0.04837467 -0.21466261 1.5117085 199 135 102
-0.046862964 -0.21466261 1.5117085 203 136 104
-0.045351252 -0.21466261 1.5117085 206 137 107
-0.043839548 -0.21466261 1.5117085 208 139 109
-0.04232784 -0.21466261 1.5117085 211 142 110
-0.04081613 -0.21466261 1.5117085 212 142 112
-0.03930442 -0.21466261 1.5117085 213 142 114
-0.03793174 -0.21545228 1.5172696 214 143 114
-0.03641447 -0.21545228 1.5172696 214 143 115
-0.0348972 -0.21545228 1.5172696 214 143 114
-0.03337993 -0.21545228 1.5172696 214 143 114
-0.03186266 -0.21545228 1.5172696 217 145 115
-0.030438706 -0.2161148 1.5219352 207 140 109
-0.029023869 -0.21691522 1.527572 172 121 99
-0.028535556 -0.22511382 1.5853087 107 85 72
-0.029235119 -0.24419922 1.7197129 77 59 47
-0.028691787 -0.25463963 1.7932367 77 59 53
-0.026996365 -0.25556558 1.7997576 75 57 52
-0.025288567 -0.2564983 1.8063262 75 59 52
-0.02348224 -0.2564983 1.8063262 78 62 54
-0.021755312 -0.25743786 1.8129426 78 61 53
-0.01994237 -0.25743786 1.8129426 81 64 56
-0.018209469 -0.25857443 1.8209468 94 77 71
-0.01638852 -0.25857443 1.8209468 99 84 77
-0.014503541 -0.25743786 1.8129426 97 82 73
-0.012690598 -0.25743786 1.8129426 96 81 73
-0.010877656 -0.25743786 1.8129426 93 79 71
-0.0090647135 -0.25743786 1.8129426 89 73 64
-0.0072517707 -0.25743786 1.8129426 81 65 56
-0.0054628407 -0.25857443 1.8209468 79 63 55
-0.0036418936 -0.25857443 1.8209468 73 57 50
-0.0018209468 -0.25857443 1.8209468 77 62 53
0.0 -0.25857443 1.8209468 78 62 55
0.0018209468 -0.25857443 1.8209468 75 60 50
0.0036418936 -0.25857443 1.8209468 73 57 47
0.0054628407 -0.25857443 1.8209468 71 53 46
0.0072837872 -0.25857443 1.8209468 71 53 47
0.009104734 -0.25857443 1.8209468 70 53 46
0.010925681 -0.25857443 1.8209468 70 54 48
0.012746627 -0.25857443 1.8209468 74 58 52
0.0145675745 -0.25857443 1.8209468 76 60 54
0.01638852 -0.25857443 1.8209468 77 61 54
0.018209469 -0.25857443 1.8209468 77 61 53
0.020030415 -0.25857443 1.8209468 78 63 54
0.021851363 -0.25857443 1.8209468 79 64 56
0.023672309 -0.25857443 1.8209468 76 62 54
0.025493255 -0.25857443 1.8209468 79 64 55
0.027314201 -0.25857443 1.8209468 79 64 57
0.029135149 -0.25857443 1.8209468 79 65 58
0.030956097 -0.25857443 1.8209468 80 66 59
0.03277704 -0.25857443 1.8209468 76 62 55
0.034725755 -0.2595293 1.8276712 76 61 54
0.036553424 -0.2595293 1.8276712 77 63 57
0.038381096 -0.2595293 1.8276712 73 58 51
0.04006083 -0.25857443 1.8209468 69 54 49
0.041881774 -0.25857443 1.8209468 69 54 50
0.04386411 -0.2595293 1.8276712 70 56 53
0.04569178 -0.2595293 1.8276712 67 55 52
0.047136508 -0.25743786 1.8129426 61 50 46
0.049165566 -0.25857443 1.8209468 58 46 42
0.05136447 -0.26049125 1.8344454 53 43 39
0.053002466 -0.2595293 1.8276712 48 39 37
0.054830134 -0.2595293 1.8276712 65 58 57
0.056449354 -0.25857443 1.8209468 47 40 40
0.058014166 -0.25743786 1.8129426 41 34 35
0.059827108 -0.25743786 1.8129426 43 34 37
0.06164005 -0.25743786 1.8129426 47 38 40
0.06322142 -0.2564983 1.8063262 38 32 35
0.06502774 -0.2564983 1.8063262 38 32 35
0.06683407 -0.2564983 1.8063262 41 32 32
0.068640396 -0.2564983 1.8063262 43 35 35
0.070446715 -0.2564983 1.8063262 56 49 49
0.0719903 -0.25556558 1.7997576 60 52 53
0.07379006 -0.25556558 1.7997576 56 49 50
0.07558982 -0.25556558 1.7997576 46 40 41
0.07738958 -0.25556558 1.7997576 49 42 44
0.07918933 -0.25556558 1.7997576 49 42 45
0.08098909 -0.25556558 1.7997576 49 41 43
0.082488894 -0.25463963 1.7932367 48 41 43
0.08428213 -0.25463963 1.7932367 47 41 42
0.086388364 -0.25556558 1.7997576 48 40 43
0.0878686 -0.25463963 1.7932367 47 41 42
0.08966184 -0.25463963 1.7932367 49 40 43
0.09145507 -0.25463963 1.7932367 48 40 43
0.09324831 -0.25463963 1.7932367 48 40 43
0.09504155 -0.25463963 1.7932367 48 40 42
0.096834786 -0.25463963 1.7932367 47 40 42
0.09862802 -0.25463963 1.7932367 49 41 42
0.10042126 -0.25463963 1.7932367 48 41 42
0.10258618 -0.25556558 1.7997576 49 41 42
0.10438594 -0.25556558 1.7997576 50 42 45
0.1061857 -0.25556558 1.7997576 50 43 45
0.10798546 -0.25556558 1.7997576 50 44 45
0.10938744 -0.25463963 1.7932367 50 44 45
0.109906405 -0.2517211 1.7726839 52 45 45
0.10956008 -0.24694495 1.739049 55 47 42
0.10600982 -0.23520929 1.6564034 88 83 76
0.10417962 -0.22759241 1.6027634 98 92 85
0.10463037 -0.22511382 1.5853087 73 64 58
0.10500486 -0.2225476 1.5672367 64 49 43
0.10504203 -0.21935248 1.5447358 110 87 68
0.106189065 -0.21853401 1.5389719 148 101 80
0.107728034 -0.21853401 1.5389719 160 105 86
0.109267004 -0.21853401 1.5389719 177 119 95
0.11039406 -0.21772161 1.5332508 194 129 106
0.11192731 -0.21772161 1.5332508 203 136 111
0.11304033 -0.21691522 1.527572 208 138 113
0.1145679 -0.21691522 1.527572 211 139 114
0.116095476 -0.21691522 1.527572 210 139 114
0.11718901 -0.2161148 1.5219352 211 141 116
0.11871094 -0.2161148 1.5219352 214 144 117
0.12023288 -0.2161148 1.5219352 217 147 121
0.121754825 -0.2161148 1.5219352 217 146 120
0.123276755 -0.2161148 1.5219352 219 148 121
0.124416105 -0.21545228 1.5172696 221 149 123
0.12593338 -0.21545228 1.5172696 224 150 124
0.12745064 -0.21545228 1.5172696 224 151 125
0.12896791 -0.21545228 1.5172696 223 150 124
0.13088644 -0.2161148 1.5219352 223 148 123
0.13240837 -0.2161148 1.5219352 220 149 123
0.13442634 -0.21691522 1.527572 219 148 123
0.13595392 -0.21691522 1.527572 219 148 124
0.13748148 -0.21691522 1.527572 219 148 121
0.13900904 -0.21691522 1.527572 216 146 121
0.14053662 -0.21691522 1.527572 214 146 120
0.1420642 -0.21691522 1.527572 213 146 120
0.14412558 -0.21772161 1.5332508 213 146 120
0.14565884 -0.21772161 1.5332508 212 142 126
0.14610578 -0.2161148 1.5219352 206 143 116
0.15144649 -0.22170517 1.561304 201 159 137
0.1617861 -0.23442474 1.6508784 221 195 170
0.17753044 -0.25463963 1.7932367 225 199 182
0.18620516 -0.26441136 1.8620517 225 199 181
0.18963683 -0.2666181 1.8775923 224 196 176
0.19151442 -0.2666181 1.8775923 220 195 173
0.19251561 -0.2654099 1.8690836 216 191 168
0.19220713 -0.26243666 1.8481455 210 185 164
0.19478261 -0.26342028 1.8550725 213 189 166
0.1997827 -0.2676334 1.8847424 211 188 167
0.20090237 -0.2666181 1.8775923 216 192 170
0.20277996 -0.2666181 1.8775923 213 190 168
0.20373012 -0.2654099 1.8690836 217 190 169
0.2055992 -0.2654099 1.8690836 209 186 165
0.20746827 -0.2654099 1.8690836 213 190 170
0.20933737 -0.2654099 1.8690836 219 196 175
0.21120645 -0.2654099 1.8690836 216 192 172
0.21307553 -0.2654099 1.8690836 222 197 175
0.21494463 -0.2654099 1.8690836 218 191 171
0.2178007 -0.2666181 1.8775923 212 188 169
0.2196783 -0.2666181 1.8775923 215 194 173
0.22155589 -0.2666181 1.8775923 214 191 172
0.22343348 -0.2666181 1.8775923 215 191 171
0.22531109 -0.2666181 1.8775923 213 189 169
0.22718868 -0.2666181 1.8775923 215 188 169
0.22906627 -0.2666181 1.8775923 210 184 164
0.23094386 -0.2666181 1.8775923 210 184 165
0.23282143 -0.2666181 1.8775923 211 185 163
0.23469904 -0.2666181 1.8775923 214 188 165
0.23657663 -0.2666181 1.8775923 211 185 162
0.23845422 -0.2666181 1.8775923 202 177 159
0.24124703 -0.2676334 1.8847424 205 179 162
0.2422094 -0.2666181 1.8775923 209 186 168
0.24408701 -0.2666181 1.8775923 209 183 168
0.2459646 -0.2666181 1.8775923 209 185 168
0.2478422 -0.2666181 1.8775923 213 188 172
0.24971977 -0.2666181 1.8775923 206 181 166
0.25159737 -0.2666181 1.8775923 206 183 168
0.25347495 -0.2666181 1.8775923 214 190 175
0.25535256 -0.2666181 1.8775923 209 187 171
0.25723016 -0.2666181 1.8775923 219 195 178
0.25793353 -0.2654099 1.8690836 212 191 174
0.2598026 -0.2654099 1.8690836 216 190 174
0.26167172 -0.2654099 1.8690836 215 191 175
0.2635408 -0.2654099 1.8690836 217 190 174
0.2654099 -0.2654099 1.8690836 216 192 176
0.26727897 -0.2654099 1.8690836 213 189 173
-0.26914805 -0.26727897 1.8690836 124 98 70
-0.26727897 -0.26727897 1.8690836 119 95 67
-0.26441136 -0.2662734 1.8620517 120 95 68
-0.26254928 -0.2662734 1.8620517 123 97 70
-0.26068726 -0.2662734 1.8620517 122 96 70
-0.25882518 -0.2662734 1.8620517 121 96 69
-0.25696313 -0.2662734 1.8620517 119 94 68
-0.25510108 -0.2662734 1.8620517 112 88 62
-0.25323904 -0.2662734 1.8620517 116 93 66
-0.251377 -0.2662734 1.8620517 117 94 66
-0.24951494 -0.2662734 1.8620517 112 88 60
-0.24765287 -0.2662734 1.8620517 108 85 57
-0.24486957 -0.26527536 1.8550725 114 91 65
-0.2430145 -0.26527536 1.8550725 115 93 67
-0.24115942 -0.26527536 1.8550725 114 92 67
-0.23930435 -0.26527536 1.8550725 113 91 63
-0.23744927 -0.26527536 1.8550725 110 88 61
-0.23559421 -0.26527536 1.8550725 109 87 61
-0.23373914 -0.26527536 1.8550725 113 90 64
-0.23188406 -0.26527536 1.8550725 113 88 62
-0.23002899 -0.26527536 1.8550725 115 89 63
-0.22817393 -0.26527536 1.8550725 115 90 65
-0.22631885 -0.26527536 1.8550725 112 87 62
-0.22446378 -0.26527536 1.8550725 111 86 62
-0.2226087 -0.26527536 1.8550725 114 91 66
-0.22075363 -0.26527536 1.8550725 117 97 78
-0.21808116 -0.2642848 1.8481455 146 125 104
-0.21623302 -0.2642848 1.8481455 141 124 107
-0.21438487 -0.2642848 1.8481455 152 131 112
-0.21253672 -0.2642848 1.8481455 153 133 115
-0.21068858 -0.2642848 1.8481455 152 134 113
-0.20884044 -0.2642848 1.8481455 151 130 111
-0.20622224 -0.26330158 1.8412699 152 131 112
-0.20514415 -0.2642848 1.8481455 149 130 112
-0.203296 -0.2642848 1.8481455 153 133 113
-0.20144786 -0.2642848 1.8481455 148 128 109
-0.19959971 -0.2642848 1.8481455 150 130 110
-0.19701587 -0.26330158 1.8412699 146 127 107
-0.19590342 -0.2642848 1.8481455 153 133 112
-0.19405529 -0.2642848 1.8481455 149 128 110
-0.19149207 -0.26330158 1.8412699 148 129 109
-0.19035898 -0.2642848 1.8481455 149 131 110
-0.18851084 -0.2642848 1.8481455 152 133 111
-0.18596826 -0.26330158 1.8412699 150 132 111
-0.18412699 -0.26330158 1.8412699 149 130 109
-0.18228573 -0.26330158 1.8412699 146 126 107
-0.18111825 -0.2642848 1.8481455 138 119 101
-0.17927012 -0.2642848 1.8481455 142 123 104
-0.1767619 -0.26330158 1.8412699 138 120 101
-0.17492063 -0.26330158 1.8412699 141 124 103
-0.17437682 -0.26527536 1.8550725 143 126 105
-0.17252174 -0.26527536 1.8550725 141 125 105
-0.17002939 -0.2642848 1.8481455 145 129 107
-0.16818124 -0.2642848 1.8481455 145 129 108
-0.16571428 -0.26330158 1.8412699 141 126 106
-0.16448495 -0.2642848 1.8481455 135 119 101
-0.16263682 -0.2642848 1.8481455 132 115 99
-0.16078866 -0.2642848 1.8481455 139 121 101
-0.15894051 -0.2642848 1.8481455 138 119 100
-0.15650794 -0.26330158 1.8412699 141 121 103
-0.15409341 -0.26232567 1.8344454 134 116 98
-0.1516967 -0.26135695 1.8276712 131 113 96
-0.14931764 -0.26039538 1.8209468 126 109 93
-0.14246482 -0.25151196 1.758825 95 82 69
-0.13653333 -0.24405335 1.7066667 87 76 70
-0.13482668 -0.24405335 1.7066667 84 73 70
-0.13266253 -0.24321467 1.7008018 81 70 67
-0.13096175 -0.24321467 1.7008018 79 69 66
-0.12873009 -0.24221584 1.693817 79 68 67
-0.12703627 -0.24221584 1.693817 76 65 64
-0.12491496 -0.24138972 1.68804 76 66 64
-0.12322692 -0.24138972 1.68804 72 63 62
-0.12104349 -0.24040581 1.6811595 70 62 59
-0.119362324 -0.24040581 1.6811595 70 62 62
-0.11768117 -0.24040581 1.6811595 72 63 62
-0.116000004 -0.24040581 1.6811595 70 62 61
-0.11431885 -0.24040581 1.6811595 69 61 61
-0.11263769 -0.24040581 1.6811595 70 62 62
-0.11095653 -0.24040581 1.6811595 66 59 56
-0.10927537 -0.24040581 1.6811595 66 58 57
-0.10759421 -0.24040581 1.6811595 67 60 58
-0.10591305 -0.24040581 1.6811595 65 58 56
-0.10423189 -0.24040581 1.6811595 65 58 58
-0.10104061 -0.2368657 1.6564034 72 64 60
-0.09511852 -0.22669914 1.5853087 115 110 101
-0.092466965 -0.22411484 1.5672367 149 147 132
-0.09027087 -0.22256437 1.5563942 149 146 131
-0.08871447 -0.22256437 1.5563942 139 137 124
-0.086830415 -0.22172765 1.5505431 125 120 105
-0.08527987 -0.22172765 1.5505431 120 103 89
-0.08372933 -0.22172765 1.5505431 120 96 79
-0.08217878 -0.22172765 1.5505431 122 92 63
-0.08032627 -0.22089721 1.5447358 137 93 68
-0.07878152 -0.22089721 1.5447358 150 99 73
-0.07723679 -0.22089721 1.5447358 162 107 79
-0.07540962 -0.22007298 1.5389719 167 109 80
-0.07332346 -0.2184428 1.527572 170 112 81
-0.07179588 -0.2184428 1.527572 172 113 81
-0.070009016 -0.21763673 1.5219352 173 114 80
-0.068487085 -0.21763673 1.5219352 173 115 80
-0.06675986 -0.21696956 1.5172696 173 116 82
-0.06524259 -0.21696956 1.5172696 177 118 83
-0.06372532 -0.21696956 1.5172696 182 119 87
-0.06198005 -0.21617432 1.5117085 183 121 90
-0.06046834 -0.21617432 1.5117085 183 120 92
-0.059173517 -0.21696956 1.5172696 184 120 95
-0.057444923 -0.21617432 1.5117085 188 121 95
-0.055933215 -0.21617432 1.5117085 189 124 97
-0.054421507 -0.21617432 1.5117085 191 127 103
-0.052716576 -0.21538487 1.5061879 193 130 99
-0.05139809 -0.21617432 1.5117085 193 130 100
-0.04988638 -0.21617432 1.5117085 195 132 100
-0.048198014 -0.21538487 1.5061879 198 133 101
-0.046862964 -0.21617432 1.5117085 201 136 102
-0.045351252 -0.21617432 1.5117085 204 138 106
-0.043839548 -0.21617432 1.5117085 208 138 109
-0.04232784 -0.21617432 1.5117085 210 142 112
-0.04081613 -0.21617432 1.5117085 212 143 113
-0.03930442 -0.21617432 1.5117085 214 143 114
-0.037792712 -0.21617432 1.5117085 216 144 115
-0.03641447 -0.21696956 1.5172696 216 145 116
-0.0348972 -0.21696956 1.5172696 217 145 115
-0.03337993 -0.21696956 1.5172696 216 145 114
-0.03186266 -0.21696956 1.5172696 217 145 115
-0.030345391 -0.21696956 1.5172696 215 144 114
-0.029023869 -0.2184428 1.527572 197 134 108
-0.028103473 -0.22326647 1.561304 123 96 85
-0.029133888 -0.24506742 1.7137581 84 62 52
-0.028691787 -0.25643286 1.7932367 81 61 56
-0.026996365 -0.25736532 1.7997576 83 64 59
-0.025196606 -0.25736532 1.7997576 79 62 54
-0.02348224 -0.25830463 1.8063262 81 64 54
-0.021675915 -0.25830463 1.8063262 81 62 52
-0.01994237 -0.2592508 1.8129426 86 67 56
-0.018209469 -0.26039538 1.8209468 100 82 71
-0.01638852 -0.26039538 1.8209468 103 87 75
-0.014503541 -0.2592508 1.8129426 101 86 74
-0.012690598 -0.2592508 1.8129426 101 85 75
-0.010877656 -0.2592508 1.8129426 88 72 62
-0.0090647135 -0.2592508 1.8129426 80 65 54
-0.0072517707 -0.2592508 1.8129426 78 63 53
-0.005438828 -0.2592508 1.8129426 75 59 49
-0.0036258854 -0.2592508 1.8129426 75 59 51
-0.0018129427 -0.2592508 1.8129426 79 63 54
0.0 -0.2592508 1.8129426 79 63 54
0.0018129427 -0.2592508 1.8129426 75 59 48
0.0036258854 -0.2592508 1.8129426 77 61 49
0.005438828 -0.2592508 1.8129426 75 57 50
0.0072517707 -0.2592508 1.8129426 74 56 48
0.0090647135 -0.2592508 1.8129426 74 56 48
0.010877656 -0.2592508 1.8129426 73 56 48
0.012690598 -0.2592508 1.8129426 73 58 49
0.014503541 -0.2592508 1.8129426 75 60 52
0.016316485 -0.2592508 1.8129426 77 63 55
0.018129427 -0.2592508 1.8129426 75 61 52
0.01994237 -0.2592508 1.8129426 76 62 53
0.021755312 -0.2592508 1.8129426 79 64 55
0.023568254 -0.2592508 1.8129426 78 63 55
0.025381196 -0.2592508 1.8129426 78 64 56
0.027194139 -0.2592508 1.8129426 77 63 55
0.029007083 -0.2592508 1.8129426 77 63 55
0.030820025 -0.2592508 1.8129426 77 64 56
0.03263297 -0.2592508 1.8129426 79 65 58
0.03459799 -0.26039538 1.8209468 79 64 58
0.036418937 -0.26039538 1.8209468 77 63 56
0.038239885 -0.26039538 1.8209468 74 60 53
0.04006083 -0.26039538 1.8209468 73 57 51
0.041881774 -0.26039538 1.8209468 71 55 50
0.043702725 -0.26039538 1.8209468 71 58 54
0.04569178 -0.26135695 1.8276712 69 60 55
0.047344618 -0.26039538 1.8209468 67 57 53
0.04934712 -0.26135695 1.8276712 64 53 49
0.05098651 -0.26039538 1.8209468 59 49 46
0.052807458 -0.26039538 1.8209468 55 46 44
0.054628402 -0.26039538 1.8209468 60 53 52
0.056201223 -0.2592508 1.8129426 48 43 41
0.058014166 -0.2592508 1.8129426 41 34 35
0.059827108 -0.2592508 1.8129426 42 33 36
0.06164005 -0.2592508 1.8129426 47 38 39
0.06322142 -0.25830463 1.8063262 39 32 35
0.06502774 -0.25830463 1.8063262 39 31 34
0.06659103 -0.25736532 1.7997576 39 32 33
0.06839079 -0.25736532 1.7997576 45 37 37
0.07019054 -0.25736532 1.7997576 52 44 45
0.07172947 -0.25643286 1.7932367 59 52 52
0.0735227 -0.25643286 1.7932367 49 42 43
0.07558982 -0.25736532 1.7997576 45 38 41
0.07710917 -0.25643286 1.7932367 48 41 44
0.07890242 -0.25643286 1.7932367 49 42 45
0.08098909 -0.25736532 1.7997576 47 40 42
0.082488894 -0.25643286 1.7932367 48 41 43
0.08428213 -0.25643286 1.7932367 47 41 42
0.086075366 -0.25643286 1.7932367 48 40 42
0.0878686 -0.25643286 1.7932367 48 41 42
0.08966184 -0.25643286 1.7932367 47 41 42
0.09145507 -0.25643286 1.7932367 47 40 42
0.09324831 -0.25643286 1.7932367 47 40 42
0.09504155 -0.25643286 1.7932367 46 41 42
0.096834786 -0.25643286 1.7932367 46 40 41
0.09862802 -0.25643286 1.7932367 48 40 42
0.10042126 -0.25643286 1.7932367 48 40 42
0.10258618 -0.25736532 1.7997576 49 41 43
0.10438594 -0.25736532 1.7997576 50 42 45
0.1061857 -0.25736532 1.7997576 50 42 44
0.10798546 -0.25736532 1.7997576 50 43 45
0.10938744 -0.25643286 1.7932367 50 44 45
0.109906405 -0.2534938 1.7726839 51 45 46
0.10956008 -0.248684 1.739049 55 45 48
0.108404286 -0.24221584 1.693817 58 49 51
0.104518086 -0.22993979 1.6079706 95 87 83
0.10496659 -0.22742762 1.5904028 89 79 71
0.10500486 -0.22411484 1.5672367 73 62 52
0.10465009 -0.22007298 1.5389719 102 80 60
0.106189065 -0.22007298 1.5389719 149 105 83
0.107728034 -0.22007298 1.5389719 167 114 93
0.109267004 -0.22007298 1.5389719 186 126 103
0.10998518 -0.2184428 1.527572 197 131 107
0.11151276 -0.2184428 1.527572 205 135 111
0.11304033 -0.2184428 1.527572 209 140 113
0.114145145 -0.21763673 1.5219352 209 140 111
0.115667075 -0.21763673 1.5219352 208 138 114
0.11718901 -0.21763673 1.5219352 209 141 115
0.118347034 -0.21696956 1.5172696 215 144 118
0.11986429 -0.21696956 1.5172696 217 147 119
0.121754825 -0.21763673 1.5219352 219 146 120
0.12289884 -0.21696956 1.5172696 219 148 122
0.124416105 -0.21696956 1.5172696 223 148 123
0.12593338 -0.21696956 1.5172696 222 150 125
0.12745064 -0.21696956 1.5172696 225 152 126
0.12896791 -0.21696956 1.5172696 224 151 127
0.13088644 -0.21763673 1.5219352 222 150 126
0.13240837 -0.21763673 1.5219352 222 150 126
0.1339303 -0.21763673 1.5219352 222 150 124
0.13595392 -0.2184428 1.527572 219 148 124
0.13748148 -0.2184428 1.527572 219 148 124
0.13900904 -0.2184428 1.527572 217 147 122
0.14053662 -0.2184428 1.527572 216 146 120
0.1420642 -0.2184428 1.527572 216 146 120
0.14412558 -0.21925487 1.5332508 216 146 120
0.14565884 -0.21925487 1.5332508 215 145 120
0.14719208 -0.21925487 1.5332508 216 146 121
0.15097025 -0.22256437 1.5563942 211 147 127
0.16353159 -0.23862262 1.6686896 227 185 163
0.18093945 -0.26135695 1.8276712 225 198 180
0.18775924 -0.2684957 1.8775923 223 199 180
0.18963683 -0.2684957 1.8775923 217 192 172
0.19064653 -0.26727897 1.8690836 218 192 170
0.19179133 -0.2662734 1.8620517 214 189 167
0.19292754 -0.26527536 1.8550725 212 186 165
0.19478261 -0.26527536 1.8550725 213 187 166
0.19812286 -0.26727897 1.8690836 210 186 165
0.19999194 -0.26727897 1.8690836 208 184 164
0.20186104 -0.26727897 1.8690836 212 188 167
0.20296364 -0.2662734 1.8620517 216 192 170
0.20482568 -0.2662734 1.8620517 216 192 171
0.20668775 -0.2662734 1.8620517 213 190 170
0.20854978 -0.2662734 1.8620517 216 193 172
0.21041185 -0.2662734 1.8620517 213 189 169
0.2122739 -0.2662734 1.8620517 218 194 174
0.21413596 -0.2662734 1.8620517 218 193 172
0.215998 -0.2662734 1.8620517 218 194 174
0.21786004 -0.2662734 1.8620517 211 188 169
0.2197221 -0.2662734 1.8620517 216 192 172
0.22158416 -0.2662734 1.8620517 217 192 173
0.22344622 -0.2662734 1.8620517 217 192 173
0.22530825 -0.2662734 1.8620517 215 188 169
0.2271703 -0.2662734 1.8620517 213 187 166
0.22903237 -0.2662734 1.8620517 215 188 166
0.23089442 -0.2662734 1.8620517 209 183 163
0.23275647 -0.2662734 1.8620517 210 184 161
0.23461851 -0.2662734 1.8620517 212 185 163
0.23648058 -0.2662734 1.8620517 215 188 168
0.24033181 -0.2684957 1.8775923 207 182 164
0.2422094 -0.2684957 1.8775923 214 189 171
0.24408701 -0.2684957 1.8775923 216 192 174
0.24484996 -0.26727897 1.8690836 214 190 173
0.24671903 -0.26727897 1.8690836 216 192 176
0.24858811 -0.26727897 1.8690836 218 193 177
0.25045723 -0.26727897 1.8690836 217 190 176
0.25232628 -0.26727897 1.8690836 215 191 175
0.25419536 -0.26727897 1.8690836 216 194 177
0.25606444 -0.26727897 1.8690836 219 197 179
0.25793353 -0.26727897 1.8690836 210 190 172
0.2598026 -0.26727897 1.8690836 213 189 174
0.26068726 -0.2662734 1.8620517 219 195 179
0.26254928 -0.2662734 1.8620517 212 187 172
0.26441136 -0.2662734 1.8620517 213 190 174
0.2662734 -0.2662734 1.8620517 209 187 171
-0.26813543 -0.26813543 1.8620517 122 98 70
-0.2662734 -0.26813543 1.8620517 119 95 68
-0.26441136 -0.26813543 1.8620517 119 95 68
-0.26254928 -0.26813543 1.8620517 122 97 71
-0.26068726 -0.26813543 1.8620517 120 95 68
-0.25882518 -0.26813543 1.8620517 118 95 67
-0.25696313 -0.26813543 1.8620517 121 96 70
-0.25510108 -0.26813543 1.8620517 120 94 69
-0.25228986 -0.26713043 1.8550725 116 92 66
-0.2504348 -0.26713043 1.8550725 114 91 64
-0.24857971 -0.26713043 1.8550725 120 95 69
-0.24672464 -0.26713043 1.8550725 115 93 66
-0.24486957 -0.26713043 1.8550725 114 93 67
-0.2430145 -0.26713043 1.8550725 115 94 68
-0.24206673 -0.26813543 1.8620517 115 93 67
-0.24020466 -0.26813543 1.8620517 114 93 65
-0.23834263 -0.26813543 1.8620517 113 92 65
-0.23648058 -0.26813543 1.8620517 115 94 67
-0.23461851 -0.26813543 1.8620517 117 94 68
-0.23275647 -0.26813543 1.8620517 114 89 63
-0.23002899 -0.26713043 1.8550725 112 87 60
-0.22817393 -0.26713043 1.8550725 113 88 62
-0.22631885 -0.26713043 1.8550725 111 87 62
-0.22446378 -0.26713043 1.8550725 121 97 75
-0.2226087 -0.26713043 1.8550725 116 94 74
-0.21992931 -0.26613292 1.8481455 126 106 89
-0.21808116 -0.26613292 1.8481455 141 121 104
-0.21542858 -0.26514286 1.8412699 145 130 110
-0.2135873 -0.26514286 1.8412699 143 123 104
-0.21174604 -0.26514286 1.8412699 138 120 104
-0.20990478 -0.26514286 1.8412699 148 127 109
-0.2080635 -0.26514286 1.8412699 143 124 104
-0.20545788 -0.26416013 1.8344454 147 127 107
-0.20362343 -0.26416013 1.8344454 149 129 109
-0.20178899 -0.26416013 1.8344454 148 129 108
-0.19995454 -0.26416013 1.8344454 147 129 108
-0.19885714 -0.26514286 1.8412699 144 127 107
-0.19701587 -0.26514286 1.8412699 149 129 109
-0.1951746 -0.26514286 1.8412699 147 128 108
-0.19333333 -0.26514286 1.8412699 146 127 108
-0.19149207 -0.26514286 1.8412699 143 125 107
-0.18965079 -0.26514286 1.8412699 145 127 107
-0.18711343 -0.26416013 1.8344454 149 129 109
-0.18596826 -0.26514286 1.8412699 151 131 110
-0.18412699 -0.26514286 1.8412699 148 129 109
-0.18228573 -0.26514286 1.8412699 139 121 102
-0.18044445 -0.26514286 1.8412699 135 116 98
-0.17860319 -0.26514286 1.8412699 141 122 103
-0.1767619 -0.26514286 1.8412699 141 122 103
-0.17492063 -0.26514286 1.8412699 143 125 106
-0.17307936 -0.26514286 1.8412699 138 120 101
-0.1712381 -0.26514286 1.8412699 140 123 102
-0.16939682 -0.26514286 1.8412699 143 126 105
-0.16755556 -0.26514286 1.8412699 145 130 108
-0.16571428 -0.26514286 1.8412699 144 127 106
-0.16387302 -0.26514286 1.8412699 139 121 102
-0.16203175 -0.26514286 1.8412699 138 119 101
-0.16019048 -0.26514286 1.8412699 137 119 100
-0.15834922 -0.26514286 1.8412699 140 122 102
-0.15592785 -0.26416013 1.8344454 141 123 103
-0.15409341 -0.26416013 1.8344454 130 112 96
-0.15225898 -0.26416013 1.8344454 132 114 97
-0.14640886 -0.2571082 1.7854738 124 107 92
-0.14036976 -0.24954621 1.7329599 94 81 69
-0.13710065 -0.24678117 1.7137581 87 75 69
-0.13436334 -0.24491547 1.7008018 84 73 70
-0.13211772 -0.24390966 1.693817 80 69 67
-0.1304239 -0.24390966 1.693817 80 69 67
-0.12873009 -0.24390966 1.693817 78 68 67
-0.12703627 -0.24390966 1.693817 77 66 65
-0.12491496 -0.24307775 1.68804 74 65 63
-0.12322692 -0.24307775 1.68804 74 65 64
-0.12104349 -0.24208698 1.6811595 75 67 65
-0.119362324 -0.24208698 1.6811595 73 65 64
-0.117282785 -0.24126744 1.6754683 73 66 64
-0.115607314 -0.24126744 1.6754683 72 65 64
-0.11393185 -0.24126744 1.6754683 69 61 61
-0.11225638 -0.24126744 1.6754683 69 60 61
-0.110580906 -0.24126744 1.6754683 67 59 57
-0.10890544 -0.24126744 1.6754683 69 63 60
-0.108404286 -0.24390966 1.693817 67 60 58
-0.10634652 -0.24307775 1.68804 65 57 57
-0.103879035 -0.24126744 1.6754683 64 56 58
-0.10104061 -0.2385221 1.6564034 71 63 59
-0.09542417 -0.229018 1.5904028 113 107 99
-0.09281967 -0.22654292 1.5732148 148 144 130
-0.089931495 -0.2232782 1.5505431 139 137 122
-0.08804994 -0.22244196 1.5447358 127 122 106
-0.08715808 -0.22412077 1.5563942 115 103 88
-0.08560169 -0.22412077 1.5563942 98 82 70
-0.08404529 -0.22412077 1.5563942 107 78 65
-0.08217878 -0.2232782 1.5505431 130 90 66
-0.08032627 -0.22244196 1.5447358 149 99 71
-0.07848757 -0.22161195 1.5389719 160 107 76
-0.07694859 -0.22161195 1.5389719 167 112 80
-0.075129285 -0.22078812 1.5332508 167 112 80
-0.07332346 -0.21997036 1.527572 172 113 81
-0.07153095 -0.21915868 1.5219352 173 115 80
-0.070009016 -0.21915868 1.5219352 173 115 81
-0.06827713 -0.21848682 1.5172696 173 115 82
-0.06675986 -0.21848682 1.5172696 173 116 81
-0.06524259 -0.21848682 1.5172696 173 117 81
-0.063491754 -0.21768603 1.5117085 174 117 83
-0.06198005 -0.21768603 1.5117085 175 115 84
-0.06046834 -0.21768603 1.5117085 175 113 85
-0.05895663 -0.21768603 1.5117085 178 114 87
-0.05723514 -0.21689105 1.5061879 178 117 93
-0.055728953 -0.21689105 1.5061879 185 120 94
-0.054222763 -0.21689105 1.5061879 189 125 98
-0.052716576 -0.21689105 1.5061879 191 126 96
-0.05121039 -0.21689105 1.5061879 193 127 98
-0.0497042 -0.21689105 1.5061879 197 130 101
-0.04802264 -0.21610188 1.5007075 201 133 102
-0.046521936 -0.21610188 1.5007075 204 136 103
-0.045185637 -0.21689105 1.5061879 207 138 107
-0.04367945 -0.21689105 1.5061879 210 139 109
-0.04232784 -0.21768603 1.5117085 211 142 111
-0.04081613 -0.21768603 1.5117085 213 142 113
-0.03930442 -0.21768603 1.5117085 215 143 115
-0.037792712 -0.21768603 1.5117085 216 145 116
-0.036281005 -0.21768603 1.5117085 218 145 116
-0.034769293 -0.21768603 1.5117085 218 145 116
-0.03325759 -0.21768603 1.5117085 216 145 116
-0.031745877 -0.21768603 1.5117085 218 145 116
-0.030123759 -0.21689105 1.5061879 218 145 116
-0.028828124 -0.21848682 1.5172696 213 142 116
-0.027598515 -0.22078812 1.5332508 160 119 104
-0.02879489 -0.24390966 1.693817 87 64 53
-0.028464895 -0.25618404 1.779056 85 64 58
-0.026996365 -0.2591651 1.7997576 83 62 56
-0.025288567 -0.26011097 1.8063262 84 65 57
-0.023396848 -0.2591651 1.7997576 87 69 58
-0.021675915 -0.26011097 1.8063262 89 70 58
-0.019869586 -0.26011097 1.8063262 92 74 61
-0.01806326 -0.26011097 1.8063262 102 85 71
-0.016256936 -0.26011097 1.8063262 107 90 78
-0.014503541 -0.26106375 1.8129426 104 88 76
-0.012690598 -0.26106375 1.8129426 95 80 69
-0.010877656 -0.26106375 1.8129426 82 66 55
-0.0090647135 -0.26106375 1.8129426 81 66 53
-0.0072517707 -0.26106375 1.8129426 77 63 51
-0.005438828 -0.26106375 1.8129426 75 60 49
-0.0036258854 -0.26106375 1.8129426 75 60 51
-0.0018129427 -0.26106375 1.8129426 76 61 51
0.0 -0.26106375 1.8129426 79 64 55
0.0018129427 -0.26106375 1.8129426 79 64 53
0.0036258854 -0.26106375 1.8129426 79 64 53
0.005438828 -0.26106375 1.8129426 78 60 52
0.0072253044 -0.26011097 1.8063262 76 59 50
0.00903163 -0.26011097 1.8063262 76 59 49
0.010837957 -0.26011097 1.8063262 77 60 50
0.0126442835 -0.26011097 1.8063262 77 61 52
0.014450609 -0.26011097 1.8063262 78 63 55
0.016316485 -0.26106375 1.8129426 80 65 57
0.018129427 -0.26106375 1.8129426 79 63 54
0.01994237 -0.26106375 1.8129426 79 64 55
0.021755312 -0.26106375 1.8129426 82 66 57
0.023568254 -0.26106375 1.8129426 81 66 57
0.025381196 -0.26106375 1.8129426 80 65 55
0.027194139 -0.26106375 1.8129426 78 64 56
0.029007083 -0.26106375 1.8129426 78 65 57
0.030707544 -0.26011097 1.8063262 78 64 56
0.03251387 -0.26011097 1.8063262 77 62 55
0.03444591 -0.26106375 1.8129426 79 64 57
0.036258854 -0.26106375 1.8129426 77 64 57
0.038071796 -0.26106375 1.8129426 75 60 53
0.03988474 -0.26106375 1.8129426 74 59 53
0.04169768 -0.26106375 1.8129426 73 59 52
0.043510623 -0.26106375 1.8129426 70 59 53
0.045323566 -0.26106375 1.8129426 69 61 55
0.047136508 -0.26106375 1.8129426 69 60 54
0.04894945 -0.26106375 1.8129426 69 58 54
0.05098651 -0.26221633 1.8209468 62 55 50
0.052807458 -0.26221633 1.8209468 58 50 48
0.054189786 -0.26011097 1.8063262 56 52 49
0.05599611 -0.26011097 1.8063262 57 52 50
0.058014166 -0.26106375 1.8129426 41 35 35
0.059827108 -0.26106375 1.8129426 43 33 36
0.06164005 -0.26106375 1.8129426 46 37 39
0.06322142 -0.26011097 1.8063262 39 33 34
0.06502774 -0.26011097 1.8063262 39 32 34
0.06659103 -0.2591651 1.7997576 41 33 34
0.06839079 -0.2591651 1.7997576 48 40 39
0.07019054 -0.2591651 1.7997576 53 45 44
0.07172947 -0.25822607 1.7932367 51 44 44
0.0735227 -0.25822607 1.7932367 47 40 41
0.07531594 -0.25822607 1.7932367 47 41 43
0.07710917 -0.25822607 1.7932367 48 41 44
0.07890242 -0.25822607 1.7932367 47 41 42
0.08098909 -0.2591651 1.7997576 48 41 42
0.082488894 -0.25822607 1.7932367 48 40 41
0.08428213 -0.25822607 1.7932367 48 40 42
0.086075366 -0.25822607 1.7932367 47 40 41
0.0878686 -0.25822607 1.7932367 47 41 41
0.08966184 -0.25822607 1.7932367 47 41 42
0.09145507 -0.25822607 1.7932367 47 40 43
0.09324831 -0.25822607 1.7932367 47 41 44
0.09504155 -0.25822607 1.7932367 47 40 43
0.096834786 -0.25822607 1.7932367 47 40 42
0.09862802 -0.25822607 1.7932367 49 42 43
0.10042126 -0.25822607 1.7932367 50 42 43
0.10221449 -0.25822607 1.7932367 49 42 43
0.10400773 -0.25822607 1.7932367 50 43 44
0.105800964 -0.25822607 1.7932367 50 43 44
0.10759421 -0.25822607 1.7932367 49 43 45
0.10938744 -0.25822607 1.7932367 49 44 45
0.11069938 -0.2571082 1.7854738 51 45 46
0.111679085 -0.2552665 1.7726839 55 45 48
0.11304688 -0.25435546 1.7663574 55 45 50
0.11224937 -0.24867553 1.7269133 49 39 37
0.11179192 -0.24390966 1.693817 82 74 70
0.10893737 -0.23413405 1.6259309 86 76 69
0.10504203 -0.22244196 1.5447358 108 86 68
0.1057943 -0.22078812 1.5332508 157 110 87
0.10732756 -0.22078812 1.5332508 176 121 97
0.10772614 -0.21848682 1.5172696 190 129 104
0.10998518 -0.21997036 1.527572 197 132 105
0.11151276 -0.21997036 1.527572 201 135 108
0.11262321 -0.21915868 1.5219352 205 136 110
0.114145145 -0.21915868 1.5219352 207 138 109
0.115312494 -0.21848682 1.5172696 206 139 112
0.11682976 -0.21848682 1.5172696 209 140 114
0.11871094 -0.21915868 1.5219352 214 143 116
0.11986429 -0.21848682 1.5172696 216 145 118
0.12093668 -0.21768603 1.5117085 219 147 121
0.12200122 -0.21689105 1.5061879 220 147 123
0.12350741 -0.21689105 1.5061879 220 149 123
0.12501359 -0.21689105 1.5061879 222 150 125
0.12651978 -0.21689105 1.5061879 223 151 127
0.12802596 -0.21689105 1.5061879 223 153 129
0.13000692 -0.21768603 1.5117085 224 152 128
0.13151865 -0.21768603 1.5117085 222 151 128
0.13303035 -0.21768603 1.5117085 221 150 127
0.13454205 -0.21768603 1.5117085 221 149 126
0.13655426 -0.21848682 1.5172696 221 148 125
0.13807154 -0.21848682 1.5172696 219 148 123
0.1395888 -0.21848682 1.5172696 219 148 121
0.14110608 -0.21848682 1.5172696 218 146 120
0.14262334 -0.21848682 1.5172696 217 147 120
0.14414062 -0.21848682 1.5172696 217 146 120
0.14664692 -0.21997036 1.527572 216 146 120
0.14872533 -0.22078812 1.5332508 217 146 125
0.15417504 -0.22654292 1.5732148 208 156 137
0.16711597 -0.24307775 1.68804 227 188 172
0.18481454 -0.26613292 1.8481455 220 198 178
0.19035898 -0.2714029 1.8847424 222 199 178
0.19151442 -0.27037328 1.8775923 220 193 172
0.19179133 -0.26813543 1.8620517 215 190 169
0.19365337 -0.26813543 1.8620517 212 188 167
0.19551542 -0.26813543 1.8620517 206 183 162
0.19737749 -0.26813543 1.8620517 204 179 159
0.19923954 -0.26813543 1.8620517 210 186 166
0.20186104 -0.26914805 1.8690836 213 189 168
0.20296364 -0.26813543 1.8620517 213 189 168
0.20482568 -0.26813543 1.8620517 213 188 168
0.20668775 -0.26813543 1.8620517 215 191 170
0.20854978 -0.26813543 1.8620517 216 193 172
0.21041185 -0.26813543 1.8620517 215 192 171
0.2122739 -0.26813543 1.8620517 217 193 173
0.21413596 -0.26813543 1.8620517 215 191 171
0.215998 -0.26813543 1.8620517 217 193 174
0.21786004 -0.26813543 1.8620517 208 186 167
0.2197221 -0.26813543 1.8620517 213 189 170
0.22158416 -0.26813543 1.8620517 210 185 167
0.22344622 -0.26813543 1.8620517 214 189 170
