ply
format ascii 1.0
element vertex 1123
property float32 x
property float32 y
property float32 z
property uchar red
property uchar green
property uchar blue
element face 0
property list uint8 int32 vertex_indices
end_header
-0.014140953 0.2181747 2.020136 150 97 68
-0.012120817 0.2181747 2.020136 150 96 68
-0.01010068 0.2181747 2.020136 152 96 69
-0.008080545 0.2181747 2.020136 153 96 70
-0.0060604084 0.2181747 2.020136 154 96 70
-0.0040402724 0.2181747 2.020136 153 96 70
-0.0020201362 0.2181747 2.020136 152 96 68
0.0 0.2181747 2.020136 152 96 69
0.0020201362 0.2181747 2.020136 151 95 70
0.0040402724 0.2181747 2.020136 147 94 69
0.0060604084 0.2181747 2.020136 146 91 67
0.008080545 0.2181747 2.020136 144 90 67
0.010142078 0.21906887 2.0284154 142 89 67
0.012170492 0.21906887 2.0284154 143 89 67
0.014198908 0.21906887 2.0284154 146 89 67
0.016227324 0.21906887 2.0284154 145 91 66
0.018255739 0.21906887 2.0284154 151 94 72
0.020284155 0.21906887 2.0284154 152 95 73
0.02240439 0.21997036 2.0367627 154 95 72
0.02454215 0.22087935 2.0451791 155 97 72
0.026587328 0.22087935 2.0451791 157 98 72
0.028632507 0.22087935 2.0451791 159 99 73
0.030677687 0.22087935 2.0451791 161 101 75
0.032831397 0.22161193 2.0519624 165 103 80
0.034768045 0.22087935 2.0451791 170 108 84
0.036935322 0.22161193 2.0519624 176 113 88
0.038987286 0.22161193 2.0519624 180 117 89
0.041039247 0.22161193 2.0519624 179 119 94
0.043270607 0.22253457 2.0605052 179 119 93
0.045331113 0.22253457 2.0605052 173 114 89
0.047391616 0.22253457 2.0605052 167 108 87
0.04965887 0.2234649 2.0691195 147 92 71
0.051945146 0.22440301 2.0778058 135 88 70
0.05402295 0.22440301 2.0778058 91 57 44
0.056289807 0.22515923 2.0848076 79 52 47
0.058621548 0.2261117 2.0936267 73 49 43
0.060715176 0.2261117 2.0936267 72 48 40
0.063075624 0.22707224 2.1025207 77 52 45
0.06540041 0.22784658 2.1096904 78 52 45
0.06699605 0.2261117 2.0936267 78 51 44
0.069917805 0.22882192 2.1187215 82 55 48
0.07348356 0.23341836 2.161281 83 58 52
0.08004929 0.24700925 2.2871227 87 65 60
-0.15540248 0.25194037 2.354583 95 83 76
-0.142727 0.2349506 2.1958 75 58 52
-0.13784043 0.23045199 2.1537569 64 47 42
-0.13509879 0.22945349 2.1444252 61 46 40
-0.13238078 0.22846362 2.135174 62 48 42
-0.13024563 0.22846362 2.135174 66 51 45
-0.12811044 0.22846362 2.135174 69 56 50
-0.125542 0.22767785 2.1278305 66 53 47
-0.123414166 0.22767785 2.1278305 58 48 42
-0.12128634 0.22767785 2.1278305 53 44 38
-0.11864841 0.2267032 2.1187215 50 41 35
-0.11652968 0.2267032 2.1187215 51 42 37
-0.11392329 0.22573687 2.1096904 56 48 44
-0.11181359 0.22573687 2.1096904 52 41 39
-0.10933108 0.22496971 2.1025207 51 41 40
-0.107228555 0.22496971 2.1025207 51 41 39
-0.10512604 0.22496971 2.1025207 46 39 36
-0.10258771 0.22401807 2.0936267 47 37 36
-0.10007077 0.22307442 2.0848076 47 39 38
-0.09798596 0.22307442 2.0848076 51 41 38
-0.095579065 0.2223252 2.0778058 51 42 38
-0.09350126 0.2223252 2.0778058 52 41 37
-0.09104126 0.22139578 2.0691195 55 41 37
-0.08897214 0.22139578 2.0691195 57 41 32
-0.08654121 0.22047405 2.0605052 86 61 48
-0.08413046 0.21955997 2.0519624 103 72 56
-0.082078494 0.21955997 2.0519624 90 61 43
-0.08002654 0.21955997 2.0519624 105 75 61
-0.07797457 0.21955997 2.0519624 84 55 46
-0.07592261 0.21955997 2.0519624 98 68 59
-0.073870644 0.21955997 2.0519624 72 51 45
-0.07158127 0.21883416 2.0451791 69 48 42
-0.06953609 0.21883416 2.0451791 93 64 57
-0.06749091 0.21883416 2.0451791 111 73 61
-0.065176405 0.21793361 2.0367627 122 83 62
-0.06313965 0.21793361 2.0367627 134 92 69
-0.061102882 0.21793361 2.0367627 149 101 76
-0.05906612 0.21793361 2.0367627 160 107 81
-0.05702936 0.21793361 2.0367627 164 112 84
-0.05499259 0.21793361 2.0367627 171 116 90
-0.05295583 0.21793361 2.0367627 173 118 91
-0.050710384 0.21704045 2.0284154 172 117 90
-0.048681967 0.21704045 2.0284154 170 114 88
-0.046653558 0.21704045 2.0284154 169 112 86
-0.04462514 0.21704045 2.0284154 168 108 83
-0.042596724 0.21704045 2.0284154 165 106 81
-0.04040272 0.21615458 2.020136 160 101 77
-0.038382586 0.21615458 2.020136 157 99 73
-0.03636245 0.21615458 2.020136 158 98 76
-0.034342315 0.21615458 2.020136 157 98 73
-0.03232218 0.21615458 2.020136 155 96 72
-0.030302042 0.21615458 2.020136 153 95 71
-0.028281907 0.21615458 2.020136 148 94 71
-0.026261771 0.21615458 2.020136 146 92 68
-0.024241634 0.21615458 2.020136 145 90 65
-0.022221496 0.21615458 2.020136 143 90 66
-0.02020136 0.21615458 2.020136 143 91 67
-0.018181225 0.21615458 2.020136 146 94 69
-0.01616109 0.21615458 2.020136 149 98 70
-0.014140953 0.21615458 2.020136 152 97 70
-0.012120817 0.21615458 2.020136 155 97 71
-0.01010068 0.21615458 2.020136 156 97 72
-0.008080545 0.21615458 2.020136 157 97 71
-0.0060604084 0.21615458 2.020136 154 97 70
-0.0040402724 0.21615458 2.020136 155 97 70
-0.0020201362 0.21615458 2.020136 154 97 69
0.0 0.21615458 2.020136 153 96 70
0.0020201362 0.21615458 2.020136 152 95 71
0.0040402724 0.21615458 2.020136 150 93 69
0.0060604084 0.21615458 2.020136 146 91 67
0.008113662 0.21704045 2.0284154 145 90 68
0.010142078 0.21704045 2.0284154 143 90 67
0.012170492 0.21704045 2.0284154 146 90 69
0.014198908 0.21704045 2.0284154 145 92 70
0.016227324 0.21704045 2.0284154 146 94 71
0.018255739 0.21704045 2.0284154 150 95 73
0.020284155 0.21704045 2.0284154 150 95 74
0.02240439 0.21793361 2.0367627 152 95 73
0.024441153 0.21793361 2.0367627 153 95 72
0.026587328 0.21883416 2.0451791 156 97 73
0.028632507 0.21883416 2.0451791 158 98 73
0.030677687 0.21883416 2.0451791 161 100 76
0.032831397 0.21955997 2.0519624 166 102 82
0.034768045 0.21883416 2.0451791 167 102 81
0.036935322 0.21955997 2.0519624 171 108 84
0.038987286 0.21955997 2.0519624 175 113 87
0.041039247 0.21955997 2.0519624 179 119 89
0.043270607 0.22047405 2.0605052 178 117 88
0.045331113 0.22047405 2.0605052 170 114 87
0.047391616 0.22047405 2.0605052 165 106 83
0.04965887 0.22139578 2.0691195 155 95 74
0.051945146 0.2223252 2.0778058 151 95 75
0.05402295 0.2223252 2.0778058 98 62 42
0.056289807 0.22307442 2.0848076 80 55 45
0.058621548 0.22401807 2.0936267 75 50 45
0.060715176 0.22401807 2.0936267 70 47 40
0.063075624 0.22496971 2.1025207 74 51 42
0.06540041 0.22573687 2.1096904 77 53 45
0.06699605 0.22401807 2.0936267 76 50 43
0.069917805 0.2267032 2.1187215 78 55 47
0.07348356 0.23125708 2.161281 87 61 55
0.07975446 0.24382076 2.2786987 87 62 56
-0.149158 0.23955679 2.2599697 77 61 54
-0.14109942 0.2301006 2.1707604 79 63 56
-0.13784043 0.22829823 2.1537569 61 48 41
-0.13509879 0.22730906 2.1444252 62 46 40
-0.13238078 0.22632845 2.135174 64 47 42
-0.13024563 0.22632845 2.135174 66 52 44
-0.12811044 0.22632845 2.135174 67 54 46
-0.125542 0.22555004 2.1278305 64 51 44
-0.123414166 0.22555004 2.1278305 57 47 40
-0.12128634 0.22555004 2.1278305 53 43 37
-0.11915851 0.22555004 2.1278305 51 41 35
-0.11652968 0.22458448 2.1187215 50 41 37
-0.11392329 0.22362718 2.1096904 56 47 44
-0.11181359 0.22362718 2.1096904 52 42 40
-0.10933108 0.22286719 2.1025207 52 42 41
-0.107228555 0.22286719 2.1025207 49 41 40
-0.10512604 0.22286719 2.1025207 44 36 36
-0.10258771 0.22192444 2.0936267 45 37 37
-0.10007077 0.22098961 2.0848076 48 39 38
-0.09798596 0.22098961 2.0848076 51 41 38
-0.095579065 0.2202474 2.0778058 51 42 38
-0.09350126 0.2202474 2.0778058 52 41 37
-0.09104126 0.21932666 2.0691195 54 41 35
-0.08897214 0.21932666 2.0691195 59 40 31
-0.08654121 0.21841355 2.0605052 93 65 50
-0.08448071 0.21841355 2.0605052 105 73 57
-0.082078494 0.21750802 2.0519624 99 69 52
-0.08002654 0.21750802 2.0519624 106 77 63
-0.07797457 0.21750802 2.0519624 83 56 44
-0.07592261 0.21750802 2.0519624 107 78 67
-0.073870644 0.21750802 2.0519624 69 47 41
-0.07158127 0.21678899 2.0451791 72 48 42
-0.06953609 0.21678899 2.0451791 103 67 58
-0.06749091 0.21678899 2.0451791 121 80 67
-0.065176405 0.21589684 2.0367627 131 89 62
-0.06313965 0.21589684 2.0367627 151 101 75
-0.061102882 0.21589684 2.0367627 161 109 82
-0.05906612 0.21589684 2.0367627 165 113 84
-0.05702936 0.21589684 2.0367627 168 115 88
-0.05499259 0.21589684 2.0367627 172 117 91
-0.05295583 0.21589684 2.0367627 170 118 92
-0.050710384 0.21501204 2.0284154 172 117 90
-0.048681967 0.21501204 2.0284154 172 116 88
-0.046653558 0.21501204 2.0284154 167 112 84
-0.04462514 0.21501204 2.0284154 167 108 82
-0.042596724 0.21501204 2.0284154 163 105 80
-0.04040272 0.21413442 2.020136 159 100 77
-0.038382586 0.21413442 2.020136 158 99 74
-0.03636245 0.21413442 2.020136 157 99 74
-0.034342315 0.21413442 2.020136 157 96 71
-0.03232218 0.21413442 2.020136 155 95 70
-0.030302042 0.21413442 2.020136 154 95 71
-0.028281907 0.21413442 2.020136 151 94 71
-0.026261771 0.21413442 2.020136 147 92 68
-0.024241634 0.21413442 2.020136 144 91 66
-0.022221496 0.21413442 2.020136 142 90 65
-0.02020136 0.21413442 2.020136 142 90 65
-0.018181225 0.21413442 2.020136 145 93 68
-0.01616109 0.21413442 2.020136 151 97 70
-0.014140953 0.21413442 2.020136 153 98 69
-0.012120817 0.21413442 2.020136 156 98 71
-0.01010068 0.21413442 2.020136 155 98 72
-0.008080545 0.21413442 2.020136 154 97 71
-0.0060604084 0.21413442 2.020136 154 97 69
-0.0040402724 0.21413442 2.020136 153 96 70
-0.0020201362 0.21413442 2.020136 154 97 70
0.0 0.21413442 2.020136 153 97 70
0.0020201362 0.21413442 2.020136 151 96 70
0.0040402724 0.21413442 2.020136 150 94 70
0.0060604084 0.21413442 2.020136 148 92 69
0.008113662 0.21501204 2.0284154 146 91 68
0.010142078 0.21501204 2.0284154 145 91 68
0.012170492 0.21501204 2.0284154 146 91 70
0.014198908 0.21501204 2.0284154 147 92 71
0.016227324 0.21501204 2.0284154 147 93 71
0.018255739 0.21501204 2.0284154 148 93 70
0.020367626 0.21589684 2.0367627 147 92 70
0.02240439 0.21589684 2.0367627 150 93 72
0.024441153 0.21589684 2.0367627 152 93 71
0.026477914 0.21589684 2.0367627 154 96 73
0.028632507 0.21678899 2.0451791 157 98 76
0.030677687 0.21678899 2.0451791 159 100 76
0.032831397 0.21750802 2.0519624 163 102 76
0.034768045 0.21678899 2.0451791 162 103 76
0.036935322 0.21750802 2.0519624 168 107 81
0.038987286 0.21750802 2.0519624 171 109 82
0.041039247 0.21750802 2.0519624 173 113 86
0.043270607 0.21841355 2.0605052 175 114 87
0.045331113 0.21841355 2.0605052 172 112 87
0.047391616 0.21841355 2.0605052 164 105 82
0.04965887 0.21932666 2.0691195 157 98 73
0.051727984 0.21932666 2.0691195 159 100 76
0.05402295 0.2202474 2.0778058 106 73 53
0.056289807 0.22098961 2.0848076 80 54 45
0.058374614 0.22098961 2.0848076 75 50 45
0.060715176 0.22192444 2.0936267 71 48 41
0.063075624 0.22286719 2.1025207 74 50 42
0.06540041 0.22362718 2.1096904 76 51 44
0.06699605 0.22192444 2.0936267 75 50 42
0.069917805 0.22458448 2.1187215 78 53 46
0.07348356 0.2290958 2.161281 84 58 51
0.07938894 0.24043508 2.2682555 82 58 53
-0.14794204 0.23536232 2.241546 73 55 48
-0.14109942 0.22792985 2.1707604 79 64 57
-0.13724321 0.22516464 2.1444252 61 47 41
-0.13509879 0.22516464 2.1444252 63 46 41
-0.13238078 0.22419327 2.135174 64 47 42
-0.13024563 0.22419327 2.135174 66 51 44
-0.12811044 0.22419327 2.135174 66 53 45
-0.125542 0.22342221 2.1278305 64 51 44
-0.123414166 0.22342221 2.1278305 56 46 39
-0.12128634 0.22342221 2.1278305 53 43 37
-0.11915851 0.22342221 2.1278305 51 41 36
-0.11652968 0.22246575 2.1187215 50 42 38
-0.11392329 0.2215175 2.1096904 57 47 45
-0.11181359 0.2215175 2.1096904 52 41 40
-0.10933108 0.22076468 2.1025207 51 42 41
-0.107228555 0.22076468 2.1025207 50 40 40
-0.10512604 0.22076468 2.1025207 42 34 34
-0.10258771 0.21983081 2.0936267 44 37 37
-0.10007077 0.2189048 2.0848076 48 40 39
-0.09798596 0.2189048 2.0848076 52 41 39
-0.095579065 0.2181696 2.0778058 51 41 38
-0.09350126 0.2181696 2.0778058 52 41 37
-0.09104126 0.21725754 2.0691195 55 41 37
-0.08897214 0.21725754 2.0691195 59 41 34
-0.08654121 0.21635304 2.0605052 96 67 52
-0.08448071 0.21635304 2.0605052 110 78 61
-0.082078494 0.21545605 2.0519624 110 78 63
-0.08002654 0.21545605 2.0519624 95 64 50
-0.07797457 0.21545605 2.0519624 88 58 45
-0.07592261 0.21545605 2.0519624 109 77 66
-0.073870644 0.21545605 2.0519624 70 46 40
-0.07158127 0.21474381 2.0451791 93 63 55
-0.06953609 0.21474381 2.0451791 120 80 68
-0.06749091 0.21474381 2.0451791 125 83 65
-0.065176405 0.2138601 2.0367627 143 97 71
-0.06313965 0.2138601 2.0367627 160 107 81
-0.061102882 0.2138601 2.0367627 165 114 84
-0.05906612 0.2138601 2.0367627 167 115 85
-0.05702936 0.2138601 2.0367627 168 116 88
-0.05499259 0.2138601 2.0367627 173 117 90
-0.05295583 0.2138601 2.0367627 171 118 90
-0.050710384 0.21298362 2.0284154 173 117 88
-0.048681967 0.21298362 2.0284154 170 114 86
-0.046653558 0.21298362 2.0284154 167 110 83
-0.04462514 0.21298362 2.0284154 167 107 81
-0.042596724 0.21298362 2.0284154 161 103 78
-0.04040272 0.21211429 2.020136 159 100 75
-0.038382586 0.21211429 2.020136 157 99 71
-0.03636245 0.21211429 2.020136 154 97 71
-0.034342315 0.21211429 2.020136 151 94 68
-0.03232218 0.21211429 2.020136 150 92 67
-0.030302042 0.21211429 2.020136 150 92 68
-0.028281907 0.21211429 2.020136 150 93 69
-0.026261771 0.21211429 2.020136 147 91 68
-0.024241634 0.21211429 2.020136 145 90 66
-0.022221496 0.21211429 2.020136 142 90 65
-0.02020136 0.21211429 2.020136 141 90 66
-0.018181225 0.21211429 2.020136 145 93 68
-0.01616109 0.21211429 2.020136 151 96 70
-0.014140953 0.21211429 2.020136 155 98 70
-0.012120817 0.21211429 2.020136 155 98 72
-0.01010068 0.21211429 2.020136 156 99 73
-0.008080545 0.21211429 2.020136 155 97 71
-0.0060604084 0.21211429 2.020136 154 97 68
-0.0040402724 0.21211429 2.020136 155 96 70
-0.0020201362 0.21211429 2.020136 154 97 70
0.0 0.21211429 2.020136 153 97 70
0.0020201362 0.21211429 2.020136 153 96 69
0.0040402724 0.21211429 2.020136 152 96 69
0.0060604084 0.21211429 2.020136 148 93 69
0.008080545 0.21211429 2.020136 145 91 68
0.010142078 0.21298362 2.0284154 144 91 69
0.012170492 0.21298362 2.0284154 143 89 69
0.014198908 0.21298362 2.0284154 141 88 69
0.016227324 0.21298362 2.0284154 142 89 70
0.018255739 0.21298362 2.0284154 140 90 69
0.020367626 0.2138601 2.0367627 141 90 68
0.02240439 0.2138601 2.0367627 142 89 68
0.024441153 0.2138601 2.0367627 142 90 69
0.026477914 0.2138601 2.0367627 145 91 70
0.02851468 0.2138601 2.0367627 150 95 74
0.030551441 0.2138601 2.0367627 150 95 74
0.032722864 0.21474381 2.0451791 155 97 72
0.034768045 0.21474381 2.0451791 158 98 73
0.036935322 0.21545605 2.0519624 162 100 76
0.038987286 0.21545605 2.0519624 163 102 78
0.041039247 0.21545605 2.0519624 162 104 78
0.043270607 0.21635304 2.0605052 162 104 80
0.045143172 0.21545605 2.0519624 167 108 83
0.047391616 0.21635304 2.0605052 162 104 80
0.04965887 0.21725754 2.0691195 160 103 76
0.051727984 0.21725754 2.0691195 162 106 79
0.05402295 0.2181696 2.0778058 117 83 65
0.056289807 0.2189048 2.0848076 79 54 44
0.058374614 0.2189048 2.0848076 74 49 44
0.060715176 0.21983081 2.0936267 72 48 42
0.063075624 0.22076468 2.1025207 72 50 41
0.06540041 0.2215175 2.1096904 75 51 44
0.06699605 0.21983081 2.0936267 75 49 42
0.069917805 0.22246575 2.1187215 77 52 44
0.07348356 0.22693451 2.161281 82 56 49
0.07909894 0.23729682 2.2599697 83 60 55
-0.14492281 0.2283632 2.1958 74 55 49
-0.14048328 0.22477324 2.161281 72 56 49
-0.13784043 0.22399071 2.1537569 62 48 41
-0.13568668 0.22399071 2.1537569 64 46 41
-0.13295436 0.22302021 2.1444252 64 48 42
-0.13080993 0.22302021 2.1444252 66 52 44
-0.1286655 0.22302021 2.1444252 66 52 44
-0.12597527 0.2220581 2.135174 63 51 44
-0.12384009 0.2220581 2.135174 56 45 38
-0.12128634 0.22129437 2.1278305 53 43 37
-0.11915851 0.22129437 2.1278305 51 40 36
-0.11652968 0.22034703 2.1187215 51 42 38
-0.11392329 0.21940781 2.1096904 56 46 44
-0.11181359 0.21940781 2.1096904 52 41 40
-0.10933108 0.21866216 2.1025207 51 41 41
-0.107228555 0.21866216 2.1025207 47 38 39
-0.10512604 0.21866216 2.1025207 41 34 33
-0.10258771 0.21773718 2.0936267 45 38 36
-0.10007077 0.21681999 2.0848076 49 39 38
-0.09798596 0.21681999 2.0848076 52 41 38
-0.095901154 0.21681999 2.0848076 51 41 38
-0.09350126 0.2160918 2.0778058 52 41 38
-0.09142345 0.2160918 2.0778058 56 40 37
-0.08897214 0.21518841 2.0691195 61 41 33
-0.08690301 0.21518841 2.0691195 102 71 57
-0.08448071 0.21429254 2.0605052 119 84 64
-0.082078494 0.21340409 2.0519624 122 85 67
-0.08002654 0.21340409 2.0519624 86 53 38
-0.07797457 0.21340409 2.0519624 91 59 47
-0.07592261 0.21340409 2.0519624 113 79 67
-0.073870644 0.21340409 2.0519624 74 44 35
-0.07181868 0.21340409 2.0519624 106 73 61
-0.06953609 0.21269862 2.0451791 123 82 66
-0.06749091 0.21269862 2.0451791 133 90 70
-0.065176405 0.21182331 2.0367627 152 101 76
-0.06313965 0.21182331 2.0367627 159 108 82
-0.061102882 0.21182331 2.0367627 165 114 86
-0.05906612 0.21182331 2.0367627 166 116 85
-0.05702936 0.21182331 2.0367627 168 115 86
-0.05499259 0.21182331 2.0367627 167 114 84
-0.05295583 0.21182331 2.0367627 167 113 83
-0.050710384 0.2109552 2.0284154 165 111 83
-0.048681967 0.2109552 2.0284154 164 110 83
-0.046653558 0.2109552 2.0284154 165 108 82
-0.04462514 0.2109552 2.0284154 160 104 79
-0.042596724 0.2109552 2.0284154 157 100 76
-0.04040272 0.21009417 2.020136 157 98 72
-0.038382586 0.21009417 2.020136 155 97 69
-0.03636245 0.21009417 2.020136 152 95 69
-0.034342315 0.21009417 2.020136 149 92 67
-0.03232218 0.21009417 2.020136 149 91 65
-0.030302042 0.21009417 2.020136 145 89 63
-0.028281907 0.21009417 2.020136 145 89 65
-0.026261771 0.21009417 2.020136 143 88 64
-0.024241634 0.21009417 2.020136 145 89 66
-0.022221496 0.21009417 2.020136 145 90 68
-0.02020136 0.21009417 2.020136 142 91 66
-0.018181225 0.21009417 2.020136 144 93 66
-0.01616109 0.21009417 2.020136 151 97 69
-0.014140953 0.21009417 2.020136 154 99 71
-0.012120817 0.21009417 2.020136 155 100 72
-0.01010068 0.21009417 2.020136 154 99 71
-0.008080545 0.21009417 2.020136 154 98 70
-0.0060604084 0.21009417 2.020136 155 97 70
-0.0040402724 0.21009417 2.020136 156 96 72
-0.0020201362 0.21009417 2.020136 157 97 71
0.0 0.21009417 2.020136 155 97 71
0.0020201362 0.21009417 2.020136 152 96 70
0.0040402724 0.21009417 2.020136 150 96 69
0.0060604084 0.21009417 2.020136 149 94 69
0.008080545 0.21009417 2.020136 146 92 69
0.010142078 0.2109552 2.0284154 146 91 70
0.012170492 0.2109552 2.0284154 141 88 69
0.014198908 0.2109552 2.0284154 125 80 63
0.016227324 0.2109552 2.0284154 126 81 68
0.018330865 0.21182331 2.0367627 126 83 68
0.020367626 0.21182331 2.0367627 126 84 67
0.02240439 0.21182331 2.0367627 125 85 68
0.024441153 0.21182331 2.0367627 122 84 67
0.026477914 0.21182331 2.0367627 119 81 65
0.02851468 0.21182331 2.0367627 123 83 68
0.030551441 0.21182331 2.0367627 126 84 68
0.032722864 0.21269862 2.0451791 127 83 66
0.034768045 0.21269862 2.0451791 131 84 70
0.036935322 0.21340409 2.0519624 131 85 69
0.038987286 0.21340409 2.0519624 131 82 68
0.041039247 0.21340409 2.0519624 135 84 65
0.043270607 0.21429254 2.0605052 151 93 69
0.045143172 0.21340409 2.0519624 159 103 80
0.047391616 0.21429254 2.0605052 163 105 81
0.04965887 0.21518841 2.0691195 165 106 81
0.051727984 0.21518841 2.0691195 166 111 83
0.05402295 0.2160918 2.0778058 135 93 76
0.056289807 0.21681999 2.0848076 80 53 45
0.058374614 0.21681999 2.0848076 72 49 44
0.060715176 0.21773718 2.0936267 70 47 40
0.063075624 0.21866216 2.1025207 70 46 38
0.06540041 0.21940781 2.1096904 78 54 47
0.067280665 0.21866216 2.1025207 77 51 43
0.069917805 0.22034703 2.1187215 77 51 44
0.07291045 0.22302021 2.1444252 80 54 48
0.07817088 0.2322792 2.2334538 84 58 54
-0.15775706 0.24252205 2.354583 104 90 85
-0.14441027 0.22536753 2.1880343 100 82 77
-0.1399942 0.22183695 2.1537569 63 47 40
-0.13784043 0.22183695 2.1537569 61 46 40
-0.13568668 0.22183695 2.1537569 62 48 41
-0.13353293 0.22183695 2.1537569 65 49 42
-0.13080993 0.2208758 2.1444252 65 51 43
-0.1286655 0.2208758 2.1444252 65 52 44
-0.12597527 0.21992293 2.135174 64 51 44
-0.12384009 0.21992293 2.135174 56 44 38
-0.12128634 0.21916653 2.1278305 53 43 37
-0.11915851 0.21916653 2.1278305 51 40 36
-0.11652968 0.21822831 2.1187215 52 42 38
-0.11392329 0.2172981 2.1096904 54 46 43
-0.11181359 0.2172981 2.1096904 52 42 40
-0.10933108 0.21655963 2.1025207 51 42 41
-0.107228555 0.21655963 2.1025207 45 38 37
-0.10512604 0.21655963 2.1025207 41 34 33
-0.10258771 0.21564355 2.0936267 45 37 36
-0.10007077 0.21473518 2.0848076 49 40 38
-0.09798596 0.21473518 2.0848076 51 42 38
-0.095901154 0.21473518 2.0848076 51 42 38
-0.09350126 0.214014 2.0778058 51 40 37
-0.09142345 0.214014 2.0778058 54 42 34
-0.08897214 0.21311931 2.0691195 65 45 34
-0.08690301 0.21311931 2.0691195 107 74 58
-0.08448071 0.21223202 2.0605052 126 86 62
-0.08242021 0.21223202 2.0605052 132 91 68
-0.08002654 0.21135212 2.0519624 88 55 36
-0.07797457 0.21135212 2.0519624 98 66 52
-0.07592261 0.21135212 2.0519624 117 82 67
-0.073870644 0.21135212 2.0519624 84 52 38
-0.07181868 0.21135212 2.0519624 116 79 64
-0.06953609 0.21065345 2.0451791 128 86 64
-0.06749091 0.21065345 2.0451791 142 95 72
-0.065176405 0.20978656 2.0367627 155 104 78
-0.06313965 0.20978656 2.0367627 158 108 80
-0.061102882 0.20978656 2.0367627 163 111 85
-0.05906612 0.20978656 2.0367627 164 114 85
-0.05702936 0.20978656 2.0367627 165 112 84
-0.05499259 0.20978656 2.0367627 163 109 80
-0.0527388 0.20892678 2.0284154 162 107 80
-0.050710384 0.20892678 2.0284154 162 105 81
-0.048681967 0.20892678 2.0284154 160 104 79
-0.046653558 0.20892678 2.0284154 156 100 78
-0.04462514 0.20892678 2.0284154 149 97 74
-0.042596724 0.20892678 2.0284154 150 96 74
-0.04040272 0.20807402 2.020136 149 95 72
-0.038382586 0.20807402 2.020136 145 92 69
-0.03636245 0.20807402 2.020136 144 91 70
-0.034342315 0.20807402 2.020136 140 88 67
-0.03232218 0.20807402 2.020136 138 83 63
-0.030302042 0.20807402 2.020136 135 82 60
-0.028281907 0.20807402 2.020136 136 81 62
-0.026261771 0.20807402 2.020136 135 80 62
-0.024241634 0.20807402 2.020136 137 84 66
-0.022221496 0.20807402 2.020136 144 91 70
-0.02020136 0.20807402 2.020136 144 91 68
-0.018181225 0.20807402 2.020136 145 93 67
-0.01616109 0.20807402 2.020136 151 98 70
-0.014140953 0.20807402 2.020136 155 100 72
-0.012120817 0.20807402 2.020136 156 102 74
-0.01010068 0.20807402 2.020136 154 101 74
-0.008080545 0.20807402 2.020136 156 99 72
-0.0060604084 0.20807402 2.020136 155 97 72
-0.0040402724 0.20807402 2.020136 156 97 75
-0.0020201362 0.20807402 2.020136 156 97 71
0.0 0.20807402 2.020136 156 97 73
0.0020201362 0.20807402 2.020136 155 97 74
0.0040402724 0.20807402 2.020136 152 96 72
0.0060604084 0.20807402 2.020136 150 95 70
0.008080545 0.20807402 2.020136 147 92 68
0.010142078 0.20892678 2.0284154 147 91 70
0.012170492 0.20892678 2.0284154 143 90 72
0.014198908 0.20892678 2.0284154 82 49 34
0.016227324 0.20892678 2.0284154 76 52 46
0.018330865 0.20978656 2.0367627 72 52 45
0.020367626 0.20978656 2.0367627 71 51 44
0.02240439 0.20978656 2.0367627 72 51 45
0.024441153 0.20978656 2.0367627 74 53 47
0.026477914 0.20978656 2.0367627 75 54 47
0.02851468 0.20978656 2.0367627 73 50 45
0.030551441 0.20978656 2.0367627 78 52 50
0.032722864 0.21065345 2.0451791 77 47 44
0.034768045 0.21065345 2.0451791 78 47 42
0.036935322 0.21135212 2.0519624 75 43 37
0.038987286 0.21135212 2.0519624 94 56 51
0.041039247 0.21135212 2.0519624 123 76 59
0.043270607 0.21223202 2.0605052 153 97 74
0.045143172 0.21135212 2.0519624 171 112 86
0.047391616 0.21223202 2.0605052 166 110 85
0.04965887 0.21311931 2.0691195 170 110 84
0.051727984 0.21311931 2.0691195 171 112 85
0.05402295 0.214014 2.0778058 150 103 84
0.056289807 0.21473518 2.0848076 80 52 44
0.058374614 0.21473518 2.0848076 71 49 41
0.060715176 0.21564355 2.0936267 70 45 39
0.063075624 0.21655963 2.1025207 69 45 37
0.06540041 0.2172981 2.1096904 78 54 46
0.06751009 0.2172981 2.1096904 77 54 46
0.06961978 0.2172981 2.1096904 77 52 45
0.07234624 0.21916653 2.1278305 82 56 48
0.07754104 0.22819218 2.2154582 86 59 53
-0.15452252 0.23524326 2.3063064 91 74 68
-0.14441027 0.2231795 2.1880343 105 88 82
-0.14048328 0.22045067 2.161281 62 47 40
-0.13784043 0.2196832 2.1537569 60 47 39
-0.13568668 0.2196832 2.1537569 61 47 40
-0.13353293 0.2196832 2.1537569 64 49 42
-0.13080993 0.21873137 2.1444252 64 50 44
-0.1286655 0.21873137 2.1444252 65 51 45
-0.12652108 0.21873137 2.1444252 64 50 45
-0.12384009 0.21778776 2.135174 56 43 39
-0.12128634 0.2170387 2.1278305 52 42 37
-0.11915851 0.2170387 2.1278305 50 40 37
-0.11652968 0.21610959 2.1187215 49 40 38
-0.11392329 0.21518843 2.1096904 52 42 41
-0.11181359 0.21518843 2.1096904 53 43 41
-0.10933108 0.21445711 2.1025207 51 42 41
-0.107228555 0.21445711 2.1025207 45 37 37
-0.10512604 0.21445711 2.1025207 39 34 33
-0.10258771 0.21354993 2.0936267 43 37 35
-0.10007077 0.21265037 2.0848076 50 40 38
-0.09798596 0.21265037 2.0848076 51 41 38
-0.095901154 0.21265037 2.0848076 52 42 37
-0.09350126 0.21193619 2.0778058 50 40 36
-0.09142345 0.21193619 2.0778058 55 43 33
-0.08897214 0.21105018 2.0691195 67 48 34
-0.08690301 0.21105018 2.0691195 109 76 57
-0.08448071 0.21017152 2.0605052 131 89 63
-0.08242021 0.21017152 2.0605052 145 99 70
-0.080359705 0.21017152 2.0605052 115 81 58
-0.07797457 0.20930016 2.0519624 104 69 53
-0.07592261 0.20930016 2.0519624 121 83 67
-0.073870644 0.20930016 2.0519624 86 51 33
-0.07181868 0.20930016 2.0519624 125 83 65
-0.06953609 0.20860827 2.0451791 139 91 71
-0.06749091 0.20860827 2.0451791 149 99 77
-0.065176405 0.2077498 2.0367627 154 104 77
-0.06313965 0.2077498 2.0367627 156 106 76
-0.061102882 0.2077498 2.0367627 158 105 80
-0.05906612 0.2077498 2.0367627 157 106 77
-0.05702936 0.2077498 2.0367627 155 104 79
-0.054767217 0.20689838 2.0284154 149 99 77
-0.0527388 0.20689838 2.0284154 149 98 75
-0.050710384 0.20689838 2.0284154 148 96 75
-0.048681967 0.20689838 2.0284154 143 93 73
-0.046653558 0.20689838 2.0284154 138 92 71
-0.04462514 0.20689838 2.0284154 139 92 73
-0.042596724 0.20689838 2.0284154 133 89 70
-0.04040272 0.20605388 2.020136 128 87 72
-0.038382586 0.20605388 2.020136 124 84 70
-0.03636245 0.20605388 2.020136 121 82 65
-0.034342315 0.20605388 2.020136 119 80 63
-0.03232218 0.20605388 2.020136 118 77 61
-0.030302042 0.20605388 2.020136 111 73 56
-0.028281907 0.20605388 2.020136 107 68 55
-0.026261771 0.20605388 2.020136 109 67 53
-0.024241634 0.20605388 2.020136 115 69 50
-0.022221496 0.20605388 2.020136 147 94 74
-0.02020136 0.20605388 2.020136 144 92 70
-0.018181225 0.20605388 2.020136 148 95 71
-0.01616109 0.20605388 2.020136 153 100 74
-0.014140953 0.20605388 2.020136 157 103 77
-0.012120817 0.20605388 2.020136 160 105 79
-0.01010068 0.20605388 2.020136 160 105 79
-0.008080545 0.20605388 2.020136 158 103 76
-0.0060604084 0.20605388 2.020136 157 100 76
-0.0040402724 0.20605388 2.020136 157 99 76
-0.0020201362 0.20605388 2.020136 157 100 72
0.0 0.20605388 2.020136 157 99 74
0.0020201362 0.20605388 2.020136 158 98 76
0.0040402724 0.20605388 2.020136 154 97 73
0.0060604084 0.20605388 2.020136 151 95 70
0.008080545 0.20605388 2.020136 147 93 66
0.010142078 0.20689838 2.0284154 146 92 65
0.012170492 0.20689838 2.0284154 145 90 68
0.014198908 0.20689838 2.0284154 108 73 59
0.016294101 0.2077498 2.0367627 49 34 30
0.018330865 0.2077498 2.0367627 43 36 32
0.020367626 0.2077498 2.0367627 49 44 40
0.02240439 0.2077498 2.0367627 49 45 43
0.024441153 0.2077498 2.0367627 51 43 42
0.026477914 0.2077498 2.0367627 54 45 43
0.02851468 0.2077498 2.0367627 59 45 42
0.030551441 0.2077498 2.0367627 76 56 53
0.032722864 0.20860827 2.0451791 79 59 53
0.034768045 0.20860827 2.0451791 84 58 54
0.036935322 0.20930016 2.0519624 95 64 60
0.038987286 0.20930016 2.0519624 102 69 59
0.041039247 0.20930016 2.0519624 128 87 68
0.043270607 0.21017152 2.0605052 168 110 87
0.045143172 0.20930016 2.0519624 186 124 93
0.047391616 0.21017152 2.0605052 180 120 91
0.04965887 0.21105018 2.0691195 176 116 86
0.051727984 0.21105018 2.0691195 170 111 84
0.05402295 0.21193619 2.0778058 159 105 81
0.056289807 0.21265037 2.0848076 86 54 42
0.058374614 0.21265037 2.0848076 71 48 37
0.060715176 0.21354993 2.0936267 68 45 38
0.063075624 0.21445711 2.1025207 72 48 41
0.06540041 0.21518843 2.1096904 75 50 41
0.06751009 0.21518843 2.1096904 78 53 45
0.06961978 0.21518843 2.1096904 77 52 44
0.07234624 0.2170387 2.1278305 81 57 48
0.07685301 0.2239716 2.1958 87 60 52
-0.15267281 0.23014855 2.2786987 84 69 61
-0.14441027 0.22099148 2.1880343 98 83 76
-0.1399942 0.21752945 2.1537569 62 47 40
-0.13784043 0.21752945 2.1537569 59 45 38
-0.13568668 0.21752945 2.1537569 62 47 40
-0.13353293 0.21752945 2.1537569 66 52 45
-0.13080993 0.21658695 2.1444252 63 48 42
-0.1286655 0.21658695 2.1444252 64 49 42
-0.12652108 0.21658695 2.1444252 63 49 44
-0.12384009 0.21565257 2.135174 57 44 39
-0.12170492 0.21565257 2.135174 52 42 37
-0.11915851 0.2149109 2.1278305 50 40 38
-0.11652968 0.21399088 2.1187215 47 39 36
-0.11392329 0.21307874 2.1096904 51 41 39
-0.11181359 0.21307874 2.1096904 53 43 41
-0.10933108 0.21235459 2.1025207 51 41 42
-0.107228555 0.21235459 2.1025207 43 36 37
-0.10512604 0.21235459 2.1025207 39 34 33
-0.10258771 0.2114563 2.0936267 45 37 34
-0.10007077 0.21056557 2.0848076 48 39 35
-0.09798596 0.21056557 2.0848076 52 41 38
-0.095901154 0.21056557 2.0848076 51 41 37
-0.09350126 0.20985839 2.0778058 51 40 38
-0.09142345 0.20985839 2.0778058 57 43 36
-0.08897214 0.20898107 2.0691195 74 52 36
-0.08690301 0.20898107 2.0691195 109 75 54
-0.08448071 0.20811102 2.0605052 138 93 68
-0.08242021 0.20811102 2.0605052 153 104 74
-0.080359705 0.20811102 2.0605052 125 87 60
-0.07797457 0.2072482 2.0519624 107 70 49
-0.07592261 0.2072482 2.0519624 126 88 67
-0.073870644 0.2072482 2.0519624 98 60 39
-0.07181868 0.2072482 2.0519624 131 88 66
-0.06953609 0.2065631 2.0451791 147 97 75
-0.06749091 0.2065631 2.0451791 154 102 77
-0.065176405 0.20571303 2.0367627 156 105 76
-0.06313965 0.20571303 2.0367627 153 101 72
-0.061102882 0.20571303 2.0367627 144 94 68
-0.05906612 0.20571303 2.0367627 137 88 64
-0.05679563 0.20486997 2.0284154 125 82 59
-0.054767217 0.20486997 2.0284154 113 77 58
-0.0527388 0.20486997 2.0284154 110 76 60
-0.050710384 0.20486997 2.0284154 109 77 61
-0.048681967 0.20486997 2.0284154 105 75 60
-0.046653558 0.20486997 2.0284154 97 72 57
-0.04462514 0.20486997 2.0284154 95 67 56
-0.042596724 0.20486997 2.0284154 92 66 55
-0.04040272 0.20403375 2.020136 87 60 56
-0.038382586 0.20403375 2.020136 79 57 55
-0.03636245 0.20403375 2.020136 76 54 46
-0.034342315 0.20403375 2.020136 70 50 43
-0.03232218 0.20403375 2.020136 68 49 41
-0.030302042 0.20403375 2.020136 63 44 37
-0.028281907 0.20403375 2.020136 58 37 36
-0.026261771 0.20403375 2.020136 78 44 32
-0.024241634 0.20403375 2.020136 131 85 63
-0.022221496 0.20403375 2.020136 147 94 71
-0.02020136 0.20403375 2.020136 146 94 71
-0.018181225 0.20403375 2.020136 152 99 74
-0.01616109 0.20403375 2.020136 158 105 79
-0.014140953 0.20403375 2.020136 160 107 81
-0.012120817 0.20403375 2.020136 164 111 83
-0.01010068 0.20403375 2.020136 167 110 85
-0.008080545 0.20403375 2.020136 164 106 83
-0.0060604084 0.20403375 2.020136 162 104 79
-0.0040402724 0.20403375 2.020136 160 101 77
-0.0020201362 0.20403375 2.020136 158 102 72
0.0 0.20403375 2.020136 158 100 74
0.0020201362 0.20403375 2.020136 159 98 75
0.0040402724 0.20403375 2.020136 158 99 74
0.0060604084 0.20403375 2.020136 155 97 71
0.008080545 0.20403375 2.020136 151 95 67
0.010142078 0.20486997 2.0284154 149 93 66
0.012170492 0.20486997 2.0284154 147 91 66
0.014198908 0.20486997 2.0284154 141 90 70
0.016294101 0.20571303 2.0367627 113 77 69
0.018330865 0.20571303 2.0367627 75 47 38
0.020367626 0.20571303 2.0367627 48 31 21
0.02240439 0.20571303 2.0367627 47 35 29
0.024441153 0.20571303 2.0367627 46 35 30
0.026477914 0.20571303 2.0367627 56 44 38
0.02851468 0.20571303 2.0367627 67 49 43
0.030551441 0.20571303 2.0367627 76 51 41
0.032722864 0.2065631 2.0451791 84 53 40
0.034768045 0.2065631 2.0451791 104 68 54
0.036935322 0.2072482 2.0519624 125 85 69
0.038987286 0.2072482 2.0519624 151 100 80
0.041039247 0.2072482 2.0519624 170 115 89
0.043270607 0.20811102 2.0605052 185 125 95
0.045143172 0.2072482 2.0519624 189 129 96
0.047391616 0.20811102 2.0605052 189 127 95
0.04965887 0.20898107 2.0691195 182 121 89
0.051727984 0.20898107 2.0691195 170 111 84
0.05402295 0.20985839 2.0778058 157 103 78
0.056289807 0.21056557 2.0848076 91 59 44
0.058374614 0.21056557 2.0848076 71 48 38
0.060715176 0.2114563 2.0936267 66 43 37
0.063075624 0.21235459 2.1025207 72 48 42
0.06540041 0.21307874 2.1096904 74 50 41
0.067799084 0.21399088 2.1187215 77 52 45
0.06938319 0.21235459 2.1025207 75 49 42
0.071729474 0.21307874 2.1096904 78 53 45
0.07597662 0.21924679 2.1707604 83 58 50
-0.15197311 0.22682555 2.2682555 79 64 54
-0.14377466 0.21784039 2.1784039 80 65 56
-0.14048328 0.21612811 2.161281 61 46 39
-0.13784043 0.21537569 2.1537569 61 46 39
-0.13568668 0.21537569 2.1537569 63 49 42
-0.13353293 0.21537569 2.1537569 68 53 47
-0.13080993 0.21444252 2.1444252 61 47 40
-0.1286655 0.21444252 2.1444252 63 49 43
-0.12652108 0.21444252 2.1444252 63 48 44
-0.12384009 0.21351741 2.135174 58 45 40
-0.12170492 0.21351741 2.135174 52 42 38
-0.11915851 0.21278305 2.1278305 50 40 38
-0.11703068 0.21278305 2.1278305 47 40 37
-0.11441096 0.21187215 2.1187215 50 40 40
-0.11181359 0.21096905 2.1096904 52 43 42
-0.10933108 0.21025208 2.1025207 51 41 43
-0.107228555 0.21025208 2.1025207 45 36 35
-0.10512604 0.21025208 2.1025207 42 33 33
-0.103023514 0.21025208 2.1025207 45 37 34
-0.10007077 0.20848076 2.0848076 48 39 35
-0.09798596 0.20848076 2.0848076 52 41 38
-0.095901154 0.20848076 2.0848076 52 41 38
-0.09350126 0.20778058 2.0778058 50 40 38
-0.09142345 0.20778058 2.0778058 57 42 36
-0.08897214 0.20691194 2.0691195 80 57 36
-0.08690301 0.20691194 2.0691195 105 72 48
-0.08448071 0.20605052 2.0605052 141 95 68
-0.08242021 0.20605052 2.0605052 154 106 78
-0.080359705 0.20605052 2.0605052 133 92 66
-0.07797457 0.20519625 2.0519624 127 86 64
-0.07592261 0.20519625 2.0519624 133 91 65
-0.073870644 0.20519625 2.0519624 117 76 46
-0.07181868 0.20519625 2.0519624 142 94 67
-0.06953609 0.20451792 2.0451791 154 102 76
-0.06749091 0.20451792 2.0451791 161 108 82
-0.065176405 0.20367627 2.0367627 163 110 82
-0.06313965 0.20367627 2.0367627 161 107 80
-0.061102882 0.20367627 2.0367627 154 101 77
-0.058824047 0.20284154 2.0284154 142 92 71
-0.05679563 0.20284154 2.0284154 121 78 57
-0.054767217 0.20284154 2.0284154 89 57 38
-0.0527388 0.20284154 2.0284154 73 51 37
-0.050710384 0.20284154 2.0284154 70 47 39
-0.048681967 0.20284154 2.0284154 66 46 37
-0.046653558 0.20284154 2.0284154 63 49 42
-0.04462514 0.20284154 2.0284154 60 44 40
-0.042596724 0.20284154 2.0284154 52 39 36
-0.04040272 0.20201361 2.020136 51 44 39
-0.038382586 0.20201361 2.020136 52 43 37
-0.03636245 0.20201361 2.020136 49 43 36
-0.034342315 0.20201361 2.020136 45 41 33
-0.03232218 0.20201361 2.020136 45 38 30
-0.030302042 0.20201361 2.020136 47 33 25
-0.028281907 0.20201361 2.020136 75 46 42
-0.026261771 0.20201361 2.020136 116 77 62
-0.024241634 0.20201361 2.020136 140 92 67
-0.022221496 0.20201361 2.020136 147 95 69
-0.02020136 0.20201361 2.020136 152 98 74
-0.018181225 0.20201361 2.020136 159 105 79
-0.01616109 0.20201361 2.020136 165 110 83
-0.014140953 0.20201361 2.020136 168 113 86
-0.012120817 0.20201361 2.020136 171 116 87
-0.01010068 0.20201361 2.020136 171 114 89
-0.008080545 0.20201361 2.020136 168 110 86
-0.0060604084 0.20201361 2.020136 168 108 83
-0.0040402724 0.20201361 2.020136 167 105 80
-0.0020201362 0.20201361 2.020136 164 103 75
0.0 0.20201361 2.020136 163 102 75
0.0020201362 0.20201361 2.020136 162 100 76
0.0040402724 0.20201361 2.020136 161 99 74
0.0060604084 0.20201361 2.020136 158 98 72
0.008080545 0.20201361 2.020136 155 97 68
0.01010068 0.20201361 2.020136 151 94 66
0.012170492 0.20284154 2.0284154 150 93 67
0.01425734 0.20367627 2.0367627 148 93 69
0.016294101 0.20367627 2.0367627 145 88 71
0.018330865 0.20367627 2.0367627 134 85 69
0.020367626 0.20367627 2.0367627 125 83 70
0.02240439 0.20367627 2.0367627 120 80 69
0.024441153 0.20367627 2.0367627 112 78 67
0.026477914 0.20367627 2.0367627 113 78 62
0.02851468 0.20367627 2.0367627 116 80 62
0.030551441 0.20367627 2.0367627 125 83 66
0.032722864 0.20451792 2.0451791 131 84 72
0.034768045 0.20451792 2.0451791 145 90 72
0.036935322 0.20519625 2.0519624 168 107 87
0.038987286 0.20519625 2.0519624 188 125 94
0.041039247 0.20519625 2.0519624 193 134 103
0.043270607 0.20605052 2.0605052 202 141 107
0.045143172 0.20519625 2.0519624 199 139 107
0.047391616 0.20605052 2.0605052 192 132 101
0.04965887 0.20691194 2.0691195 188 125 91
0.051727984 0.20691194 2.0691195 178 115 88
0.05402295 0.20778058 2.0778058 159 102 78
0.056289807 0.20848076 2.0848076 94 61 46
0.058374614 0.20848076 2.0848076 70 47 38
0.060715176 0.20936267 2.0936267 65 43 37
0.063075624 0.21025208 2.1025207 71 48 41
0.06540041 0.21096905 2.1096904 75 50 42
0.067799084 0.21187215 2.1187215 77 52 44
0.06938319 0.21025208 2.1025207 80 54 47
0.071729474 0.21096905 2.1096904 79 55 48
0.07597662 0.21707603 2.1707604 83 59 52
-0.15072969 0.22272 2.249697 76 60 52
-0.14441027 0.21661541 2.1880343 66 49 41
-0.14048328 0.21396683 2.161281 63 48 40
-0.13784043 0.21322192 2.1537569 63 49 42
-0.13568668 0.21322192 2.1537569 64 51 45
-0.13353293 0.21322192 2.1537569 64 51 44
-0.13137917 0.21322192 2.1537569 60 46 39
-0.1286655 0.2122981 2.1444252 62 49 42
-0.12652108 0.2122981 2.1444252 62 48 42
-0.12384009 0.21138224 2.135174 58 45 40
-0.12170492 0.21138224 2.135174 53 42 38
-0.11915851 0.21065521 2.1278305 50 40 38
-0.11703068 0.21065521 2.1278305 47 39 36
-0.11441096 0.20975344 2.1187215 51 40 39
-0.11181359 0.20885935 2.1096904 53 42 41
-0.10933108 0.20814955 2.1025207 52 42 42
-0.107228555 0.20814955 2.1025207 46 36 35
-0.10512604 0.20814955 2.1025207 42 34 32
-0.103023514 0.20814955 2.1025207 45 38 34
-0.10007077 0.20639595 2.0848076 49 39 36
-0.09798596 0.20639595 2.0848076 52 41 38
-0.095901154 0.20639595 2.0848076 51 42 39
-0.09350126 0.20570277 2.0778058 50 39 37
-0.09142345 0.20570277 2.0778058 59 42 36
-0.08897214 0.20484282 2.0691195 85 58 41
-0.08690301 0.20484282 2.0691195 106 72 46
-0.08448071 0.20399001 2.0605052 147 99 69
-0.08242021 0.20399001 2.0605052 157 107 77
-0.080359705 0.20399001 2.0605052 142 97 70
-0.07797457 0.20314427 2.0519624 134 91 64
-0.07592261 0.20314427 2.0519624 135 93 63
-0.073870644 0.20314427 2.0519624 141 94 64
-0.07181868 0.20314427 2.0519624 156 104 74
-0.06953609 0.20247273 2.0451791 165 112 84
-0.06749091 0.20247273 2.0451791 171 117 89
-0.065176405 0.20163952 2.0367627 173 120 89
-0.06313965 0.20163952 2.0367627 179 122 91
-0.060852464 0.20081313 2.0284154 178 119 91
-0.058824047 0.20081313 2.0284154 166 111 87
-0.05679563 0.20081313 2.0284154 145 96 76
-0.054767217 0.20081313 2.0284154 117 80 60
-0.0527388 0.20081313 2.0284154 102 68 53
-0.050710384 0.20081313 2.0284154 81 51 39
-0.048681967 0.20081313 2.0284154 73 48 37
-0.046653558 0.20081313 2.0284154 69 48 39
-0.04462514 0.20081313 2.0284154 67 48 41
-0.042596724 0.20081313 2.0284154 53 39 33
-0.04040272 0.19999348 2.020136 46 39 31
-0.038382586 0.19999348 2.020136 47 36 27
-0.03636245 0.19999348 2.020136 48 38 27
-0.034342315 0.19999348 2.020136 60 43 31
-0.03232218 0.19999348 2.020136 82 51 41
-0.030302042 0.19999348 2.020136 107 72 53
-0.028281907 0.19999348 2.020136 125 81 62
-0.026261771 0.19999348 2.020136 139 88 66
-0.024241634 0.19999348 2.020136 148 95 71
-0.022221496 0.19999348 2.020136 150 98 74
-0.02020136 0.19999348 2.020136 159 106 80
-0.018181225 0.19999348 2.020136 167 112 85
-0.01616109 0.19999348 2.020136 172 118 89
-0.014140953 0.19999348 2.020136 176 119 92
-0.012120817 0.19999348 2.020136 175 119 90
-0.01010068 0.19999348 2.020136 174 117 91
-0.008080545 0.19999348 2.020136 173 115 88
-0.0060604084 0.19999348 2.020136 173 111 85
-0.0040402724 0.19999348 2.020136 171 107 81
-0.0020201362 0.19999348 2.020136 169 106 78
0.0 0.19999348 2.020136 168 104 77
0.0020201362 0.19999348 2.020136 165 102 76
0.0040402724 0.19999348 2.020136 163 102 75
0.0060604084 0.19999348 2.020136 159 100 73
0.008080545 0.19999348 2.020136 156 98 70
0.01010068 0.19999348 2.020136 154 95 67
0.012120817 0.19999348 2.020136 150 94 67
0.014198908 0.20081313 2.0284154 151 95 68
0.016294101 0.20163952 2.0367627 149 93 68
0.018330865 0.20163952 2.0367627 142 90 66
0.020367626 0.20163952 2.0367627 143 87 66
0.02240439 0.20163952 2.0367627 142 85 66
0.024441153 0.20163952 2.0367627 140 87 66
0.026477914 0.20163952 2.0367627 142 89 66
0.02851468 0.20163952 2.0367627 147 89 67
0.030551441 0.20163952 2.0367627 152 91 69
0.032722864 0.20247273 2.0451791 154 94 77
0.034768045 0.20247273 2.0451791 164 103 80
0.036935322 0.20314427 2.0519624 182 121 92
0.038987286 0.20314427 2.0519624 197 133 103
0.041039247 0.20314427 2.0519624 205 140 108
0.043270607 0.20399001 2.0605052 204 143 109
0.045143172 0.20314427 2.0519624 205 142 109
0.047391616 0.20399001 2.0605052 204 140 106
0.04965887 0.20484282 2.0691195 197 130 95
0.051727984 0.20484282 2.0691195 183 118 90
0.05402295 0.20570277 2.0778058 157 101 76
0.056289807 0.20639595 2.0848076 99 65 48
0.058374614 0.20639595 2.0848076 71 47 39
0.060715176 0.20726904 2.0936267 65 43 37
0.063075624 0.20814955 2.1025207 69 46 39
0.06540041 0.20885935 2.1096904 74 49 43
0.067799084 0.20975344 2.1187215 76 50 45
0.06938319 0.20814955 2.1025207 80 54 47
0.071729474 0.20885935 2.1096904 79 55 48
0.075644836 0.21396683 2.161281 80 58 51
-0.15018357 0.21967149 2.241546 77 64 59
-0.14377466 0.21348359 2.1784039 65 49 43
-0.14048328 0.21180554 2.161281 62 48 41
-0.13784043 0.21106818 2.1537569 63 49 42
-0.13568668 0.21106818 2.1537569 64 49 43
-0.13353293 0.21106818 2.1537569 61 47 41
-0.13137917 0.21106818 2.1537569 59 46 40
-0.1286655 0.21015367 2.1444252 62 48 42
-0.12652108 0.21015367 2.1444252 62 47 42
-0.12384009 0.20924705 2.135174 59 45 41
-0.12170492 0.20924705 2.135174 53 41 37
-0.11915851 0.20852739 2.1278305 50 41 37
-0.11703068 0.20852739 2.1278305 47 37 34
-0.11441096 0.2076347 2.1187215 51 41 39
-0.11181359 0.20674966 2.1096904 53 42 39
-0.10933108 0.20604703 2.1025207 52 42 41
-0.107228555 0.20604703 2.1025207 44 37 35
-0.10512604 0.20604703 2.1025207 42 35 32
-0.103023514 0.20604703 2.1025207 44 37 34
-0.10007077 0.20431115 2.0848076 48 38 36
-0.09798596 0.20431115 2.0848076 51 41 38
-0.095901154 0.20431115 2.0848076 51 41 38
-0.09350126 0.20362496 2.0778058 50 39 36
-0.09142345 0.20362496 2.0778058 59 41 37
-0.08897214 0.2027737 2.0691195 90 59 48
-0.08690301 0.2027737 2.0691195 117 81 62
-0.08448071 0.20192951 2.0605052 146 99 74
-0.08242021 0.20192951 2.0605052 157 104 79
-0.080359705 0.20192951 2.0605052 149 100 76
-0.078299195 0.20192951 2.0605052 141 94 70
-0.07592261 0.20109232 2.0519624 149 101 73
-0.073870644 0.20109232 2.0519624 162 108 80
-0.07181868 0.20109232 2.0519624 175 118 87
-0.06953609 0.20042755 2.0451791 177 121 90
-0.06749091 0.20042755 2.0451791 178 123 91
-0.065176405 0.19960275 2.0367627 180 124 91
-0.06313965 0.19960275 2.0367627 179 124 93
-0.060852464 0.19878471 2.0284154 179 123 95
-0.058824047 0.19878471 2.0284154 177 120 94
-0.05679563 0.19878471 2.0284154 171 115 90
-0.054767217 0.19878471 2.0284154 165 111 88
-0.0527388 0.19878471 2.0284154 161 107 87
-0.050710384 0.19878471 2.0284154 147 98 83
-0.048681967 0.19878471 2.0284154 133 91 77
-0.046653558 0.19878471 2.0284154 124 85 75
-0.04462514 0.19878471 2.0284154 118 82 69
-0.04242286 0.19797334 2.020136 111 77 63
-0.04040272 0.19797334 2.020136 110 76 61
-0.038382586 0.19797334 2.020136 113 78 64
-0.03636245 0.19797334 2.020136 114 78 67
-0.034342315 0.19797334 2.020136 123 81 68
-0.03232218 0.19797334 2.020136 128 82 69
-0.030302042 0.19797334 2.020136 132 84 61
-0.028281907 0.19797334 2.020136 138 88 61
-0.026261771 0.19797334 2.020136 146 95 68
-0.024241634 0.19797334 2.020136 155 100 73
-0.022221496 0.19797334 2.020136 162 106 80
-0.02020136 0.19797334 2.020136 167 113 86
-0.018181225 0.19797334 2.020136 171 119 90
-0.01616109 0.19797334 2.020136 178 123 94
-0.014140953 0.19797334 2.020136 179 124 95
-0.012120817 0.19797334 2.020136 179 123 93
-0.01010068 0.19797334 2.020136 178 120 92
-0.008080545 0.19797334 2.020136 175 116 89
-0.0060604084 0.19797334 2.020136 175 113 87
-0.0040402724 0.19797334 2.020136 173 110 83
-0.0020201362 0.19797334 2.020136 173 107 80
0.0 0.19797334 2.020136 171 106 78
0.0020201362 0.19797334 2.020136 167 104 76
0.0040402724 0.19797334 2.020136 165 102 74
0.0060604084 0.19797334 2.020136 162 102 74
0.008080545 0.19797334 2.020136 158 99 72
0.01010068 0.19797334 2.020136 155 97 69
0.012120817 0.19797334 2.020136 155 96 70
0.014198908 0.19878471 2.0284154 154 97 70
0.016227324 0.19878471 2.0284154 154 96 69
0.018255739 0.19878471 2.0284154 153 94 69
0.020367626 0.19960275 2.0367627 150 93 68
0.02240439 0.19960275 2.0367627 147 90 68
0.024441153 0.19960275 2.0367627 146 89 70
0.026477914 0.19960275 2.0367627 146 89 68
0.02851468 0.19960275 2.0367627 150 92 68
0.030551441 0.19960275 2.0367627 154 94 68
0.032722864 0.20042755 2.0451791 160 102 76
0.034768045 0.20042755 2.0451791 176 115 86
0.036813226 0.20042755 2.0451791 193 128 94
0.038858403 0.20042755 2.0451791 202 136 100
0.041039247 0.20109232 2.0519624 206 139 105
0.043270607 0.20192951 2.0605052 207 140 107
0.045143172 0.20109232 2.0519624 207 140 109
0.047391616 0.20192951 2.0605052 206 139 105
0.04965887 0.2027737 2.0691195 200 135 100
0.051727984 0.2027737 2.0691195 188 125 95
0.05402295 0.20362496 2.0778058 160 103 76
0.056289807 0.20431115 2.0848076 105 68 51
0.058374614 0.20431115 2.0848076 74 47 45
0.060715176 0.20517541 2.0936267 68 44 41
0.062808804 0.20517541 2.0936267 70 47 40
0.06517814 0.20604703 2.1025207 72 47 41
0.067799084 0.2076347 2.1187215 72 46 41
0.06938319 0.20604703 2.1025207 81 55 46
0.071729474 0.20674966 2.1096904 81 53 43
0.075644836 0.21180554 2.161281 83 57 48
-0.14896914 0.21567175 2.2234201 75 62 57
-0.1432702 0.21056375 2.1707604 64 50 43
-0.1399942 0.20891441 2.1537569 63 49 43
-0.13784043 0.20891441 2.1537569 63 49 44
-0.13568668 0.20891441 2.1537569 61 48 42
-0.13353293 0.20891441 2.1537569 58 45 38
-0.13137917 0.20891441 2.1537569 58 45 39
-0.1286655 0.20800924 2.1444252 61 47 42
-0.12652108 0.20800924 2.1444252 60 47 42
-0.12384009 0.20711188 2.135174 58 45 41
-0.12170492 0.20711188 2.135174 53 40 37
-0.11915851 0.20639956 2.1278305 51 40 36
-0.11703068 0.20639956 2.1278305 49 39 36
-0.11441096 0.205516 2.1187215 52 41 38
-0.11181359 0.20463997 2.1096904 52 41 38
-0.10933108 0.2039445 2.1025207 52 42 41
-0.107228555 0.2039445 2.1025207 48 38 35
-0.10512604 0.2039445 2.1025207 45 35 33
-0.103023514 0.2039445 2.1025207 44 37 34
-0.10007077 0.20222634 2.0848076 47 38 35
-0.09798596 0.20222634 2.0848076 52 41 38
-0.095901154 0.20222634 2.0848076 51 39 38
-0.09350126 0.20154716 2.0778058 51 38 37
-0.09142345 0.20154716 2.0778058 57 39 34
-0.08897214 0.20070459 2.0691195 95 63 52
-0.08690301 0.20070459 2.0691195 124 86 64
-0.08448071 0.199869 2.0605052 153 105 77
-0.08242021 0.199869 2.0605052 156 105 79
-0.080359705 0.199869 2.0605052 148 99 75
-0.078299195 0.199869 2.0605052 146 98 74
-0.07592261 0.19904034 2.0519624 162 108 80
-0.073870644 0.19904034 2.0519624 173 119 86
-0.07181868 0.19904034 2.0519624 180 121 91
-0.06953609 0.19838236 2.0451791 181 122 91
-0.06749091 0.19838236 2.0451791 183 127 92
-0.065176405 0.19756597 2.0367627 183 128 93
-0.06313965 0.19756597 2.0367627 180 126 93
-0.060852464 0.1967563 2.0284154 179 125 95
-0.058824047 0.1967563 2.0284154 180 125 94
-0.05679563 0.1967563 2.0284154 182 123 93
-0.054767217 0.1967563 2.0284154 179 119 92
-0.0527388 0.1967563 2.0284154 176 117 89
-0.050710384 0.1967563 2.0284154 167 111 84
-0.048681967 0.1967563 2.0284154 163 108 82
-0.046653558 0.1967563 2.0284154 159 102 81
-0.04462514 0.1967563 2.0284154 155 100 80
-0.04242286 0.1959532 2.020136 150 97 77
-0.04040272 0.1959532 2.020136 148 96 76
-0.038382586 0.1959532 2.020136 147 93 75
-0.03636245 0.1959532 2.020136 141 90 73
-0.034342315 0.1959532 2.020136 135 87 70
-0.03232218 0.1959532 2.020136 137 87 69
-0.030302042 0.1959532 2.020136 144 89 67
-0.028281907 0.1959532 2.020136 149 94 69
