ply
format ascii 1.0
element vertex 1078
property float32 x
property float32 y
property float32 z
property uchar red
property uchar green
property uchar blue
element face 0
property list uint8 int32 vertex_indices
end_header
0.1105895 -0.19761075 1.8129426 184 105 85
0.11199222 -0.19688955 1.8063262 181 110 90
0.11421539 -0.19761075 1.8129426 186 113 97
0.116540596 -0.1984832 1.8209468 131 83 79
0.11836154 -0.1984832 1.8209468 100 50 45
0.120182484 -0.1984832 1.8209468 148 91 78
0.12290784 -0.19995454 1.8344454 167 102 87
0.12520635 -0.2006984 1.8412699 179 113 96
0.128 -0.2022029 1.8550725 204 131 109
0.13034363 -0.20296364 1.8620517 217 144 117
0.13220568 -0.20296364 1.8620517 226 157 125
0.13457403 -0.20373012 1.8690836 227 156 127
0.13592978 -0.20296364 1.8620517 222 148 123
0.13894184 -0.20465757 1.8775923 217 147 123
0.14298922 -0.20781098 1.9065229 212 145 124
0.14938417 -0.21424836 1.9655812 218 173 144
0.1580011 -0.2236639 2.0519624 217 192 167
0.16455585 -0.22995625 2.1096904 219 195 169
0.16737899 -0.23094064 2.1187215 216 194 168
0.16949771 -0.23094064 2.1187215 208 183 160
0.17088492 -0.22995625 2.1096904 185 162 144
0.17299461 -0.22995625 2.1096904 199 175 155
0.1751043 -0.22995625 2.1096904 201 177 156
0.177214 -0.22995625 2.1096904 189 167 148
0.17932369 -0.22995625 2.1096904 216 189 168
0.18081678 -0.22917476 2.1025207 218 191 169
0.1829193 -0.22917476 2.1025207 221 193 171
0.18502182 -0.22917476 2.1025207 218 191 170
0.18712434 -0.22917476 2.1025207 210 185 164
0.18922687 -0.22917476 2.1025207 213 189 166
0.19132939 -0.22917476 2.1025207 220 193 171
0.19261366 -0.22820531 2.0936267 220 193 171
0.19470729 -0.22820531 2.0936267 215 189 167
0.19680092 -0.22820531 2.0936267 218 194 172
0.19889455 -0.22820531 2.0936267 225 199 176
0.20098816 -0.22820531 2.0936267 218 191 171
0.20308179 -0.22820531 2.0936267 221 193 172
0.20517541 -0.22820531 2.0936267 219 195 173
0.20726904 -0.22820531 2.0936267 221 193 171
0.20936267 -0.22820531 2.0936267 216 188 169
0.2114563 -0.22820531 2.0936267 217 190 170
0.21354993 -0.22820531 2.0936267 213 187 166
0.21564355 -0.22820531 2.0936267 217 193 171
0.21773718 -0.22820531 2.0936267 218 194 172
0.21983081 -0.22820531 2.0936267 225 198 175
0.22192444 -0.22820531 2.0936267 224 196 174
0.22401807 -0.22820531 2.0936267 218 190 169
0.2261117 -0.22820531 2.0936267 208 184 164
0.22820531 -0.22820531 2.0936267 219 195 173
0.23029894 -0.22820531 2.0936267 213 189 168
0.23239256 -0.22820531 2.0936267 220 194 174
0.23448619 -0.22820531 2.0936267 218 192 172
0.23657982 -0.22820531 2.0936267 219 194 173
0.23867345 -0.22820531 2.0936267 219 195 174
0.24076708 -0.22820531 2.0936267 220 195 174
0.2428607 -0.22820531 2.0936267 218 192 172
0.24495433 -0.22820531 2.0936267 218 194 172
0.24704796 -0.22820531 2.0936267 221 195 175
0.2480921 -0.22724403 2.0848076 221 195 175
0.2501769 -0.22724403 2.0848076 219 194 173
0.25226173 -0.22724403 2.0848076 217 190 171
0.2534923 -0.22648084 2.0778058 219 195 173
0.2555701 -0.22648084 2.0778058 221 196 175
0.2565708 -0.22553402 2.0691195 223 198 176
0.25863993 -0.22553402 2.0691195 225 200 179
0.25962365 -0.22459505 2.0605052 225 198 177
0.26059923 -0.2236639 2.0519624 221 200 179
0.26265118 -0.2236639 2.0519624 221 201 178
0.2638281 -0.22292453 2.0451791 245 197 132
0.26587328 -0.22292453 2.0451791 236 123 0
0.26681593 -0.22200714 2.0367627 250 127 0
0.26775083 -0.22109729 2.0284154 255 135 0
0.26977926 -0.22109729 2.0284154 254 136 0
0.27069825 -0.22019485 2.020136 255 137 0
0.27271837 -0.22019485 2.020136 255 138 0
0.27384433 -0.21947818 2.0135612 255 138 0
0.27585787 -0.21947818 2.0135612 255 140 0
0.27674556 -0.21858889 2.0054026 255 142 0
0.27875096 -0.21858889 2.0054026 255 144 0
0.28075635 -0.21858889 2.0054026 255 140 0
0.28162068 -0.21770675 1.9973097 238 114 0
0.28361797 -0.21770675 1.9973097 244 118 0
0.2856153 -0.21770675 1.9973097 245 122 0
-0.29548258 -0.22571586 2.0519624 133 110 93
-0.29343063 -0.22571586 2.0519624 142 116 96
-0.29137868 -0.22571586 2.0519624 146 119 97
-0.2893267 -0.22571586 2.0519624 118 99 81
-0.28727472 -0.22571586 2.0519624 134 111 91
-0.28522277 -0.22571586 2.0519624 141 115 94
-0.28317082 -0.22571586 2.0519624 139 114 96
-0.28111884 -0.22571586 2.0519624 139 115 99
-0.2790669 -0.22571586 2.0519624 145 122 106
-0.2770149 -0.22571586 2.0519624 156 134 117
-0.27496296 -0.22571586 2.0519624 155 137 118
-0.272911 -0.22571586 2.0519624 155 135 116
-0.27085903 -0.22571586 2.0519624 140 121 101
-0.26880705 -0.22571586 2.0519624 132 112 94
-0.2667551 -0.22571586 2.0519624 148 123 101
-0.26470315 -0.22571586 2.0519624 133 109 92
-0.26265118 -0.22571586 2.0519624 112 93 78
-0.26059923 -0.22571586 2.0519624 106 89 73
-0.25854728 -0.22571586 2.0519624 141 116 97
-0.2564953 -0.22571586 2.0519624 111 91 76
-0.25444332 -0.22571586 2.0519624 110 90 75
-0.25239137 -0.22571586 2.0519624 110 92 77
-0.25033942 -0.22571586 2.0519624 121 101 87
-0.24828744 -0.22571586 2.0519624 117 98 83
-0.24623549 -0.22571586 2.0519624 99 79 63
-0.24418351 -0.22571586 2.0519624 112 92 77
-0.24213156 -0.22571586 2.0519624 105 85 69
-0.24007961 -0.22571586 2.0519624 105 85 70
-0.23802763 -0.22571586 2.0519624 108 89 74
-0.23597568 -0.22571586 2.0519624 116 96 80
-0.2339237 -0.22571586 2.0519624 117 97 80
-0.23187175 -0.22571586 2.0519624 111 92 75
-0.22981979 -0.22571586 2.0519624 107 88 73
-0.22776783 -0.22571586 2.0519624 96 77 60
-0.22571586 -0.22571586 2.0519624 89 68 51
-0.2236639 -0.22571586 2.0519624 101 81 65
-0.22161193 -0.22571586 2.0519624 102 84 67
-0.21955997 -0.22571586 2.0519624 132 114 93
-0.21750802 -0.22571586 2.0519624 136 117 97
-0.21545605 -0.22571586 2.0519624 136 115 99
-0.21340409 -0.22571586 2.0519624 136 116 99
-0.21135212 -0.22571586 2.0519624 137 117 100
-0.20930016 -0.22571586 2.0519624 143 122 104
-0.2072482 -0.22571586 2.0519624 145 123 105
-0.20519625 -0.22571586 2.0519624 143 123 104
-0.20314427 -0.22571586 2.0519624 141 121 103
-0.20042755 -0.22496971 2.0451791 139 119 101
-0.19838236 -0.22496971 2.0451791 140 120 102
-0.19552922 -0.2240439 2.0367627 140 119 101
-0.19429202 -0.22496971 2.0451791 141 121 102
-0.19288446 -0.22571586 2.0519624 141 120 101
-0.19020166 -0.22496971 2.0451791 141 120 101
-0.18815649 -0.22496971 2.0451791 143 121 102
-0.1861113 -0.22496971 2.0451791 145 125 106
-0.18406612 -0.22496971 2.0451791 146 126 107
-0.18262465 -0.22571586 2.0519624 145 124 106
-0.18132445 -0.22665556 2.0605052 147 124 105
-0.17852072 -0.22571586 2.0519624 148 123 105
-0.17316626 -0.22149172 2.0135612 158 124 103
-0.1626811 -0.2105285 1.9138954 174 120 100
-0.15466668 -0.20253968 1.8412699 184 124 99
-0.14992507 -0.19869588 1.8063262 189 127 100
-0.14811875 -0.19869588 1.8063262 191 128 98
-0.14578037 -0.19797334 1.7997576 189 125 99
-0.1439806 -0.19797334 1.7997576 196 132 104
-0.14218085 -0.19797334 1.7997576 208 144 112
-0.13987246 -0.19725604 1.7932367 215 146 115
-0.13807923 -0.19725604 1.7932367 217 149 118
-0.13628599 -0.19725604 1.7932367 220 153 121
-0.13449275 -0.19725604 1.7932367 219 152 122
-0.13269952 -0.19725604 1.7932367 217 149 120
-0.13090628 -0.19725604 1.7932367 212 138 117
-0.12911303 -0.19725604 1.7932367 197 122 108
-0.12631297 -0.19569615 1.779056 158 108 95
-0.12453392 -0.19569615 1.779056 194 152 147
-0.12231518 -0.19499522 1.7726839 180 153 157
-0.120542504 -0.19499522 1.7726839 130 112 108
-0.118769825 -0.19499522 1.7726839 125 108 97
-0.11657959 -0.19429931 1.7663574 127 104 87
-0.11432362 -0.19347075 1.758825 134 101 85
-0.112564795 -0.19347075 1.758825 139 98 85
-0.1104136 -0.19278567 1.7525969 178 119 103
-0.10904715 -0.19347075 1.758825 174 118 105
-0.1077478 -0.19429931 1.7663574 158 114 102
-0.10598145 -0.19429931 1.7663574 168 132 112
-0.104588345 -0.19499522 1.7726839 164 129 106
-0.102815665 -0.19499522 1.7726839 148 112 94
-0.10104298 -0.19499522 1.7726839 139 100 87
-0.09927029 -0.19499522 1.7726839 161 110 94
-0.09749761 -0.19499522 1.7726839 146 99 85
-0.09606902 -0.19569615 1.779056 153 100 86
-0.093952246 -0.19499522 1.7726839 160 101 84
-0.09217956 -0.19499522 1.7726839 165 102 89
-0.09040687 -0.19499522 1.7726839 158 98 87
-0.08831787 -0.19429931 1.7663574 136 93 84
-0.087173745 -0.19569615 1.779056 117 89 82
-0.08508882 -0.19499522 1.7726839 118 94 93
-0.08391727 -0.19640212 1.7854738 116 98 96
-0.082488894 -0.19725604 1.7932367 110 93 92
-0.08034632 -0.19640212 1.7854738 110 94 95
-0.07856085 -0.19640212 1.7854738 112 95 97
-0.07677537 -0.19640212 1.7854738 108 91 92
-0.07558982 -0.19797334 1.7997576 119 101 100
-0.074059375 -0.19869588 1.8063262 121 106 105
-0.07251771 -0.19942369 1.8129426 196 173 169
-0.070704766 -0.19942369 1.8129426 212 190 187
-0.068640396 -0.19869588 1.8063262 194 173 171
-0.06707888 -0.19942369 1.8129426 124 109 109
-0.06555408 -0.20030415 1.8209468 102 88 86
-0.06373314 -0.20030415 1.8209468 110 95 93
-0.06214082 -0.20104383 1.8276712 115 97 93
-0.060536698 -0.20178899 1.8344454 116 84 73
-0.060082953 -0.20653516 1.8775923 128 80 73
-0.058427013 -0.20732166 1.8847424 197 121 108
-0.05675841 -0.20811416 1.891947 207 129 110
-0.054866463 -0.20811416 1.891947 202 125 106
-0.053382643 -0.20971751 1.9065229 201 124 105
-0.051675174 -0.2105285 1.9138954 200 122 107
-0.05014913 -0.21216941 1.9288127 197 125 110
-0.04879075 -0.21467929 1.9516299 192 125 112
-0.04717395 -0.21621393 1.9655812 104 66 58
-0.045570325 -0.21794504 1.9813185 78 36 28
-0.043940812 -0.21970408 1.9973097 76 35 28
-0.042113453 -0.22059429 2.0054026 80 38 32
-0.040271226 -0.22149172 2.0135612 84 40 36
-0.038257662 -0.22149172 2.0135612 85 40 36
-0.03636245 -0.22221497 2.020136 86 43 36
-0.034342315 -0.22221497 2.020136 85 41 35
-0.03232218 -0.22221497 2.020136 86 42 37
-0.030302042 -0.22221497 2.020136 84 41 35
-0.028281907 -0.22221497 2.020136 79 40 33
-0.0263694 -0.2231257 2.0284154 77 39 32
-0.024340983 -0.2231257 2.0284154 75 39 32
-0.02231257 -0.2231257 2.0284154 71 38 31
-0.020284155 -0.2231257 2.0284154 67 36 31
-0.018255739 -0.2231257 2.0284154 68 37 34
-0.016227324 -0.2231257 2.0284154 64 37 33
-0.014198908 -0.2231257 2.0284154 58 35 32
-0.012170492 -0.2231257 2.0284154 54 32 30
-0.010142078 -0.2231257 2.0284154 55 31 30
-0.008113662 -0.2231257 2.0284154 53 30 30
-0.0060604084 -0.22221497 2.020136 59 34 36
-0.0040402724 -0.22221497 2.020136 57 35 38
-0.0020201362 -0.22221497 2.020136 50 30 34
0.0 -0.22149172 2.0135612 51 28 29
0.0020054025 -0.22059429 2.0054026 66 36 33
0.003978564 -0.21882102 1.9892819 78 47 40
0.005967846 -0.21882102 1.9892819 84 53 46
0.007925274 -0.21794504 1.9813185 96 62 56
0.009906593 -0.21794504 1.9813185 95 61 51
0.011840511 -0.21707603 1.9734185 104 59 46
0.013759068 -0.21621393 1.9655812 126 72 60
0.01572465 -0.21621393 1.9655812 134 77 63
0.017620254 -0.21535866 1.957806 142 82 68
0.01957806 -0.21535866 1.957806 144 82 68
0.021467928 -0.21467929 1.9516299 145 82 68
0.023327574 -0.21383609 1.9439645 148 82 68
0.025271539 -0.21383609 1.9439645 147 82 67
0.027109023 -0.21299948 1.9363589 148 84 68
0.029045384 -0.21299948 1.9363589 150 85 70
0.030861003 -0.21216941 1.9288127 150 86 71
0.03278982 -0.21216941 1.9288127 155 88 74
0.03471863 -0.21216941 1.9288127 158 90 75
0.036505178 -0.21134576 1.9213251 159 94 77
0.03827791 -0.2105285 1.9138954 154 95 78
0.040191803 -0.2105285 1.9138954 166 102 88
0.041943505 -0.20971751 1.9065229 170 101 89
0.043681763 -0.20891276 1.899207 154 86 76
0.04540673 -0.20811416 1.891947 135 75 70
0.04693981 -0.20653516 1.8775923 110 61 54
0.048817404 -0.20653516 1.8775923 101 70 65
0.050275397 -0.20482568 1.8620517 97 78 77
0.051748075 -0.203296 1.8481455 101 88 89
0.053396825 -0.20253968 1.8412699 101 89 91
0.05503336 -0.20178899 1.8344454 96 84 86
0.056657806 -0.20104383 1.8276712 84 72 74
0.058702253 -0.20178899 1.8344454 84 74 75
0.060536698 -0.20178899 1.8344454 85 75 76
0.06214082 -0.20104383 1.8276712 97 89 89
0.06396849 -0.20104383 1.8276712 158 146 147
0.06579617 -0.20104383 1.8276712 188 168 171
0.06762383 -0.20104383 1.8276712 142 124 127
0.06889182 -0.19942369 1.8129426 93 81 82
0.070704766 -0.19942369 1.8129426 96 83 85
0.07225304 -0.19869588 1.8063262 93 79 82
0.074059375 -0.19869588 1.8063262 90 78 80
0.0758657 -0.19869588 1.8063262 99 84 89
0.077956535 -0.19942369 1.8129426 97 84 86
0.07976948 -0.19942369 1.8129426 107 95 95
0.08158242 -0.19942369 1.8129426 105 96 92
0.083091006 -0.19869588 1.8063262 100 90 85
0.08489733 -0.19869588 1.8063262 147 132 123
0.08670366 -0.19869588 1.8063262 182 162 155
0.08850998 -0.19869588 1.8063262 153 135 132
0.09031631 -0.19869588 1.8063262 131 115 117
0.09246007 -0.19942369 1.8129426 107 92 91
0.09392896 -0.19869588 1.8063262 106 94 90
0.09573528 -0.19869588 1.8063262 116 97 95
0.0978989 -0.19942369 1.8129426 119 96 84
0.09934794 -0.19869588 1.8063262 122 86 63
0.10115427 -0.19869588 1.8063262 155 90 69
0.10333773 -0.19942369 1.8129426 180 101 80
0.10515067 -0.19942369 1.8129426 158 99 78
0.10696361 -0.19942369 1.8129426 138 95 81
0.108776554 -0.19942369 1.8129426 141 98 91
0.1105895 -0.19942369 1.8129426 134 96 94
0.11199222 -0.19869588 1.8063262 124 93 92
0.11421539 -0.19942369 1.8129426 127 97 91
0.11602833 -0.19942369 1.8129426 133 98 93
0.11784127 -0.19942369 1.8129426 127 91 91
0.119654216 -0.19942369 1.8129426 104 58 50
0.122003436 -0.20030415 1.8209468 142 88 74
0.124742284 -0.20178899 1.8344454 163 100 87
0.12752204 -0.203296 1.8481455 181 115 95
0.13034363 -0.20482568 1.8620517 203 135 106
0.13330905 -0.20653516 1.8775923 217 146 117
0.13518664 -0.20653516 1.8775923 226 153 124
0.1364431 -0.2055992 1.8690836 220 150 123
0.13831219 -0.2055992 1.8690836 216 148 121
0.14135568 -0.20732166 1.8847424 219 148 125
0.14658977 -0.21216941 1.9288127 211 154 131
0.154416 -0.22059429 2.0054026 217 185 160
0.16206884 -0.22855864 2.0778058 221 197 171
0.16666554 -0.23206595 2.1096904 218 195 169
0.16877523 -0.23206595 2.1096904 218 188 167
0.17088492 -0.23206595 2.1096904 213 186 164
0.17240669 -0.23127729 2.1025207 222 192 169
0.17450921 -0.23127729 2.1025207 217 188 167
0.177214 -0.23206595 2.1096904 219 192 169
0.17871426 -0.23127729 2.1025207 215 188 165
0.18081678 -0.23127729 2.1025207 213 186 164
0.18214552 -0.23029894 2.0936267 221 194 172
0.18423915 -0.23029894 2.0936267 209 183 163
0.18712434 -0.23127729 2.1025207 212 188 165
0.1884264 -0.23029894 2.0936267 213 189 166
0.19052003 -0.23029894 2.0936267 213 189 166
0.19261366 -0.23029894 2.0936267 213 188 166
0.19388711 -0.22932884 2.0848076 216 192 169
0.19597192 -0.22932884 2.0848076 218 194 172
0.19805673 -0.22932884 2.0848076 223 198 176
0.20014153 -0.22932884 2.0848076 218 189 169
0.20222634 -0.22932884 2.0848076 219 192 171
0.20431115 -0.22932884 2.0848076 218 189 169
0.20639595 -0.22932884 2.0848076 222 192 172
0.20848076 -0.22932884 2.0848076 220 189 169
0.21056557 -0.22932884 2.0848076 221 191 171
0.21265037 -0.22932884 2.0848076 209 183 162
0.21473518 -0.22932884 2.0848076 213 189 168
0.21681999 -0.22932884 2.0848076 217 192 170
0.2189048 -0.22932884 2.0848076 220 193 171
0.22098961 -0.22932884 2.0848076 220 195 173
0.22307442 -0.22932884 2.0848076 222 194 172
0.22515923 -0.22932884 2.0848076 216 189 169
0.22724403 -0.22932884 2.0848076 214 191 169
0.22932884 -0.22932884 2.0848076 211 188 168
0.23141365 -0.22932884 2.0848076 214 190 170
0.23349845 -0.22932884 2.0848076 217 191 171
0.23558326 -0.22932884 2.0848076 214 190 170
0.23766808 -0.22932884 2.0848076 213 189 169
0.23975289 -0.22932884 2.0848076 218 194 173
0.2418377 -0.22932884 2.0848076 220 196 174
0.2439225 -0.22932884 2.0848076 220 195 173
0.2460073 -0.22932884 2.0848076 218 194 174
0.24725889 -0.22855864 2.0778058 218 194 173
0.24933669 -0.22855864 2.0778058 220 193 173
0.25141448 -0.22855864 2.0778058 216 192 172
0.25243258 -0.22760314 2.0691195 216 192 170
0.2545017 -0.22760314 2.0691195 220 193 173
0.25550264 -0.22665556 2.0605052 219 193 173
0.25756314 -0.22665556 2.0605052 222 195 176
0.25854728 -0.22571586 2.0519624 223 196 178
0.26059923 -0.22571586 2.0519624 224 196 178
0.2617829 -0.22496971 2.0451791 223 198 177
0.2638281 -0.22496971 2.0451791 225 152 88
0.26477915 -0.2240439 2.0367627 236 117 0
0.26572242 -0.2231257 2.0284154 245 132 0
0.26775083 -0.2231257 2.0284154 255 135 0
0.2686781 -0.22221497 2.020136 251 131 0
0.27069825 -0.22221497 2.020136 255 133 0
0.27183077 -0.22149172 2.0135612 254 132 0
0.27384433 -0.22149172 2.0135612 255 132 0
0.27474013 -0.22059429 2.0054026 255 132 0
0.27674556 -0.22059429 2.0054026 255 133 0
0.27762604 -0.21970408 1.9973097 255 133 0
0.27962336 -0.21970408 1.9973097 255 130 0
0.28162068 -0.21970408 1.9973097 227 105 0
0.28361797 -0.21970408 1.9973097 237 105 0
0.2856153 -0.21970408 1.9973097 235 109 0
-0.29548258 -0.22776783 2.0519624 125 100 76
-0.29343063 -0.22776783 2.0519624 123 100 76
-0.29137868 -0.22776783 2.0519624 122 98 74
-0.2893267 -0.22776783 2.0519624 123 98 74
-0.28727472 -0.22776783 2.0519624 126 100 76
-0.28522277 -0.22776783 2.0519624 125 100 76
-0.2822347 -0.22701488 2.0451791 123 97 74
-0.28018954 -0.22701488 2.0451791 122 95 76
-0.27814436 -0.22701488 2.0451791 123 99 83
-0.27609918 -0.22701488 2.0451791 131 111 95
-0.27405402 -0.22701488 2.0451791 156 134 116
-0.2720088 -0.22701488 2.0451791 164 143 124
-0.26996365 -0.22701488 2.0451791 156 138 117
-0.26791847 -0.22701488 2.0451791 152 133 113
-0.26587328 -0.22701488 2.0451791 149 130 109
-0.2638281 -0.22701488 2.0451791 149 129 110
-0.2617829 -0.22701488 2.0451791 141 122 103
-0.25973776 -0.22701488 2.0451791 145 121 102
-0.25769258 -0.22701488 2.0451791 138 114 97
-0.2556474 -0.22701488 2.0451791 146 121 103
-0.2536022 -0.22701488 2.0451791 135 113 97
-0.25155705 -0.22701488 2.0451791 139 117 102
-0.24951185 -0.22701488 2.0451791 140 120 104
-0.24746667 -0.22701488 2.0451791 138 118 100
-0.2454215 -0.22701488 2.0451791 139 118 98
-0.24337631 -0.22701488 2.0451791 138 117 96
-0.24133113 -0.22701488 2.0451791 133 114 94
-0.23928596 -0.22701488 2.0451791 138 118 97
-0.23724078 -0.22701488 2.0451791 144 123 102
-0.2351956 -0.22701488 2.0451791 141 122 101
-0.23315042 -0.22701488 2.0451791 143 127 103
-0.23110524 -0.22701488 2.0451791 143 127 105
-0.22981979 -0.22776783 2.0519624 143 122 104
-0.22701488 -0.22701488 2.0451791 131 112 97
-0.22496971 -0.22701488 2.0451791 132 112 97
-0.2236639 -0.22776783 2.0519624 139 117 100
-0.22161193 -0.22776783 2.0519624 137 116 98
-0.21955997 -0.22776783 2.0519624 134 114 97
-0.21678899 -0.22701488 2.0451791 134 115 96
-0.21474381 -0.22701488 2.0451791 138 116 98
-0.21340409 -0.22776783 2.0519624 136 114 97
-0.21135212 -0.22776783 2.0519624 136 116 99
-0.20930016 -0.22776783 2.0519624 139 119 101
-0.2072482 -0.22776783 2.0519624 144 124 103
-0.20519625 -0.22776783 2.0519624 143 122 103
-0.20314427 -0.22776783 2.0519624 139 119 100
-0.20042755 -0.22701488 2.0451791 139 117 99
-0.19838236 -0.22701488 2.0451791 139 118 99
-0.19552922 -0.22608066 2.0367627 138 117 99
-0.19429202 -0.22701488 2.0451791 141 119 97
-0.19288446 -0.22776783 2.0519624 136 116 95
-0.19083251 -0.22776783 2.0519624 141 116 97
-0.18815649 -0.22701488 2.0451791 141 120 101
-0.18534541 -0.22608066 2.0367627 143 122 104
-0.18406612 -0.22701488 2.0451791 141 121 104
-0.18262465 -0.22776783 2.0519624 144 123 104
-0.17997576 -0.22701488 2.0451791 144 123 103
-0.17647214 -0.22515412 2.0284154 144 121 99
-0.16903998 -0.21817951 1.9655812 165 121 97
-0.15959536 -0.20841275 1.8775923 179 121 94
-0.15352438 -0.2028715 1.8276712 185 124 94
-0.14992507 -0.2005022 1.8063262 186 126 97
-0.14811875 -0.2005022 1.8063262 189 125 100
-0.14631243 -0.2005022 1.8063262 186 124 101
-0.1439806 -0.19977309 1.7997576 202 137 110
-0.1416657 -0.19904926 1.7932367 212 146 116
-0.13987246 -0.19904926 1.7932367 213 148 117
-0.13807923 -0.19904926 1.7932367 217 151 120
-0.13569601 -0.19818759 1.7854738 222 155 123
-0.13391054 -0.19818759 1.7854738 223 154 122
-0.13269952 -0.19904926 1.7932367 214 146 120
-0.13033958 -0.19818759 1.7854738 189 124 107
-0.1285541 -0.19818759 1.7854738 148 97 87
-0.12631297 -0.19747521 1.779056 142 104 91
-0.12453392 -0.19747521 1.779056 131 109 101
-0.12231518 -0.19676791 1.7726839 138 114 101
-0.12011231 -0.19606568 1.7663574 166 125 100
-0.118345946 -0.19606568 1.7663574 184 136 104
-0.116082445 -0.19522958 1.758825 177 120 95
-0.11432362 -0.19522958 1.758825 159 103 86
-0.112166196 -0.19453825 1.7525969 151 106 91
-0.1104136 -0.19453825 1.7525969 130 99 87
-0.10904715 -0.19522958 1.758825 151 124 109
-0.10728832 -0.19522958 1.758825 150 129 115
-0.105529495 -0.19522958 1.758825 142 127 112
-0.104215086 -0.19606568 1.7663574 150 136 118
-0.10244873 -0.19606568 1.7663574 184 164 141
-0.10068237 -0.19606568 1.7663574 182 163 143
-0.09927029 -0.19676791 1.7726839 161 150 129
-0.09749761 -0.19676791 1.7726839 151 137 116
-0.09572493 -0.19676791 1.7726839 114 96 84
-0.093952246 -0.19676791 1.7726839 120 92 83
-0.09217956 -0.19676791 1.7726839 125 91 84
-0.090084225 -0.19606568 1.7663574 128 91 81
-0.08831787 -0.19606568 1.7663574 161 102 86
-0.08686151 -0.19676791 1.7726839 163 102 88
-0.08539468 -0.19747521 1.779056 141 95 80
-0.08428213 -0.19904926 1.7932367 122 92 80
-0.082488894 -0.19904926 1.7932367 115 97 89
-0.08034632 -0.19818759 1.7854738 108 93 91
-0.07856085 -0.19818759 1.7854738 108 91 92
-0.07710917 -0.19904926 1.7932367 111 95 94
-0.07558982 -0.19977309 1.7997576 114 101 97
-0.07379006 -0.19977309 1.7997576 127 113 110
-0.07225304 -0.2005022 1.8063262 207 185 180
-0.070446715 -0.2005022 1.8063262 205 184 178
-0.06889182 -0.20123664 1.8129426 139 126 123
-0.06707888 -0.20123664 1.8129426 171 152 150
-0.06555408 -0.20212509 1.8209468 104 93 92
-0.06373314 -0.20212509 1.8209468 103 88 87
-0.06214082 -0.2028715 1.8276712 118 99 98
-0.060536698 -0.20362343 1.8344454 121 91 86
-0.059810676 -0.20746827 1.8690836 120 80 76
-0.05820536 -0.20841275 1.8775923 175 106 100
-0.05654227 -0.2092064 1.8847424 196 125 109
-0.054657526 -0.2092064 1.8847424 197 121 107
-0.05297452 -0.21000612 1.891947 204 123 110
-0.051476117 -0.21162404 1.9065229 195 121 107
-0.04995445 -0.21326709 1.9213251 192 124 109
-0.048599113 -0.21578006 1.9439645 187 124 112
-0.046987344 -0.21731646 1.957806 94 57 49
-0.045570325 -0.21992634 1.9813185 76 37 30
-0.043764204 -0.2208103 1.9892819 76 36 30
-0.041943505 -0.22170137 1.9973097 78 38 33
-0.04010805 -0.22259969 2.0054026 82 37 35
-0.038257662 -0.22350529 2.0135612 83 38 36
-0.0362441 -0.22350529 2.0135612 82 40 35
-0.034342315 -0.2242351 2.020136 78 40 33
-0.03232218 -0.2242351 2.020136 75 39 32
-0.030302042 -0.2242351 2.020136 71 38 31
-0.028281907 -0.2242351 2.020136 63 36 30
-0.0263694 -0.22515412 2.0284154 59 35 29
-0.024241634 -0.2242351 2.020136 56 35 29
-0.02231257 -0.22515412 2.0284154 53 33 28
-0.020284155 -0.22515412 2.0284154 50 32 28
-0.018255739 -0.22515412 2.0284154 47 32 28
-0.016227324 -0.22515412 2.0284154 48 29 28
-0.014198908 -0.22515412 2.0284154 45 28 28
-0.012170492 -0.22515412 2.0284154 44 27 27
-0.010142078 -0.22515412 2.0284154 42 26 26
-0.008080545 -0.2242351 2.020136 42 26 26
-0.006040684 -0.22350529 2.0135612 43 26 26
-0.0040271226 -0.22350529 2.0135612 44 27 28
-0.0020135613 -0.22350529 2.0135612 42 27 32
0.0 -0.2242351 2.020136 43 28 30
0.0020054025 -0.22259969 2.0054026 46 29 27
0.003978564 -0.2208103 1.9892819 59 38 34
0.005967846 -0.2208103 1.9892819 73 46 44
0.007925274 -0.21992634 1.9813185 89 52 55
0.009906593 -0.21992634 1.9813185 100 59 59
0.011840511 -0.21904945 1.9734185 113 64 63
0.013759068 -0.21817951 1.9655812 120 66 60
0.01572465 -0.21817951 1.9655812 118 64 48
0.017620254 -0.21731646 1.957806 139 80 66
0.01957806 -0.21731646 1.957806 145 81 68
0.021467928 -0.21663092 1.9516299 146 82 68
0.023327574 -0.21578006 1.9439645 132 79 62
0.025271539 -0.21578006 1.9439645 135 82 65
0.027109023 -0.21493584 1.9363589 149 85 71
0.029045384 -0.21493584 1.9363589 151 86 71
0.030861003 -0.21409822 1.9288127 152 87 71
0.032662526 -0.21326709 1.9213251 154 88 71
0.03471863 -0.21409822 1.9288127 157 89 72
0.036505178 -0.21326709 1.9213251 157 90 73
0.03827791 -0.21244238 1.9138954 164 100 82
0.04003698 -0.21162404 1.9065229 173 107 89
0.041943505 -0.21162404 1.9065229 155 91 77
0.04351478 -0.21000612 1.891947 148 83 72
0.04523382 -0.2092064 1.8847424 120 66 64
0.04693981 -0.20841275 1.8775923 101 60 56
0.048596177 -0.20746827 1.8690836 92 71 67
0.050086956 -0.20591304 1.8550725 88 75 75
0.05155556 -0.20438094 1.8412699 98 89 89
0.053396825 -0.20438094 1.8412699 90 79 80
0.054830134 -0.2028715 1.8276712 79 67 69
0.056657806 -0.2028715 1.8276712 82 72 74
0.05848548 -0.2028715 1.8276712 79 69 71
0.06031315 -0.2028715 1.8276712 85 73 75
0.06214082 -0.2028715 1.8276712 88 77 79
0.06373314 -0.20212509 1.8209468 95 86 87
0.06555408 -0.20212509 1.8209468 175 154 157
0.06707888 -0.20123664 1.8129426 92 79 80
0.068640396 -0.2005022 1.8063262 94 80 83
0.070446715 -0.2005022 1.8063262 93 80 82
0.07225304 -0.2005022 1.8063262 93 79 82
0.074059375 -0.2005022 1.8063262 94 81 83
0.0758657 -0.2005022 1.8063262 96 81 84
0.07767203 -0.2005022 1.8063262 103 91 90
0.079478346 -0.2005022 1.8063262 102 92 85
0.08158242 -0.20123664 1.8129426 133 122 108
0.083091006 -0.2005022 1.8063262 168 153 133
0.08489733 -0.2005022 1.8063262 136 123 108
0.086388364 -0.19977309 1.7997576 111 100 95
0.08818813 -0.19977309 1.7997576 99 89 89
0.089987874 -0.19977309 1.7997576 102 89 91
0.09178764 -0.19977309 1.7997576 105 86 86
0.09358739 -0.19977309 1.7997576 116 93 82
0.09538715 -0.19977309 1.7997576 131 88 65
0.096834786 -0.19904926 1.7932367 162 87 65
0.09898667 -0.19977309 1.7997576 178 94 73
0.10042126 -0.19904926 1.7932367 147 92 74
0.10258618 -0.19977309 1.7997576 119 88 78
0.10476691 -0.2005022 1.8063262 110 90 87
0.1061857 -0.19977309 1.7997576 112 95 97
0.10759421 -0.19904926 1.7932367 110 94 96
0.10938744 -0.19904926 1.7932367 112 95 98
0.11118068 -0.19904926 1.7932367 111 94 97
0.11338473 -0.19977309 1.7997576 115 96 98
0.11560487 -0.2005022 1.8063262 117 99 100
0.11698425 -0.19977309 1.7997576 118 97 101
0.11921753 -0.2005022 1.8063262 120 93 91
0.12146716 -0.20123664 1.8129426 99 55 46
0.12428164 -0.2028715 1.8276712 138 87 73
0.12657672 -0.20362343 1.8344454 161 104 83
0.12985507 -0.20591304 1.8550725 183 121 93
0.13270494 -0.20746827 1.8690836 210 139 110
0.13518664 -0.20841275 1.8775923 216 147 119
0.13706423 -0.20841275 1.8775923 220 149 123
0.13831219 -0.20746827 1.8690836 215 145 121
0.14018127 -0.20746827 1.8690836 219 147 126
0.14433974 -0.21081199 1.899207 215 144 121
0.15075107 -0.21731646 1.957806 223 175 145
0.1582164 -0.22515412 2.0284154 217 198 165
0.1646998 -0.23141365 2.0848076 220 193 162
0.16820166 -0.2333798 2.1025207 215 189 167
0.16958377 -0.23239256 2.0936267 213 187 164
0.1716774 -0.23239256 2.0936267 216 189 166
0.17377102 -0.23239256 2.0936267 220 192 169
0.17661174 -0.2333798 2.1025207 210 184 161
0.17795826 -0.23239256 2.0936267 212 183 162
0.17929345 -0.23141365 2.0848076 218 189 167
0.18137826 -0.23141365 2.0848076 215 189 166
0.1828469 -0.23063645 2.0778058 214 188 165
0.18554789 -0.23141365 2.0848076 223 195 171
0.1876327 -0.23141365 2.0848076 217 192 169
0.1897175 -0.23141365 2.0848076 218 194 170
0.19180231 -0.23141365 2.0848076 213 187 164
0.19323593 -0.23063645 2.0778058 221 193 170
0.19531374 -0.23063645 2.0778058 210 185 165
0.19739154 -0.23063645 2.0778058 209 184 163
0.19946936 -0.23063645 2.0778058 222 194 172
0.20154716 -0.23063645 2.0778058 210 184 164
0.20362496 -0.23063645 2.0778058 210 184 163
0.20570277 -0.23063645 2.0778058 222 196 174
0.20778058 -0.23063645 2.0778058 223 196 174
0.20985839 -0.23063645 2.0778058 222 194 173
0.21193619 -0.23063645 2.0778058 215 188 168
0.214014 -0.23063645 2.0778058 214 188 167
0.2160918 -0.23063645 2.0778058 210 182 163
0.2181696 -0.23063645 2.0778058 218 190 170
0.2202474 -0.23063645 2.0778058 218 189 169
0.2223252 -0.23063645 2.0778058 217 189 168
0.22440301 -0.23063645 2.0778058 201 177 157
0.22648084 -0.23063645 2.0778058 217 189 168
0.22855864 -0.23063645 2.0778058 210 184 163
0.23063645 -0.23063645 2.0778058 213 187 167
0.23271425 -0.23063645 2.0778058 214 188 167
0.23479205 -0.23063645 2.0778058 222 194 172
0.23686986 -0.23063645 2.0778058 216 189 168
0.23894766 -0.23063645 2.0778058 221 194 173
0.24102546 -0.23063645 2.0778058 218 191 170
0.24310327 -0.23063645 2.0778058 215 188 167
0.24415609 -0.22967225 2.0691195 218 189 169
0.24622522 -0.22967225 2.0691195 224 195 173
0.24829434 -0.22967225 2.0691195 218 191 169
0.24932112 -0.22871606 2.0605052 221 193 171
0.25138164 -0.22871606 2.0605052 217 188 167
0.25239137 -0.22776783 2.0519624 220 192 169
0.25444332 -0.22776783 2.0519624 221 191 170
0.2564953 -0.22776783 2.0519624 225 194 173
0.25769258 -0.22701488 2.0451791 227 196 174
0.25973776 -0.22701488 2.0451791 228 196 169
0.26070562 -0.22608066 2.0367627 229 195 169
0.2627424 -0.22608066 2.0367627 216 132 60
0.263694 -0.22515412 2.0284154 232 116 0
0.26463783 -0.2242351 2.020136 235 124 0
0.26665795 -0.2242351 2.020136 243 126 0
0.26780364 -0.22350529 2.0135612 244 125 0
0.2698172 -0.22350529 2.0135612 247 124 0
0.27072933 -0.22259969 2.0054026 250 124 0
0.27273473 -0.22259969 2.0054026 250 126 0
0.27363145 -0.22170137 1.9973097 252 128 0
0.27562872 -0.22170137 1.9973097 254 128 0
0.27762604 -0.22170137 1.9973097 254 127 0
0.27962336 -0.22170137 1.9973097 254 126 0
0.28048873 -0.2208103 1.9892819 229 105 0
0.28247803 -0.2208103 1.9892819 234 104 0
0.2844673 -0.2208103 1.9892819 235 105 0
-0.2945058 -0.22906005 2.0451791 124 99 73
-0.2924606 -0.22906005 2.0451791 124 99 73
-0.29041544 -0.22906005 2.0451791 124 98 73
-0.28837028 -0.22906005 2.0451791 123 97 72
-0.28632507 -0.22906005 2.0451791 119 94 69
-0.28522277 -0.22981979 2.0519624 111 87 61
-0.2822347 -0.22906005 2.0451791 116 92 68
-0.28018954 -0.22906005 2.0451791 108 84 62
-0.27814436 -0.22906005 2.0451791 116 94 76
-0.27609918 -0.22906005 2.0451791 143 122 103
-0.27405402 -0.22906005 2.0451791 160 138 119
-0.2720088 -0.22906005 2.0451791 164 144 125
-0.26996365 -0.22906005 2.0451791 159 139 120
-0.26791847 -0.22906005 2.0451791 157 136 117
-0.26587328 -0.22906005 2.0451791 149 131 111
-0.2638281 -0.22906005 2.0451791 151 131 111
-0.2617829 -0.22906005 2.0451791 145 126 108
-0.25973776 -0.22906005 2.0451791 146 125 106
-0.25769258 -0.22906005 2.0451791 145 125 106
-0.2556474 -0.22906005 2.0451791 146 124 106
-0.2536022 -0.22906005 2.0451791 147 125 108
-0.25155705 -0.22906005 2.0451791 146 125 109
-0.24951185 -0.22906005 2.0451791 143 123 108
-0.2464483 -0.22811744 2.0367627 142 121 105
-0.24441153 -0.22811744 2.0367627 145 123 104
-0.24237476 -0.22811744 2.0367627 140 119 100
-0.240338 -0.22811744 2.0367627 136 116 97
-0.23830123 -0.22811744 2.0367627 139 118 98
-0.23626448 -0.22811744 2.0367627 144 123 103
-0.2342277 -0.22811744 2.0367627 148 128 107
-0.23219095 -0.22811744 2.0367627 148 129 107
-0.23015419 -0.22811744 2.0367627 148 130 110
-0.22906005 -0.22906005 2.0451791 149 128 110
-0.22701488 -0.22906005 2.0451791 147 127 109
-0.22496971 -0.22906005 2.0451791 142 122 105
-0.22292453 -0.22906005 2.0451791 137 118 101
-0.22087935 -0.22906005 2.0451791 131 113 97
-0.21883416 -0.22906005 2.0451791 136 117 100
-0.21678899 -0.22906005 2.0451791 141 121 102
-0.21474381 -0.22906005 2.0451791 143 123 103
-0.21182331 -0.22811744 2.0367627 143 122 102
-0.20978656 -0.22811744 2.0367627 143 121 103
-0.20860827 -0.22906005 2.0451791 144 123 104
-0.2065631 -0.22906005 2.0451791 141 121 102
-0.20451792 -0.22906005 2.0451791 140 119 100
-0.20247273 -0.22906005 2.0451791 136 115 97
-0.19960275 -0.22811744 2.0367627 135 114 96
-0.19756597 -0.22811744 2.0367627 138 115 97
-0.19393307 -0.22625525 2.020136 139 116 97
-0.19349246 -0.22811744 2.0367627 138 117 96
-0.19224684 -0.22906005 2.0451791 136 116 95
-0.19083251 -0.22981979 2.0519624 135 113 94
-0.18815649 -0.22906005 2.0451791 140 119 101
-0.18534541 -0.22811744 2.0367627 140 120 102
-0.18330865 -0.22811744 2.0367627 143 122 104
-0.18202093 -0.22906005 2.0451791 147 124 105
-0.17997576 -0.22906005 2.0451791 142 119 100
-0.17517982 -0.22551885 2.0135612 147 122 99
-0.16718094 -0.21772403 1.9439645 167 121 96
-0.1582744 -0.20854978 1.8620517 179 121 94
-0.15228719 -0.20304957 1.8129426 183 123 94
-0.14992507 -0.20230854 1.8063262 184 124 96
-0.14811875 -0.20230854 1.8063262 183 122 97
-0.14631243 -0.20230854 1.8063262 186 124 101
-0.14345893 -0.20084251 1.7932367 205 142 113
-0.14218085 -0.20157285 1.7997576 215 147 115
-0.13987246 -0.20084251 1.7932367 215 147 118
-0.1374815 -0.19997306 1.7854738 218 151 120
-0.13569601 -0.19997306 1.7854738 222 153 122
-0.13391054 -0.19997306 1.7854738 219 150 120
-0.13269952 -0.20084251 1.7932367 200 137 113
-0.13033958 -0.19997306 1.7854738 170 110 97
-0.12809202 -0.19925427 1.779056 109 72 60
-0.12631297 -0.19925427 1.779056 121 99 86
-0.12453392 -0.19925427 1.779056 158 130 103
-0.12187866 -0.19783203 1.7663574 192 141 109
-0.119600095 -0.19698839 1.758825 149 105 91
-0.11784127 -0.19698839 1.758825 135 97 87
-0.115671396 -0.19629085 1.7525969 127 98 89
-0.11432362 -0.19698839 1.758825 112 94 87
-0.112166196 -0.19629085 1.7525969 106 92 88
-0.1104136 -0.19629085 1.7525969 109 95 96
-0.108661 -0.19629085 1.7525969 108 96 97
-0.10728832 -0.19698839 1.758825 111 99 97
-0.105529495 -0.19698839 1.758825 110 99 95
-0.103770666 -0.19698839 1.758825 106 95 91
-0.10244873 -0.19783203 1.7663574 113 101 95
-0.10068237 -0.19783203 1.7663574 114 104 99
-0.09891602 -0.19783203 1.7663574 121 111 105
-0.097149655 -0.19783203 1.7663574 151 136 126
-0.0953833 -0.19783203 1.7663574 165 152 134
-0.09361694 -0.19783203 1.7663574 168 154 129
-0.091850586 -0.19783203 1.7663574 151 134 112
-0.090084225 -0.19783203 1.7663574 126 105 96
-0.087941244 -0.19698839 1.758825 118 96 90
-0.086182415 -0.19698839 1.758825 136 99 91
-0.08508882 -0.19854058 1.7726839 128 96 87
-0.08391727 -0.19997306 1.7854738 131 93 78
-0.082131796 -0.19997306 1.7854738 154 96 90
-0.08005752 -0.19925427 1.779056 119 93 87
-0.07856085 -0.19997306 1.7854738 113 94 89
-0.07677537 -0.19997306 1.7854738 105 90 84
-0.07531594 -0.20084251 1.7932367 112 95 91
-0.07379006 -0.20157285 1.7997576 107 92 89
-0.0719903 -0.20157285 1.7997576 135 119 117
-0.06993623 -0.20084251 1.7932367 195 174 170
-0.06839079 -0.20157285 1.7997576 137 123 120
-0.06659103 -0.20157285 1.7997576 106 96 95
-0.06479128 -0.20157285 1.7997576 180 159 157
-0.06345299 -0.20304957 1.8129426 100 86 85
-0.061415087 -0.20230854 1.8063262 105 88 87
-0.06031315 -0.20469917 1.8276712 122 95 92
-0.05848548 -0.20469917 1.8276712 127 91 88
-0.057507247 -0.20776813 1.8550725 148 96 90
-0.05632777 -0.21029034 1.8775923 196 123 109
-0.054866463 -0.21189807 1.891947 170 107 95
-0.053177796 -0.21271119 1.899207 197 122 108
-0.051476117 -0.21353057 1.9065229 195 120 107
-0.04976128 -0.21435627 1.9138954 187 119 106
-0.04879075 -0.21858256 1.9516299 181 119 109
-0.047551643 -0.22190768 1.9813185 77 37 30
-0.04612426 -0.22460508 2.0054026 75 38 33
-0.044442993 -0.22625525 2.020136 75 38 34
-0.042284787 -0.22551885 2.0135612 75 39 36
-0.040271226 -0.22551885 2.0135612 77 39 37
-0.038257662 -0.22551885 2.0135612 75 39 38
-0.03636245 -0.22625525 2.020136 68 35 30
-0.03423054 -0.22551885 2.0135612 61 33 28
-0.03221698 -0.22551885 2.0135612 54 30 26
-0.030203419 -0.22551885 2.0135612 48 27 24
-0.028189857 -0.22551885 2.0135612 42 26 24
-0.026176296 -0.22551885 2.0135612 38 25 24
-0.024162736 -0.22551885 2.0135612 37 25 23
-0.022221496 -0.22625525 2.020136 36 24 22
-0.02020136 -0.22625525 2.020136 35 23 22
-0.018181225 -0.22625525 2.020136 34 23 22
-0.01616109 -0.22625525 2.020136 35 23 22
-0.014140953 -0.22625525 2.020136 36 23 21
-0.012120817 -0.22625525 2.020136 37 24 22
-0.01010068 -0.22625525 2.020136 38 25 23
-0.008080545 -0.22625525 2.020136 38 25 23
-0.006040684 -0.22551885 2.0135612 38 25 23
-0.0040271226 -0.22551885 2.0135612 38 25 23
-0.0020135613 -0.22551885 2.0135612 37 24 27
0.0 -0.22460508 2.0054026 39 27 28
0.0020135613 -0.22551885 2.0135612 41 28 25
0.0040271226 -0.22551885 2.0135612 44 29 23
0.006016208 -0.22460508 2.0054026 51 34 30
0.007989239 -0.22369869 1.9973097 70 44 44
0.00994641 -0.22279957 1.9892819 88 55 53
0.011887911 -0.22190768 1.9813185 102 59 59
0.013759068 -0.22014509 1.9655812 110 61 54
0.015662448 -0.21927428 1.957806 116 69 51
0.017620254 -0.21927428 1.957806 130 78 62
0.019516299 -0.21858256 1.9516299 145 84 70
0.021299947 -0.21687219 1.9363589 148 84 72
0.023145752 -0.21602702 1.9288127 121 78 58
0.024977226 -0.21518841 1.9213251 118 75 56
0.026898552 -0.21518841 1.9213251 150 85 71
0.028708432 -0.21435627 1.9138954 150 86 72
0.030741202 -0.21518841 1.9213251 152 87 73
0.03278982 -0.21602702 1.9288127 154 87 73
0.03458385 -0.21518841 1.9213251 156 88 73
0.036505178 -0.21518841 1.9213251 155 89 72
0.03827791 -0.21435627 1.9138954 163 97 81
0.04003698 -0.21353057 1.9065229 167 99 85
0.041782554 -0.21271119 1.899207 148 86 73
0.04351478 -0.21189807 1.891947 134 77 64
0.04523382 -0.21109115 1.8847424 109 61 58
0.04693981 -0.21029034 1.8775923 95 63 61
0.048596177 -0.20933737 1.8690836 98 80 79
0.050275397 -0.20854978 1.8620517 98 86 86
0.051748075 -0.2069923 1.8481455 96 87 87
0.053596217 -0.2069923 1.8481455 80 69 70
0.05503336 -0.20545788 1.8344454 76 65 67
0.057079364 -0.20622224 1.8412699 78 67 69
0.058702253 -0.20545788 1.8344454 80 70 71
0.06031315 -0.20469917 1.8276712 87 75 77
0.061912194 -0.20394604 1.8209468 90 79 81
0.06345299 -0.20304957 1.8129426 100 89 90
0.06526594 -0.20304957 1.8129426 97 84 87
0.06683407 -0.20230854 1.8063262 91 78 80
0.068640396 -0.20230854 1.8063262 88 74 77
0.070446715 -0.20230854 1.8063262 90 77 78
0.07225304 -0.20230854 1.8063262 92 78 79
0.074059375 -0.20230854 1.8063262 104 91 91
0.0758657 -0.20230854 1.8063262 108 97 90
0.07767203 -0.20230854 1.8063262 154 136 119
0.079478346 -0.20230854 1.8063262 126 114 100
0.08128467 -0.20230854 1.8063262 136 123 105
0.083091006 -0.20230854 1.8063262 107 97 86
0.08489733 -0.20230854 1.8063262 96 86 77
0.086075366 -0.20084251 1.7932367 99 89 84
0.0878686 -0.20084251 1.7932367 104 92 93
0.08966184 -0.20084251 1.7932367 110 93 101
0.09145507 -0.20084251 1.7932367 107 85 82
0.09324831 -0.20084251 1.7932367 155 93 73
0.09504155 -0.20084251 1.7932367 174 90 64
0.09641559 -0.19997306 1.7854738 160 92 79
0.09820106 -0.19997306 1.7854738 127 92 90
0.09998653 -0.19997306 1.7854738 110 87 89
0.10177201 -0.19997306 1.7854738 111 94 94
0.10400773 -0.20084251 1.7932367 108 92 92
0.105342954 -0.19997306 1.7854738 106 90 91
0.107128434 -0.19997306 1.7854738 107 92 92
0.108913906 -0.19997306 1.7854738 114 97 99
0.110301465 -0.19925427 1.779056 112 95 97
0.11297391 -0.20084251 1.7932367 116 98 97
0.11476715 -0.20084251 1.7932367 115 98 94
0.116560385 -0.20084251 1.7932367 116 99 95
0.11835362 -0.20084251 1.7932367 122 100 102
0.12058376 -0.20157285 1.7997576 118 95 93
0.122830175 -0.20230854 1.8063262 97 58 49
0.12564534 -0.20394604 1.8209468 136 87 72
0.12793697 -0.20469917 1.8276712 160 103 81
0.13121833 -0.2069923 1.8481455 187 124 94
0.13356522 -0.20776813 1.8550725 213 142 113
0.1364431 -0.20933737 1.8690836 219 148 121
0.13831219 -0.20933737 1.8690836 222 150 124
0.14018127 -0.20933737 1.8690836 216 146 125
0.14269702 -0.21029034 1.8775923 219 147 123
0.14794204 -0.21518841 1.9213251 205 147 122
0.15516399 -0.22279957 1.9892819 221 191 158
0.16156915 -0.22906005 2.0451791 217 195 162
0.16552955 -0.23174138 2.0691195 220 193 168
0.16830227 -0.23271425 2.0778058 217 191 167
0.17038007 -0.23271425 2.0778058 214 188 165
0.17245787 -0.23271425 2.0778058 216 190 167
0.17453569 -0.23271425 2.0778058 220 193 169
0.1766135 -0.23271425 2.0778058 207 180 158
0.17794427 -0.23174138 2.0691195 210 185 161
0.1800134 -0.23174138 2.0691195 217 190 166
0.18208252 -0.23174138 2.0691195 219 193 168
0.18415162 -0.23174138 2.0691195 221 195 170
0.18622075 -0.23174138 2.0691195 223 196 171
0.18828987 -0.23174138 2.0691195 217 193 167
0.190359 -0.23174138 2.0691195 215 190 166
0.19323593 -0.23271425 2.0778058 224 196 173
0.19531374 -0.23271425 2.0778058 223 196 174
0.19739154 -0.23271425 2.0778058 216 189 168
0.19946936 -0.23271425 2.0778058 224 196 174
0.20154716 -0.23271425 2.0778058 222 195 173
0.20362496 -0.23271425 2.0778058 212 186 166
0.20484282 -0.23174138 2.0691195 218 191 170
0.20691194 -0.23174138 2.0691195 214 187 166
0.20898107 -0.23174138 2.0691195 206 183 162
0.21105018 -0.23174138 2.0691195 204 179 159
0.21311931 -0.23174138 2.0691195 218 191 169
0.21518841 -0.23174138 2.0691195 224 194 173
0.21725754 -0.23174138 2.0691195 212 185 165
0.21932666 -0.23174138 2.0691195 218 189 169
0.22139578 -0.23174138 2.0691195 214 186 166
0.2234649 -0.23174138 2.0691195 221 195 174
0.22553402 -0.23174138 2.0691195 224 193 174
0.22760314 -0.23174138 2.0691195 227 196 176
0.22967225 -0.23174138 2.0691195 226 196 175
0.23174138 -0.23174138 2.0691195 214 188 167
0.2338105 -0.23174138 2.0691195 214 187 167
0.23587963 -0.23174138 2.0691195 215 188 167
0.2369581 -0.23077658 2.0605052 220 193 172
0.2390186 -0.23077658 2.0605052 218 190 169
0.2410791 -0.23077658 2.0605052 221 191 170
0.24313961 -0.23077658 2.0605052 214 187 166
0.24520011 -0.23077658 2.0605052 226 197 173
0.24623549 -0.22981979 2.0519624 222 194 170
0.24828744 -0.22981979 2.0519624 224 196 172
0.25033942 -0.22981979 2.0519624 220 191 168
0.25155705 -0.22906005 2.0451791 207 180 159
0.2536022 -0.22906005 2.0451791 214 186 163
0.2556474 -0.22906005 2.0451791 224 193 171
0.25663212 -0.22811744 2.0367627 225 197 173
0.25866884 -0.22811744 2.0367627 228 196 169
0.25963718 -0.22718252 2.0284154 230 194 164
0.26166558 -0.22718252 2.0284154 213 123 48
0.2626177 -0.22625525 2.020136 229 111 0
0.26463783 -0.22625525 2.020136 231 114 0
0.2657901 -0.22551885 2.0135612 235 115 0
0.26780364 -0.22551885 2.0135612 237 117 0
0.26872393 -0.22460508 2.0054026 239 118 0
0.27072933 -0.22460508 2.0054026 242 119 0
0.27163413 -0.22369869 1.9973097 244 121 0
0.27363145 -0.22369869 1.9973097 246 122 0
0.27562872 -0.22369869 1.9973097 246 123 0
0.27651018 -0.22279957 1.9892819 247 123 0
0.27849945 -0.22279957 1.9892819 255 124 0
0.28048873 -0.22279957 1.9892819 226 102 0
0.28247803 -0.22279957 1.9892819 227 103 0
0.2844673 -0.22279957 1.9892819 230 104 0
-0.2945058 -0.23110524 2.0451791 120 96 70
-0.2924606 -0.23110524 2.0451791 123 98 73
-0.29041544 -0.23110524 2.0451791 127 98 74
-0.28837028 -0.23110524 2.0451791 116 90 65
-0.28632507 -0.23110524 2.0451791 111 87 61
-0.2842799 -0.23110524 2.0451791 115 90 64
-0.2822347 -0.23110524 2.0451791 118 93 69
-0.28018954 -0.23110524 2.0451791 112 90 68
-0.2769997 -0.23015419 2.0367627 135 110 91
-0.27496296 -0.23015419 2.0367627 160 138 115
-0.2729262 -0.23015419 2.0367627 166 146 126
-0.27088943 -0.23015419 2.0367627 167 145 127
-0.26885268 -0.23015419 2.0367627 161 141 122
-0.26681593 -0.23015419 2.0367627 150 130 113
-0.26477915 -0.23015419 2.0367627 154 132 114
-0.2627424 -0.23015419 2.0367627 152 131 112
-0.26070562 -0.23015419 2.0367627 147 126 109
-0.25866884 -0.23015419 2.0367627 146 125 107
-0.25663212 -0.23015419 2.0367627 145 124 107
-0.25459534 -0.23015419 2.0367627 145 124 107
-0.2525586 -0.23015419 2.0367627 145 124 107
-0.2505218 -0.23015419 2.0367627 141 123 106
-0.24848504 -0.23015419 2.0367627 143 123 108
-0.2464483 -0.23015419 2.0367627 147 126 110
-0.24340986 -0.22921094 2.0284154 144 123 105
-0.24138144 -0.22921094 2.0284154 137 117 99
-0.23935303 -0.22921094 2.0284154 141 121 99
-0.2373246 -0.22921094 2.0284154 144 123 100
-0.23529619 -0.22921094 2.0284154 144 123 103
-0.23326777 -0.22921094 2.0284154 149 129 108
-0.23123936 -0.22921094 2.0284154 142 123 106
-0.22921094 -0.22921094 2.0284154 142 125 108
-0.22811744 -0.23015419 2.0367627 146 127 110
-0.22608066 -0.23015419 2.0367627 151 130 111
-0.2240439 -0.23015419 2.0367627 147 126 108
-0.22200714 -0.23015419 2.0367627 145 124 106
-0.21997036 -0.23015419 2.0367627 141 122 103
-0.21793361 -0.23015419 2.0367627 141 121 102
-0.21589684 -0.23015419 2.0367627 144 123 104
-0.2138601 -0.23015419 2.0367627 146 125 104
-0.21182331 -0.23015419 2.0367627 149 126 106
-0.20978656 -0.23015419 2.0367627 144 124 105
-0.20689838 -0.22921094 2.0284154 142 122 103
-0.20571303 -0.23015419 2.0367627 150 127 107
-0.20367627 -0.23015419 2.0367627 146 125 105
-0.20163952 -0.23015419 2.0367627 142 122 102
-0.19878471 -0.22921094 2.0284154 141 119 100
-0.1967563 -0.22921094 2.0284154 139 117 98
-0.19393307 -0.22827537 2.020136 139 116 97
-0.19269946 -0.22921094 2.0284154 139 117 96
-0.19145569 -0.23015419 2.0367627 134 115 94
-0.19020166 -0.23110524 2.0451791 134 114 95
-0.18815649 -0.23110524 2.0451791 139 119 102
-0.18534541 -0.23015419 2.0367627 141 120 103
-0.18406612 -0.23110524 2.0451791 143 123 104
-0.18127188 -0.23015419 2.0367627 143 123 102
-0.17850056 -0.22921094 2.0284154 147 124 103
-0.17306753 -0.22478884 1.9892819 148 121 99
-0.1658779 -0.21795584 1.9288127 172 123 100
-0.15768117 -0.2096232 1.8550725 181 124 96
-0.15228719 -0.20486252 1.8129426 183 123 95
-0.14937988 -0.2033726 1.7997576 182 121 96
-0.14811875 -0.20411485 1.8063262 178 119 95
-0.14631243 -0.20411485 1.8063262 190 128 103
-0.1439806 -0.2033726 1.7997576 206 141 113
-0.1416657 -0.20263575 1.7932367 213 144 116
-0.13987246 -0.20263575 1.7932367 214 147 118
-0.1374815 -0.20175855 1.7854738 216 149 119
-0.13569601 -0.20175855 1.7854738 219 150 119
-0.13391054 -0.20175855 1.7854738 212 144 116
-0.13212506 -0.20175855 1.7854738 192 129 107
-0.12940592 -0.20031328 1.7726839 138 95 83
-0.12809202 -0.20103332 1.779056 156 121 104
-0.12631297 -0.20103332 1.779056 192 140 111
-0.12364502 -0.19959839 1.7663574 158 108 89
-0.12135892 -0.19874722 1.758825 147 105 93
-0.119600095 -0.19874722 1.758825 130 103 97
-0.11742399 -0.19804344 1.7525969 121 100 96
-0.115671396 -0.19804344 1.7525969 121 105 99
-0.113918796 -0.19804344 1.7525969 117 102 98
-0.112166196 -0.19804344 1.7525969 112 98 96
-0.110024 -0.19734463 1.7464126 105 90 89
-0.10827758 -0.19734463 1.7464126 102 88 89
-0.10653117 -0.19734463 1.7464126 109 97 99
-0.105529495 -0.19874722 1.758825 114 101 103
-0.103770666 -0.19874722 1.758825 112 98 100
-0.10201185 -0.19874722 1.758825 111 97 99
-0.10068237 -0.19959839 1.7663574 109 96 100
-0.09891602 -0.19959839 1.7663574 111 96 99
-0.097149655 -0.19959839 1.7663574 111 96 95
-0.0953833 -0.19959839 1.7663574 116 103 99
-0.09361694 -0.19959839 1.7663574 158 145 128
-0.091850586 -0.19959839 1.7663574 172 162 136
-0.08970007 -0.19874722 1.758825 164 151 128
-0.087941244 -0.19874722 1.758825 145 129 116
-0.086182415 -0.19874722 1.758825 114 101 99
-0.084785156 -0.19959839 1.7663574 114 97 98
-0.08266477 -0.19874722 1.758825 113 88 87
-0.08125244 -0.19959839 1.7663574 141 96 83
-0.07948609 -0.19959839 1.7663574 166 99 87
-0.077719726 -0.19959839 1.7663574 143 95 87
-0.0762254 -0.20031328 1.7726839 115 92 81
-0.07472035 -0.20103332 1.779056 107 94 87
-0.0735227 -0.20263575 1.7932367 106 93 91
-0.07172947 -0.20263575 1.7932367 107 94 92
-0.06993623 -0.20263575 1.7932367 123 110 107
-0.06839079 -0.2033726 1.7997576 181 164 160
-0.06659103 -0.2033726 1.7997576 141 128 125
-0.06526594 -0.20486252 1.8129426 135 122 119
-0.06373314 -0.20576698 1.8209468 189 161 158
-0.061912194 -0.20576698 1.8209468 128 110 108
-0.06031315 -0.20652685 1.8276712 115 96 92
-0.058702253 -0.20729233 1.8344454 126 98 93
-0.05729251 -0.20884044 1.8481455 146 99 91
-0.05607251 -0.21120645 1.8690836 200 123 110
-0.054866463 -0.21379001 1.891947 142 95 84
-0.053177796 -0.2146104 1.899207 178 116 102
-0.051675174 -0.21627018 1.9138954 188 119 106
-0.04995445 -0.21710974 1.9213251 185 119 105
-0.04879075 -0.22053418 1.9516299 157 108 101
-0.047551643 -0.223889 1.9813185 76 38 35
-0.045938123 -0.225696 1.9973097 76 38 36
-0.044298347 -0.22753243 2.0135612 75 39 36
-0.042284787 -0.22753243 2.0135612 70 38 36
-0.040271226 -0.22753243 2.0135612 56 31 29
-0.038257662 -0.22753243 2.0135612 52 29 27
-0.0362441 -0.22753243 2.0135612 44 25 27
-0.03423054 -0.22753243 2.0135612 39 23 24
-0.03221698 -0.22753243 2.0135612 37 22 24
-0.030302042 -0.22827537 2.020136 36 23 24
-0.028281907 -0.22827537 2.020136 37 25 25
