ply
format ascii 1.0
element vertex 1071
property float32 x
property float32 y
property float32 z
property uchar red
property uchar green
property uchar blue
element face 0
property list uint8 int32 vertex_indices
end_header
0.0892167 -0.29105124 1.462569 132 116 119
0.09067927 -0.29105124 1.462569 130 116 116
0.09181626 -0.2900228 1.4574009 132 119 119
0.092945226 -0.28900155 1.4522692 132 118 118
0.0943975 -0.28900155 1.4522692 131 118 119
0.09584977 -0.28900155 1.4522692 134 120 121
0.097302034 -0.28900155 1.4522692 138 123 124
0.0987543 -0.28900155 1.4522692 133 118 120
0.10020658 -0.28900155 1.4522692 132 119 120
0.10165884 -0.28900155 1.4522692 140 124 126
0.10311112 -0.28900155 1.4522692 137 120 123
0.104563385 -0.28900155 1.4522692 134 119 123
0.106015645 -0.28900155 1.4522692 131 118 121
0.10746792 -0.28900155 1.4522692 132 119 122
0.10892019 -0.28900155 1.4522692 127 114 117
0.11037246 -0.28900155 1.4522692 128 113 117
0.11182473 -0.28900155 1.4522692 132 118 121
0.113277 -0.28900155 1.4522692 133 119 115
0.114326715 -0.28798756 1.4471736 125 111 108
0.11618154 -0.28900155 1.4522692 123 109 110
0.117633805 -0.28900155 1.4522692 124 111 113
0.11908607 -0.28900155 1.4522692 123 111 113
0.12053835 -0.28900155 1.4522692 121 110 111
0.12199061 -0.28900155 1.4522692 117 106 109
0.12344288 -0.28900155 1.4522692 112 103 103
0.12489515 -0.28900155 1.4522692 112 100 98
0.1272435 -0.29105124 1.462569 115 102 101
0.12870607 -0.29105124 1.462569 117 103 105
0.13063188 -0.29208702 1.4677739 111 99 100
0.13209966 -0.29208702 1.4677739 120 106 107
0.13309377 -0.29105124 1.462569 120 106 107
0.13455635 -0.29105124 1.462569 114 101 101
0.13650298 -0.29208702 1.4677739 110 96 99
0.1384635 -0.29313016 1.4730159 105 91 93
0.1399365 -0.29313016 1.4730159 106 90 89
0.1420012 -0.29435664 1.4791791 108 93 91
0.1439968 -0.29541615 1.4845031 110 94 91
0.14600682 -0.29648325 1.4898655 99 84 78
0.14857003 -0.29864082 1.5007075 88 73 66
0.15061879 -0.29973137 1.5061879 93 78 70
0.15324423 -0.30193666 1.5172696 89 74 66
0.15697514 -0.3062554 1.5389719 106 88 81
0.16142537 -0.31188008 1.5672367 115 90 83
0.1642408 -0.31426847 1.5792385 110 80 72
0.16582005 -0.31426847 1.5792385 92 52 42
0.16858271 -0.31649017 1.5904028 100 51 41
0.17083183 -0.31771526 1.5965592 113 55 46
0.17176351 -0.31649017 1.5904028 122 59 51
0.17335391 -0.31649017 1.5904028 131 64 54
0.17494431 -0.31649017 1.5904028 131 72 57
0.17653471 -0.31649017 1.5904028 139 89 74
0.17881462 -0.31771526 1.5965592 192 160 144
0.18041117 -0.31771526 1.5965592 201 181 160
0.18200774 -0.31771526 1.5965592 210 187 165
0.18360431 -0.31771526 1.5965592 214 189 166
0.18520087 -0.31771526 1.5965592 203 178 154
0.18679743 -0.31771526 1.5965592 183 159 135
0.18766755 -0.31649017 1.5904028 194 170 147
0.18925793 -0.31649017 1.5904028 213 188 167
0.19158709 -0.31771526 1.5965592 213 190 168
0.19393437 -0.3189499 1.6027634 209 187 166
0.19478022 -0.31771526 1.5965592 210 187 165
0.19637677 -0.31771526 1.5965592 214 192 169
0.19797334 -0.31771526 1.5965592 214 191 168
0.1995699 -0.31771526 1.5965592 210 187 166
0.20116645 -0.31771526 1.5965592 209 187 166
0.20276302 -0.31771526 1.5965592 204 179 161
0.20435958 -0.31771526 1.5965592 201 177 158
0.20675649 -0.3189499 1.6027634 215 190 170
0.20835924 -0.3189499 1.6027634 209 185 165
0.20914924 -0.31771526 1.5965592 207 184 164
0.2107458 -0.31771526 1.5965592 214 190 170
0.21234238 -0.31771526 1.5965592 218 197 174
0.21393894 -0.31771526 1.5965592 218 197 174
0.21637306 -0.3189499 1.6027634 218 196 174
0.21713205 -0.31771526 1.5965592 208 183 164
0.2187286 -0.31771526 1.5965592 194 172 153
0.22032517 -0.31771526 1.5965592 206 183 162
0.22192173 -0.31771526 1.5965592 215 191 171
0.22351828 -0.31771526 1.5965592 210 189 168
0.22598964 -0.3189499 1.6027634 214 192 170
0.22759241 -0.3189499 1.6027634 204 182 159
0.22919518 -0.3189499 1.6027634 188 164 142
-0.22568208 -0.31344733 1.5672367 185 104 76
-0.22411484 -0.31344733 1.5672367 177 98 69
-0.2225476 -0.31344733 1.5672367 172 94 65
-0.22098036 -0.31344733 1.5672367 180 99 69
-0.21941313 -0.31344733 1.5672367 180 102 74
-0.2178459 -0.31344733 1.5672367 187 110 86
-0.21627866 -0.31344733 1.5672367 183 118 95
-0.21471143 -0.31344733 1.5672367 197 152 128
-0.21395722 -0.31464294 1.5732148 187 159 135
-0.21238399 -0.31464294 1.5732148 190 163 142
-0.21081078 -0.31464294 1.5732148 194 168 146
-0.20923756 -0.31464294 1.5732148 188 166 143
-0.20766436 -0.31464294 1.5732148 185 164 140
-0.20609114 -0.31464294 1.5732148 186 163 144
-0.20451792 -0.31464294 1.5732148 188 165 142
-0.2029447 -0.31464294 1.5732148 190 169 145
-0.20137149 -0.31464294 1.5732148 193 171 149
-0.19979829 -0.31464294 1.5732148 183 162 142
-0.19822507 -0.31464294 1.5732148 180 159 141
-0.19665185 -0.31464294 1.5732148 185 164 143
-0.19507863 -0.31464294 1.5732148 190 167 146
-0.19424634 -0.31584772 1.5792385 191 167 145
-0.1926671 -0.31584772 1.5792385 187 164 145
-0.19108786 -0.31584772 1.5792385 193 171 147
-0.18950862 -0.31584772 1.5792385 191 168 147
-0.18792938 -0.31584772 1.5792385 188 167 149
-0.18635014 -0.31584772 1.5792385 178 159 140
-0.18477091 -0.31584772 1.5792385 187 165 145
-0.18389581 -0.31706172 1.5853087 184 163 144
-0.1823105 -0.31706172 1.5853087 188 167 146
-0.18072519 -0.31706172 1.5853087 190 169 146
-0.17913988 -0.31706172 1.5853087 195 172 149
-0.17687471 -0.31584772 1.5792385 191 172 149
-0.17529547 -0.31584772 1.5792385 192 171 149
-0.17371623 -0.31584772 1.5792385 188 166 144
-0.17213699 -0.31584772 1.5792385 182 161 141
-0.17055775 -0.31584772 1.5792385 188 165 144
-0.16897851 -0.31584772 1.5792385 189 168 148
-0.16739929 -0.31584772 1.5792385 190 166 145
-0.16582005 -0.31584772 1.5792385 189 170 146
-0.1642408 -0.31584772 1.5792385 189 168 146
-0.16328679 -0.31706172 1.5853087 197 173 152
-0.16170147 -0.31706172 1.5853087 197 174 155
-0.16011618 -0.31706172 1.5853087 194 172 150
-0.15853086 -0.31706172 1.5853087 192 169 149
-0.15634462 -0.31584772 1.5792385 188 168 148
-0.15476538 -0.31584772 1.5792385 190 168 150
-0.15318614 -0.31584772 1.5792385 187 166 144
-0.1516069 -0.31584772 1.5792385 183 166 146
-0.15002766 -0.31584772 1.5792385 186 169 145
-0.14844842 -0.31584772 1.5792385 195 175 153
-0.14686918 -0.31584772 1.5792385 194 175 153
-0.14528994 -0.31584772 1.5792385 191 171 149
-0.1437107 -0.31584772 1.5792385 179 159 139
-0.14213146 -0.31584772 1.5792385 179 160 138
-0.14055224 -0.31584772 1.5792385 178 158 136
-0.138973 -0.31584772 1.5792385 169 150 127
-0.13739376 -0.31584772 1.5792385 166 147 124
-0.13581452 -0.31584772 1.5792385 168 149 127
-0.13423528 -0.31584772 1.5792385 163 145 124
-0.13265604 -0.31584772 1.5792385 155 136 118
-0.1310768 -0.31584772 1.5792385 135 116 101
-0.12949756 -0.31584772 1.5792385 131 114 97
-0.12791832 -0.31584772 1.5792385 128 110 94
-0.12633908 -0.31584772 1.5792385 126 109 93
-0.12428397 -0.31464294 1.5732148 125 108 94
-0.12271076 -0.31464294 1.5732148 119 105 91
-0.12113754 -0.31464294 1.5732148 109 97 81
-0.11910999 -0.31344733 1.5672367 97 87 76
-0.11754275 -0.31344733 1.5672367 74 65 56
-0.11553649 -0.3122608 1.561304 65 57 48
-0.11397519 -0.3122608 1.561304 62 52 46
-0.11206038 -0.31127885 1.5563942 63 52 46
-0.11050399 -0.31127885 1.5563942 67 55 49
-0.10853802 -0.3101086 1.5505431 67 53 48
-0.10698747 -0.3101086 1.5505431 68 56 50
-0.10583481 -0.31127885 1.5563942 66 54 48
-0.10388638 -0.3101086 1.5505431 65 54 48
-0.10233585 -0.3101086 1.5505431 65 54 49
-0.10040783 -0.30894715 1.5447358 69 56 52
-0.09886309 -0.30894715 1.5447358 67 56 51
-0.09731835 -0.30894715 1.5447358 69 56 52
-0.095061556 -0.30665013 1.5332508 71 58 53
-0.09318189 -0.3055144 1.527572 71 60 55
-0.09165432 -0.3055144 1.527572 71 60 55
-0.090126745 -0.3055144 1.527572 74 62 57
-0.088599175 -0.3055144 1.527572 73 61 56
-0.086484365 -0.30345392 1.5172696 74 61 57
-0.0849671 -0.30345392 1.5172696 75 63 59
-0.083143964 -0.3023417 1.5117085 79 67 62
-0.081334144 -0.30123758 1.5061879 79 66 62
-0.079537496 -0.3001415 1.5007075 77 63 59
-0.07775388 -0.29905337 1.4952669 81 67 62
-0.076258615 -0.29905337 1.4952669 93 80 75
-0.07449328 -0.29797313 1.4898655 97 84 79
-0.07300341 -0.29797313 1.4898655 80 67 60
-0.07151355 -0.29797313 1.4898655 80 68 60
-0.07002368 -0.29797313 1.4898655 82 70 65
-0.06828715 -0.29690063 1.4845031 82 70 67
-0.06656306 -0.29583582 1.4791791 80 66 64
-0.0648127 -0.29460317 1.4730159 82 70 66
-0.06311428 -0.29355478 1.4677739 83 71 66
-0.061646502 -0.29355478 1.4677739 86 73 70
-0.059753437 -0.29148018 1.4574009 83 71 67
-0.058296036 -0.29148018 1.4574009 85 74 70
-0.0566385 -0.29045382 1.4522692 83 72 68
-0.05518623 -0.29045382 1.4522692 88 77 73
-0.05373396 -0.29045382 1.4522692 88 77 73
-0.052281693 -0.29045382 1.4522692 88 77 72
-0.050651077 -0.28943473 1.4471736 92 78 75
-0.049203902 -0.28943473 1.4471736 98 84 83
-0.047924884 -0.29045382 1.4522692 122 108 107
-0.04598684 -0.28741777 1.4370887 120 106 105
-0.044549752 -0.28741777 1.4370887 115 100 100
-0.04311266 -0.28741777 1.4370887 114 100 99
-0.04167557 -0.28741777 1.4370887 124 108 106
-0.040238485 -0.28741777 1.4370887 125 109 109
-0.038801394 -0.28741777 1.4370887 119 104 103
-0.037364308 -0.28741777 1.4370887 124 108 108
-0.03592722 -0.28741777 1.4370887 121 109 109
-0.034490127 -0.28741777 1.4370887 134 120 121
-0.03305304 -0.28741777 1.4370887 139 123 124
-0.0317265 -0.2884227 1.4421135 144 127 129
-0.030178864 -0.28741777 1.4370887 146 128 130
-0.028943472 -0.28943473 1.4471736 138 123 125
-0.027593115 -0.29045382 1.4522692 138 124 125
-0.026140846 -0.29045382 1.4522692 137 121 122
-0.024688575 -0.29045382 1.4522692 140 123 125
-0.023236306 -0.29045382 1.4522692 137 121 124
-0.02178404 -0.29045382 1.4522692 140 124 127
-0.020403612 -0.29148018 1.4574009 140 123 127
-0.018946214 -0.29148018 1.4574009 142 125 128
-0.017488811 -0.29148018 1.4574009 143 126 129
-0.016088258 -0.2925138 1.462569 142 126 128
-0.014625691 -0.2925138 1.462569 142 126 128
-0.013163121 -0.2925138 1.462569 141 124 126
-0.011742191 -0.29355478 1.4677739 140 124 125
-0.010274418 -0.29355478 1.4677739 140 122 124
-0.008838096 -0.29460317 1.4730159 149 131 133
-0.0073650796 -0.29460317 1.4730159 150 132 134
-0.0058920635 -0.29460317 1.4730159 152 135 137
-0.004419048 -0.29460317 1.4730159 155 137 139
-0.0029460317 -0.29460317 1.4730159 155 135 137
-0.0014791791 -0.29583582 1.4791791 152 133 137
0.0 -0.29690063 1.4845031 154 135 136
0.0014952669 -0.29905337 1.4952669 148 133 128
0.0030665016 -0.30665013 1.5332508 175 156 143
0.0047196443 -0.31464294 1.5732148 195 172 153
0.0063862368 -0.31931183 1.5965592 198 176 155
0.008013817 -0.32055268 1.6027634 205 183 163
0.009579355 -0.31931183 1.5965592 206 184 165
0.011175914 -0.31931183 1.5965592 206 183 164
0.012723222 -0.31808057 1.5904028 209 186 165
0.014313625 -0.31808057 1.5904028 207 185 164
0.015904028 -0.31808057 1.5904028 214 190 171
0.01749443 -0.31808057 1.5904028 211 189 169
0.019084835 -0.31808057 1.5904028 208 187 166
0.020675238 -0.31808057 1.5904028 213 192 170
0.022265641 -0.31808057 1.5904028 217 196 174
0.023856042 -0.31808057 1.5904028 202 182 162
0.025544947 -0.31931183 1.5965592 205 184 163
0.027246978 -0.32055268 1.6027634 212 190 169
0.028849741 -0.32055268 1.6027634 209 189 167
0.030452505 -0.32055268 1.6027634 216 195 173
0.032055266 -0.32055268 1.6027634 216 196 173
0.03339846 -0.31808057 1.5904028 211 193 169
0.035124302 -0.31931183 1.5965592 212 191 168
0.036863558 -0.32055268 1.6027634 201 179 159
0.03816967 -0.31808057 1.5904028 208 185 164
0.03991398 -0.31931183 1.5965592 213 192 168
0.041350476 -0.31808057 1.5904028 210 187 164
0.042803332 -0.31706172 1.5853087 203 181 159
0.044877376 -0.32055268 1.6027634 208 186 164
0.04648014 -0.32055268 1.6027634 210 190 166
0.0480829 -0.32055268 1.6027634 214 195 172
0.049493335 -0.31931183 1.5965592 217 196 173
0.05089289 -0.31808057 1.5904028 207 186 165
0.052483294 -0.31808057 1.5904028 200 178 156
0.054073695 -0.31808057 1.5904028 196 175 154
0.0556641 -0.31808057 1.5904028 194 175 155
0.057476133 -0.31931183 1.5965592 204 184 162
0.05907269 -0.31931183 1.5965592 211 187 166
0.060669247 -0.31931183 1.5965592 206 185 163
0.06226581 -0.31931183 1.5965592 192 172 151
0.06386237 -0.31931183 1.5965592 196 177 155
0.06545892 -0.31931183 1.5965592 200 181 159
0.06679692 -0.31808057 1.5904028 202 178 158
0.06865205 -0.31931183 1.5965592 186 168 149
0.06997772 -0.31808057 1.5904028 181 163 144
0.07156813 -0.31808057 1.5904028 173 159 140
0.07344172 -0.31931183 1.5965592 170 152 133
0.075038284 -0.31931183 1.5965592 145 129 112
0.07693265 -0.32055268 1.6027634 159 138 120
0.07853541 -0.32055268 1.6027634 140 124 105
0.080713205 -0.32285282 1.614264 109 96 86
0.08174094 -0.32055268 1.6027634 111 97 87
0.08243605 -0.31706172 1.5853087 117 101 94
0.081870995 -0.30894715 1.5447358 114 98 94
0.08045273 -0.29797313 1.4898655 128 113 109
0.08072756 -0.29355478 1.4677739 140 126 124
0.08190386 -0.2925138 1.462569 144 129 129
0.08336643 -0.2925138 1.462569 142 128 129
0.084829 -0.2925138 1.462569 134 122 123
0.086291574 -0.2925138 1.462569 135 120 121
0.087754145 -0.2925138 1.462569 138 122 125
0.0892167 -0.2925138 1.462569 124 109 111
0.09067927 -0.2925138 1.462569 130 115 117
0.092141844 -0.2925138 1.462569 134 119 120
0.092945226 -0.29045382 1.4522692 134 120 121
0.0943975 -0.29045382 1.4522692 127 113 114
0.09584977 -0.29045382 1.4522692 128 114 115
0.097302034 -0.29045382 1.4522692 130 115 117
0.0987543 -0.29045382 1.4522692 129 115 117
0.10020658 -0.29045382 1.4522692 138 122 124
0.10165884 -0.29045382 1.4522692 128 114 115
0.10311112 -0.29045382 1.4522692 131 117 118
0.104563385 -0.29045382 1.4522692 132 117 121
0.106015645 -0.29045382 1.4522692 123 113 114
0.10746792 -0.29045382 1.4522692 128 116 118
0.10892019 -0.29045382 1.4522692 127 115 117
0.11037246 -0.29045382 1.4522692 127 114 116
0.11182473 -0.29045382 1.4522692 124 113 115
0.113277 -0.29045382 1.4522692 119 107 104
0.11472926 -0.29045382 1.4522692 121 108 106
0.11618154 -0.29045382 1.4522692 111 98 99
0.117633805 -0.29045382 1.4522692 115 103 106
0.11908607 -0.29045382 1.4522692 117 104 109
0.12053835 -0.29045382 1.4522692 112 101 105
0.12199061 -0.29045382 1.4522692 111 98 103
0.12344288 -0.29045382 1.4522692 111 99 100
0.12489515 -0.29045382 1.4522692 109 97 96
0.1272435 -0.2925138 1.462569 107 95 94
0.12870607 -0.2925138 1.462569 103 91 93
0.13016865 -0.2925138 1.462569 104 91 93
0.13209966 -0.29355478 1.4677739 111 97 99
0.13356742 -0.29355478 1.4677739 119 104 105
0.1350352 -0.29355478 1.4677739 113 99 99
0.13650298 -0.29355478 1.4677739 109 94 97
0.1384635 -0.29460317 1.4730159 109 95 97
0.14052202 -0.29583582 1.4791791 112 97 95
0.14140953 -0.29460317 1.4730159 109 94 92
0.14348038 -0.29583582 1.4791791 102 89 81
0.14653616 -0.29905337 1.4952669 91 77 68
0.14857003 -0.3001415 1.5007075 89 73 62
0.15172696 -0.30345392 1.5172696 100 83 71
0.15543616 -0.30779436 1.5389719 109 92 82
0.159253 -0.3122608 1.561304 124 103 93
0.16266158 -0.31584772 1.5792385 141 115 103
0.1642408 -0.31584772 1.5792385 147 116 103
0.16582005 -0.31584772 1.5792385 111 82 71
0.16804272 -0.31706172 1.5853087 103 51 41
0.16962802 -0.31706172 1.5853087 114 56 46
0.17121333 -0.31706172 1.5853087 122 59 49
0.17279865 -0.31706172 1.5853087 129 65 53
0.17438395 -0.31706172 1.5853087 139 78 63
0.17596927 -0.31706172 1.5853087 142 92 79
0.17812513 -0.31808057 1.5904028 194 162 145
0.17913988 -0.31706172 1.5853087 202 184 161
0.18072519 -0.31706172 1.5853087 209 186 165
0.1823105 -0.31706172 1.5853087 211 191 168
0.18319167 -0.31584772 1.5792385 210 185 164
0.18607713 -0.31808057 1.5904028 201 178 155
0.18766755 -0.31808057 1.5904028 205 180 159
0.18925793 -0.31808057 1.5904028 217 190 169
0.19084834 -0.31808057 1.5904028 210 186 165
0.19243875 -0.31808057 1.5904028 212 187 166
0.19478022 -0.31931183 1.5965592 211 190 169
0.19637677 -0.31931183 1.5965592 213 189 168
0.19797334 -0.31931183 1.5965592 214 190 168
0.1995699 -0.31931183 1.5965592 209 186 165
0.20039076 -0.31808057 1.5904028 203 180 160
0.20198116 -0.31808057 1.5904028 211 189 168
0.20357156 -0.31808057 1.5904028 208 182 164
0.20595613 -0.31931183 1.5965592 203 180 161
0.20755269 -0.31931183 1.5965592 206 183 164
0.20914924 -0.31931183 1.5965592 211 185 165
0.2107458 -0.31931183 1.5965592 210 185 166
0.21234238 -0.31931183 1.5965592 209 188 166
0.21393894 -0.31931183 1.5965592 210 189 166
0.21553549 -0.31931183 1.5965592 217 195 174
0.21713205 -0.31931183 1.5965592 203 178 161
0.2187286 -0.31931183 1.5965592 205 180 160
0.21947558 -0.31808057 1.5904028 194 169 149
0.221066 -0.31808057 1.5904028 194 172 153
0.2226564 -0.31808057 1.5904028 207 183 163
0.22511484 -0.31931183 1.5965592 207 184 162
0.22759241 -0.32055268 1.6027634 203 179 158
0.22919518 -0.32055268 1.6027634 207 184 160
-0.22568208 -0.31501457 1.5672367 193 114 82
-0.22411484 -0.31501457 1.5672367 186 104 71
-0.2225476 -0.31501457 1.5672367 187 103 69
-0.22098036 -0.31501457 1.5672367 189 106 71
-0.21941313 -0.31501457 1.5672367 188 110 80
-0.2178459 -0.31501457 1.5672367 191 121 94
-0.21627866 -0.31501457 1.5672367 185 127 102
-0.21471143 -0.31501457 1.5672367 196 156 130
-0.21314418 -0.31501457 1.5672367 185 156 133
-0.21157695 -0.31501457 1.5672367 182 155 132
-0.21000972 -0.31501457 1.5672367 178 154 129
-0.20844248 -0.31501457 1.5672367 181 158 138
-0.20687525 -0.31501457 1.5672367 182 160 137
-0.205308 -0.31501457 1.5672367 187 166 143
-0.20374078 -0.31501457 1.5672367 196 174 150
-0.20217352 -0.31501457 1.5672367 192 168 145
-0.20137149 -0.31621617 1.5732148 190 165 144
-0.19979829 -0.31621617 1.5732148 184 161 142
-0.19822507 -0.31621617 1.5732148 187 164 144
-0.19665185 -0.31621617 1.5732148 192 169 147
-0.19507863 -0.31621617 1.5732148 192 169 147
-0.19350542 -0.31621617 1.5732148 185 165 143
-0.1926671 -0.31742695 1.5792385 185 165 143
-0.19108786 -0.31742695 1.5792385 190 167 144
-0.18950862 -0.31742695 1.5792385 182 159 140
-0.18792938 -0.31742695 1.5792385 180 158 138
-0.18635014 -0.31742695 1.5792385 185 164 144
-0.18477091 -0.31742695 1.5792385 189 167 146
-0.18319167 -0.31742695 1.5792385 185 162 143
-0.18161243 -0.31742695 1.5792385 185 165 143
-0.18003319 -0.31742695 1.5792385 192 171 150
-0.17845395 -0.31742695 1.5792385 192 171 149
-0.17620006 -0.31621617 1.5732148 192 171 149
-0.17462684 -0.31621617 1.5732148 194 172 150
-0.17305362 -0.31621617 1.5732148 178 157 138
-0.1714804 -0.31621617 1.5732148 176 156 136
-0.1699072 -0.31621617 1.5732148 192 168 148
-0.16833398 -0.31621617 1.5732148 191 168 148
-0.16676077 -0.31621617 1.5732148 193 169 148
-0.16518755 -0.31621617 1.5732148 191 170 145
-0.1642408 -0.31742695 1.5792385 191 168 148
-0.16266158 -0.31742695 1.5792385 194 171 150
-0.16108234 -0.31742695 1.5792385 196 176 153
-0.1595031 -0.31742695 1.5792385 200 179 155
-0.15792386 -0.31742695 1.5792385 189 171 150
-0.15634462 -0.31742695 1.5792385 190 171 152
-0.15476538 -0.31742695 1.5792385 193 174 153
-0.15318614 -0.31742695 1.5792385 196 174 149
-0.1516069 -0.31742695 1.5792385 197 174 154
-0.15002766 -0.31742695 1.5792385 194 175 149
-0.14844842 -0.31742695 1.5792385 194 175 150
-0.14686918 -0.31742695 1.5792385 195 175 152
-0.14528994 -0.31742695 1.5792385 192 173 150
-0.1437107 -0.31742695 1.5792385 186 166 143
-0.14213146 -0.31742695 1.5792385 186 166 144
-0.14055224 -0.31742695 1.5792385 183 161 141
-0.138973 -0.31742695 1.5792385 176 156 135
-0.13739376 -0.31742695 1.5792385 169 150 127
-0.13581452 -0.31742695 1.5792385 172 153 132
-0.13423528 -0.31742695 1.5792385 176 155 135
-0.13265604 -0.31742695 1.5792385 170 150 131
-0.1310768 -0.31742695 1.5792385 157 137 118
-0.12949756 -0.31742695 1.5792385 148 130 108
-0.12791832 -0.31742695 1.5792385 133 117 98
-0.12633908 -0.31742695 1.5792385 124 108 92
-0.12428397 -0.31621617 1.5732148 124 108 92
-0.12271076 -0.31621617 1.5732148 129 111 96
-0.12113754 -0.31621617 1.5732148 118 105 90
-0.11910999 -0.31501457 1.5672367 104 94 83
-0.11754275 -0.31501457 1.5672367 94 84 73
-0.11553649 -0.31382212 1.561304 84 76 67
-0.11397519 -0.31382212 1.561304 64 56 52
-0.11206038 -0.31283525 1.5563942 62 53 50
-0.11050399 -0.31283525 1.5563942 63 53 49
-0.10853802 -0.31165916 1.5505431 66 53 49
-0.10698747 -0.31165916 1.5505431 66 54 49
-0.10583481 -0.31283525 1.5563942 63 51 47
-0.10388638 -0.31165916 1.5505431 62 51 46
-0.10233585 -0.31165916 1.5505431 63 54 48
-0.10040783 -0.3104919 1.5447358 64 54 50
-0.0984942 -0.30933335 1.5389719 62 51 48
-0.09695523 -0.30933335 1.5389719 67 54 50
-0.095061556 -0.3081834 1.5332508 71 59 55
-0.09318189 -0.307042 1.527572 70 61 55
-0.09165432 -0.307042 1.527572 69 58 53
-0.090126745 -0.307042 1.527572 70 59 54
-0.088599175 -0.307042 1.527572 72 61 56
-0.086750306 -0.30590898 1.5219352 72 60 56
-0.0849671 -0.3049712 1.5172696 74 63 59
-0.083449826 -0.3049712 1.5172696 75 63 58
-0.08163226 -0.3038534 1.5117085 75 62 57
-0.08012055 -0.3038534 1.5117085 77 64 60
-0.07803679 -0.3016422 1.5007075 81 65 62
-0.076258615 -0.30054864 1.4952669 93 79 75
-0.07476334 -0.30054864 1.4952669 96 83 78
-0.07300341 -0.29946297 1.4898655 82 68 63
-0.071256146 -0.29838514 1.4845031 81 69 64
-0.06977165 -0.29838514 1.4845031 84 72 66
-0.06828715 -0.29838514 1.4845031 82 69 67
-0.06604983 -0.29502255 1.4677739 83 70 68
-0.06458206 -0.29502255 1.4677739 82 69 66
-0.06311428 -0.29502255 1.4677739 84 73 68
-0.061646502 -0.29502255 1.4677739 81 70 66
-0.059753437 -0.29293758 1.4574009 80 69 64
-0.058502764 -0.29397637 1.462569 82 72 66
-0.056838635 -0.29293758 1.4574009 81 70 66
-0.05518623 -0.2919061 1.4522692 81 69 64
-0.05373396 -0.2919061 1.4522692 84 72 67
-0.052281693 -0.2919061 1.4522692 83 72 67
-0.050651077 -0.2908819 1.4471736 100 87 82
-0.04903186 -0.2898648 1.4421135 103 90 87
-0.047756728 -0.2908819 1.4471736 117 103 102
-0.04598684 -0.28885484 1.4370887 120 103 103
-0.044549752 -0.28885484 1.4370887 121 104 104
-0.04311266 -0.28885484 1.4370887 114 101 98
-0.04167557 -0.28885484 1.4370887 112 98 95
-0.040238485 -0.28885484 1.4370887 107 95 94
-0.038801394 -0.28885484 1.4370887 120 106 106
-0.037364308 -0.28885484 1.4370887 118 104 105
-0.03592722 -0.28885484 1.4370887 119 105 106
-0.034490127 -0.28885484 1.4370887 112 99 100
-0.03305304 -0.28885484 1.4370887 120 107 108
-0.03161595 -0.28885484 1.4370887 120 106 107
-0.030178864 -0.28885484 1.4370887 125 112 112
-0.028943472 -0.2908819 1.4471736 134 119 119
-0.027593115 -0.2919061 1.4522692 135 120 121
-0.026140846 -0.2919061 1.4522692 138 121 122
-0.024688575 -0.2919061 1.4522692 148 129 132
-0.023236306 -0.2919061 1.4522692 143 127 130
-0.02178404 -0.2919061 1.4522692 139 125 127
-0.020403612 -0.29293758 1.4574009 135 120 124
-0.018946214 -0.29293758 1.4574009 138 122 126
-0.017488811 -0.29293758 1.4574009 142 126 128
-0.01603141 -0.29293758 1.4574009 142 126 128
-0.014625691 -0.29397637 1.462569 141 125 127
-0.013163121 -0.29397637 1.462569 141 124 124
-0.011700552 -0.29397637 1.462569 139 123 124
-0.010274418 -0.29502255 1.4677739 143 126 127
-0.008806643 -0.29502255 1.4677739 135 120 121
-0.0073650796 -0.2960762 1.4730159 138 122 124
-0.0058920635 -0.2960762 1.4730159 145 128 130
-0.004419048 -0.2960762 1.4730159 152 133 136
-0.0029460317 -0.2960762 1.4730159 155 135 136
-0.0014730159 -0.2960762 1.4730159 154 135 140
0.0 -0.29838514 1.4845031 153 134 139
0.0014845032 -0.29838514 1.4845031 155 137 137
0.003023417 -0.3038534 1.5117085 159 141 137
0.0046516294 -0.31165916 1.5505431 188 167 153
0.006341235 -0.31864703 1.5853087 201 179 161
0.008013817 -0.32215545 1.6027634 198 176 162
0.009579355 -0.3209084 1.5965592 198 176 160
0.011175914 -0.3209084 1.5965592 203 178 160
0.012723222 -0.31967095 1.5904028 208 184 165
0.014313625 -0.31967095 1.5904028 205 183 162
0.015904028 -0.31967095 1.5904028 195 174 155
0.01749443 -0.31967095 1.5904028 209 188 167
0.019084835 -0.31967095 1.5904028 214 192 171
0.020675238 -0.31967095 1.5904028 212 191 169
0.022265641 -0.31967095 1.5904028 211 188 168
0.023856042 -0.31967095 1.5904028 183 165 146
0.025544947 -0.3209084 1.5965592 201 177 158
0.027141506 -0.3209084 1.5965592 206 184 163
0.028738067 -0.3209084 1.5965592 209 186 165
0.030334624 -0.3209084 1.5965592 210 188 166
0.031808056 -0.31967095 1.5904028 215 194 172
0.03339846 -0.31967095 1.5904028 208 190 167
0.035124302 -0.3209084 1.5965592 210 190 167
0.036579266 -0.31967095 1.5904028 212 190 168
0.03816967 -0.31967095 1.5904028 209 189 167
0.03976007 -0.31967095 1.5904028 205 185 162
0.041350476 -0.31967095 1.5904028 210 187 164
0.043107096 -0.3209084 1.5965592 211 188 165
0.044703655 -0.3209084 1.5965592 207 185 163
0.046121683 -0.31967095 1.5904028 209 186 165
0.047712084 -0.31967095 1.5904028 208 188 166
0.04914457 -0.31864703 1.5853087 207 187 165
0.05089289 -0.31967095 1.5904028 207 184 164
0.052483294 -0.31967095 1.5904028 200 177 156
0.054073695 -0.31967095 1.5904028 199 174 155
0.05587957 -0.3209084 1.5965592 201 179 158
0.057476133 -0.3209084 1.5965592 195 176 154
0.058844905 -0.31967095 1.5904028 201 179 159
0.060435306 -0.31967095 1.5904028 199 178 157
0.06202571 -0.31967095 1.5904028 198 176 155
0.06361611 -0.31967095 1.5904028 220 195 172
0.06499766 -0.31864703 1.5853087 202 182 161
0.06658296 -0.31864703 1.5853087 200 178 156
0.06838732 -0.31967095 1.5904028 196 177 155
0.06997772 -0.31967095 1.5904028 193 173 153
0.07133889 -0.31864703 1.5853087 172 157 139
0.072924204 -0.31864703 1.5853087 170 152 135
0.07450951 -0.31864703 1.5853087 169 151 132
0.07663484 -0.3209084 1.5965592 159 139 121
0.0782314 -0.3209084 1.5965592 141 124 105
0.07952014 -0.31967095 1.5904028 125 108 98
0.0796265 -0.31382212 1.561304 123 108 97
0.080628246 -0.31165916 1.5505431 123 108 100
0.079537496 -0.3016422 1.5007075 119 106 100
0.07925979 -0.29502255 1.4677739 146 132 127
0.08072756 -0.29502255 1.4677739 147 134 133
0.08190386 -0.29397637 1.462569 151 136 138
0.08336643 -0.29397637 1.462569 150 135 137
0.084829 -0.29397637 1.462569 137 124 126
0.086291574 -0.29397637 1.462569 130 116 117
0.087754145 -0.29397637 1.462569 126 112 114
0.0892167 -0.29397637 1.462569 125 109 113
0.09067927 -0.29397637 1.462569 125 110 112
0.092141844 -0.29397637 1.462569 129 115 116
0.092945226 -0.2919061 1.4522692 131 117 118
0.0943975 -0.2919061 1.4522692 133 118 119
0.09584977 -0.2919061 1.4522692 131 115 117
0.097302034 -0.2919061 1.4522692 128 115 116
0.0987543 -0.2919061 1.4522692 131 117 119
0.10020658 -0.2919061 1.4522692 141 125 127
0.10165884 -0.2919061 1.4522692 137 122 124
0.10311112 -0.2919061 1.4522692 128 115 116
0.104563385 -0.2919061 1.4522692 134 119 122
0.106015645 -0.2919061 1.4522692 126 114 116
0.10746792 -0.2919061 1.4522692 127 114 116
0.10892019 -0.2919061 1.4522692 133 118 121
0.11037246 -0.2919061 1.4522692 132 118 120
0.11182473 -0.2919061 1.4522692 124 112 112
0.113277 -0.2919061 1.4522692 115 104 103
0.11472926 -0.2919061 1.4522692 109 98 97
0.11659207 -0.29293758 1.4574009 109 96 96
0.11804948 -0.29293758 1.4574009 110 98 99
0.11950687 -0.29293758 1.4574009 113 99 104
0.12096428 -0.29293758 1.4574009 106 94 98
0.122421674 -0.29293758 1.4574009 109 95 101
0.12387908 -0.29293758 1.4574009 111 97 99
0.12533648 -0.29293758 1.4574009 105 92 92
0.12679388 -0.29293758 1.4574009 115 100 101
0.12870607 -0.29397637 1.462569 104 90 93
0.13016865 -0.29397637 1.462569 101 87 88
0.13209966 -0.29502255 1.4677739 101 85 87
0.13356742 -0.29502255 1.4677739 101 87 88
0.1350352 -0.29502255 1.4677739 106 92 93
0.13699047 -0.2960762 1.4730159 110 95 97
0.1384635 -0.2960762 1.4730159 108 94 96
0.14052202 -0.297315 1.4791791 109 95 94
0.1420012 -0.297315 1.4791791 108 93 92
0.14451696 -0.29946297 1.4898655 100 87 77
0.14706933 -0.3016422 1.5007075 89 73 63
0.14965913 -0.3038534 1.5117085 88 69 57
0.15332507 -0.3081834 1.5332508 106 88 76
0.1576917 -0.31382212 1.561304 132 110 97
0.16046791 -0.31621617 1.5732148 132 111 97
0.16266158 -0.31742695 1.5792385 139 118 102
0.16361433 -0.31621617 1.5732148 162 135 117
0.16582005 -0.31742695 1.5792385 164 134 115
0.16739929 -0.31742695 1.5792385 103 56 44
0.16897851 -0.31742695 1.5792385 115 56 46
0.17055775 -0.31742695 1.5792385 123 62 48
0.17279865 -0.31864703 1.5853087 129 67 54
0.17438395 -0.31864703 1.5853087 139 78 64
0.17596927 -0.31864703 1.5853087 145 94 82
0.17755456 -0.31864703 1.5853087 193 162 146
0.17913988 -0.31864703 1.5853087 202 182 160
0.18072519 -0.31864703 1.5853087 207 181 161
0.1823105 -0.31864703 1.5853087 211 188 168
0.18319167 -0.31742695 1.5792385 212 188 168
0.18548112 -0.31864703 1.5853087 213 187 168
0.18706642 -0.31864703 1.5853087 205 180 160
0.18865174 -0.31864703 1.5853087 209 186 165
0.19023705 -0.31864703 1.5853087 212 187 166
0.19182234 -0.31864703 1.5853087 211 187 166
0.19402914 -0.31967095 1.5904028 208 185 164
0.19561955 -0.31967095 1.5904028 206 185 164
0.19720994 -0.31967095 1.5904028 206 183 162
0.1995699 -0.3209084 1.5965592 205 185 164
0.20116645 -0.3209084 1.5965592 200 178 158
0.20198116 -0.31967095 1.5904028 198 176 157
0.20291951 -0.31864703 1.5853087 207 185 164
0.20516197 -0.31967095 1.5904028 204 184 163
0.20755269 -0.3209084 1.5965592 209 186 165
0.20834278 -0.31967095 1.5904028 207 186 165
0.2107458 -0.3209084 1.5965592 215 191 170
0.21234238 -0.3209084 1.5965592 211 188 167
0.21311398 -0.31967095 1.5904028 210 190 168
0.21470438 -0.31967095 1.5904028 215 192 171
0.21629478 -0.31967095 1.5904028 201 176 160
0.2178852 -0.31967095 1.5904028 203 181 162
0.21947558 -0.31967095 1.5904028 203 180 160
0.221066 -0.31967095 1.5904028 201 176 156
0.2219432 -0.31864703 1.5853087 207 183 161
0.22352852 -0.31864703 1.5853087 204 182 161
0.22671139 -0.3209084 1.5965592 197 175 155
0.22742762 -0.31967095 1.5904028 205 184 161
-0.22568208 -0.31658182 1.5672367 188 110 80
-0.22411484 -0.31658182 1.5672367 185 106 73
-0.2225476 -0.31658182 1.5672367 182 103 69
-0.22098036 -0.31658182 1.5672367 184 104 71
-0.21941313 -0.31658182 1.5672367 185 110 82
-0.2178459 -0.31658182 1.5672367 197 134 107
-0.21627866 -0.31658182 1.5672367 188 143 122
-0.21471143 -0.31658182 1.5672367 194 161 141
-0.21314418 -0.31658182 1.5672367 175 149 129
-0.21157695 -0.31658182 1.5672367 176 152 130
-0.21000972 -0.31658182 1.5672367 185 162 137
-0.20844248 -0.31658182 1.5672367 190 166 142
-0.20687525 -0.31658182 1.5672367 183 162 137
-0.205308 -0.31658182 1.5672367 187 164 141
-0.20451792 -0.3177894 1.5732148 187 165 144
-0.2029447 -0.3177894 1.5732148 183 163 141
-0.20137149 -0.3177894 1.5732148 183 159 140
-0.19979829 -0.3177894 1.5732148 189 165 146
-0.19822507 -0.3177894 1.5732148 196 171 152
-0.19590458 -0.31658182 1.5672367 195 174 152
-0.19433734 -0.31658182 1.5672367 192 168 146
-0.19350542 -0.3177894 1.5732148 188 167 143
-0.1919322 -0.3177894 1.5732148 188 167 144
-0.190359 -0.3177894 1.5732148 188 166 144
-0.18878576 -0.3177894 1.5732148 186 164 143
-0.18721256 -0.3177894 1.5732148 179 159 139
-0.18563934 -0.3177894 1.5732148 186 161 142
-0.18406613 -0.3177894 1.5732148 193 169 148
-0.18249293 -0.3177894 1.5732148 186 165 145
-0.18091969 -0.3177894 1.5732148 186 167 145
-0.17934649 -0.3177894 1.5732148 189 168 146
-0.17777327 -0.3177894 1.5732148 195 172 151
-0.17553051 -0.31658182 1.5672367 196 175 152
-0.17396328 -0.31658182 1.5672367 192 171 149
-0.17239603 -0.31658182 1.5672367 196 174 152
-0.17082879 -0.31658182 1.5672367 194 170 149
-0.16926156 -0.31658182 1.5672367 193 171 149
-0.16769432 -0.31658182 1.5672367 194 172 150
-0.16612709 -0.31658182 1.5672367 196 172 149
-0.16455984 -0.31658182 1.5672367 192 170 148
-0.16361433 -0.3177894 1.5732148 196 175 153
-0.16204113 -0.3177894 1.5732148 194 171 150
-0.16046791 -0.3177894 1.5732148 199 175 153
-0.1588947 -0.3177894 1.5732148 193 173 150
-0.15732147 -0.3177894 1.5732148 192 170 148
-0.15574826 -0.3177894 1.5732148 185 164 143
-0.15417504 -0.3177894 1.5732148 195 170 148
-0.15260184 -0.3177894 1.5732148 194 173 147
-0.15045471 -0.31658182 1.5672367 198 176 154
-0.14888749 -0.31658182 1.5672367 194 175 149
-0.14732026 -0.31658182 1.5672367 195 176 151
-0.14575301 -0.31658182 1.5672367 186 166 146
-0.14418578 -0.31658182 1.5672367 179 160 140
-0.14261854 -0.31658182 1.5672367 184 165 143
-0.1410513 -0.31658182 1.5672367 188 166 145
-0.13948406 -0.31658182 1.5672367 187 166 145
-0.13791682 -0.31658182 1.5672367 177 156 136
-0.13634959 -0.31658182 1.5672367 178 157 136
-0.13529646 -0.3177894 1.5732148 182 160 139
-0.13372324 -0.3177894 1.5732148 172 156 138
-0.13215004 -0.3177894 1.5732148 175 154 136
-0.13057683 -0.3177894 1.5732148 163 144 124
-0.12900361 -0.3177894 1.5732148 160 141 118
-0.1274304 -0.3177894 1.5732148 152 134 112
-0.12585717 -0.3177894 1.5732148 129 114 97
-0.12428397 -0.3177894 1.5732148 146 128 107
-0.12271076 -0.3177894 1.5732148 134 116 101
-0.12113754 -0.3177894 1.5732148 121 106 92
-0.11910999 -0.31658182 1.5672367 110 97 86
-0.11754275 -0.31658182 1.5672367 104 94 82
-0.11553649 -0.3153834 1.561304 102 92 81
-0.11397519 -0.3153834 1.561304 90 83 75
-0.11206038 -0.31439164 1.5563942 86 79 74
-0.11050399 -0.31439164 1.5563942 72 65 60
-0.10853802 -0.31320968 1.5505431 58 50 45
-0.10698747 -0.31320968 1.5505431 63 53 48
-0.10583481 -0.31439164 1.5563942 60 48 45
-0.10388638 -0.31320968 1.5505431 60 50 45
-0.10233585 -0.31320968 1.5505431 62 51 48
-0.10040783 -0.31203663 1.5447358 63 52 50
-0.09923476 -0.31320968 1.5505431 60 49 46
-0.09731835 -0.31203663 1.5447358 65 54 50
-0.09541626 -0.31087232 1.5389719 65 52 49
-0.093877286 -0.31087232 1.5389719 65 56 53
-0.092338316 -0.31087232 1.5389719 69 60 53
-0.0904618 -0.30971667 1.5332508 70 60 53
-0.08892854 -0.30971667 1.5332508 73 63 58
-0.08707161 -0.30856955 1.527572 75 63 60
-0.085544035 -0.30856955 1.527572 73 61 58
-0.08370644 -0.30743092 1.5219352 75 64 59
-0.08193256 -0.30648845 1.5172696 74 64 59
-0.08066256 -0.30743092 1.5219352 76 65 60
-0.07832177 -0.30424997 1.5061879 79 63 60
-0.07653608 -0.3031429 1.5007075 91 79 74
-0.07503538 -0.3031429 1.5007075 90 78 73
-0.07326808 -0.3020439 1.4952669 89 76 72
-0.07151355 -0.30095285 1.4898655 73 59 55
-0.06977165 -0.29986963 1.4845031 95 83 76
-0.068533815 -0.30095285 1.4898655 92 79 74
-0.066285715 -0.29754922 1.4730159 83 69 64
-0.0648127 -0.29754922 1.4730159 83 70 65
-0.06333968 -0.29754922 1.4730159 80 67 62
-0.061646502 -0.2964903 1.4677739 83 70 66
-0.059753437 -0.294395 1.4574009 83 72 66
-0.058296036 -0.294395 1.4574009 87 75 70
-0.056838635 -0.294395 1.4574009 88 77 72
-0.05557762 -0.29543895 1.462569 81 69 64
-0.05411505 -0.29543895 1.462569 80 67 62
-0.052466433 -0.294395 1.4574009 79 66 61
-0.05082942 -0.29335836 1.4522692 98 86 81
-0.04937715 -0.29335836 1.4522692 100 86 84
-0.047924884 -0.29335836 1.4522692 117 103 101
-0.04598684 -0.29029194 1.4370887 122 107 105
-0.044549752 -0.29029194 1.4370887 119 105 102
-0.04311266 -0.29029194 1.4370887 113 99 97
-0.04167557 -0.29029194 1.4370887 105 94 91
-0.040238485 -0.29029194 1.4370887 110 97 97
-0.038801394 -0.29029194 1.4370887 113 99 98
-0.037364308 -0.29029194 1.4370887 122 107 108
-0.03592722 -0.29029194 1.4370887 112 99 100
-0.034490127 -0.29029194 1.4370887 123 108 110
-0.03305304 -0.29029194 1.4370887 116 102 103
-0.0317265 -0.29130694 1.4421135 115 101 103
-0.030284384 -0.29130694 1.4421135 120 106 107
-0.028943472 -0.29232907 1.4471736 123 110 111
-0.027496297 -0.29232907 1.4471736 135 120 121
-0.026049126 -0.29232907 1.4471736 137 122 123
-0.024688575 -0.29335836 1.4522692 132 117 120
-0.023236306 -0.29335836 1.4522692 130 119 121
-0.02178404 -0.29335836 1.4522692 135 120 123
-0.020331768 -0.29335836 1.4522692 136 119 125
-0.018946214 -0.294395 1.4574009 137 121 126
-0.017488811 -0.294395 1.4574009 141 124 128
-0.01603141 -0.294395 1.4574009 138 122 124
-0.014574009 -0.294395 1.4574009 138 122 122
-0.013163121 -0.29543895 1.462569 144 126 128
-0.011700552 -0.29543895 1.462569 145 126 128
-0.0102379825 -0.29543895 1.462569 142 126 127
-0.008806643 -0.2964903 1.4677739 138 122 123
-0.0073388694 -0.2964903 1.4677739 133 118 120
-0.0058920635 -0.29754922 1.4730159 136 121 123
-0.004419048 -0.29754922 1.4730159 138 122 125
-0.0029460317 -0.29754922 1.4730159 148 129 133
-0.0014730159 -0.29754922 1.4730159 152 133 136
0.0 -0.29879418 1.4791791 149 132 133
0.0014845032 -0.29986963 1.4845031 157 137 140
0.0029797312 -0.30095285 1.4898655 157 138 140
0.0045658057 -0.30743092 1.5219352 169 149 142
0.006245216 -0.3153834 1.561304 200 176 165
0.007982796 -0.32250494 1.5965592 193 170 159
0.009579355 -0.32250494 1.5965592 171 152 139
0.0111328205 -0.32126138 1.5904028 179 157 142
0.012723222 -0.32126138 1.5904028 183 163 145
0.014313625 -0.32126138 1.5904028 186 166 148
0.015904028 -0.32126138 1.5904028 194 173 155
0.01749443 -0.32126138 1.5904028 205 185 164
0.019084835 -0.32126138 1.5904028 214 192 171
0.020675238 -0.32126138 1.5904028 213 193 171
0.022265641 -0.32126138 1.5904028 205 185 164
0.023856042 -0.32126138 1.5904028 193 173 154
0.025544947 -0.32250494 1.5965592 209 187 166
0.027141506 -0.32250494 1.5965592 211 187 166
0.028738067 -0.32250494 1.5965592 205 182 162
0.030334624 -0.32250494 1.5965592 212 191 168
0.031931184 -0.32250494 1.5965592 219 200 176
0.033527743 -0.32250494 1.5965592 214 196 172
0.03498886 -0.32126138 1.5904028 213 192 168
0.03672086 -0.32250494 1.5965592 207 185 164
0.03831742 -0.32250494 1.5965592 211 189 167
0.03976007 -0.32126138 1.5904028 210 187 163
0.041350476 -0.32126138 1.5904028 203 179 157
0.043107096 -0.32250494 1.5965592 206 185 162
0.044531282 -0.32126138 1.5904028 197 175 155
0.045973953 -0.32023236 1.5853087 218 197 172
0.04755926 -0.32023236 1.5853087 209 187 165
0.04914457 -0.32023236 1.5853087 202 182 160
0.050535634 -0.3190062 1.5792385 187 168 149
0.05211487 -0.3190062 1.5792385 202 179 158
0.053900495 -0.32023236 1.5853087 202 180 159
0.0554858 -0.32023236 1.5853087 199 182 159
0.057071112 -0.32023236 1.5853087 210 190 167
0.05865642 -0.32023236 1.5853087 206 185 164
0.06024173 -0.32023236 1.5853087 197 178 156
0.061827037 -0.32023236 1.5853087 200 178 156
0.06316954 -0.3190062 1.5792385 204 182 161
0.06474878 -0.3190062 1.5792385 197 178 158
0.06632802 -0.3190062 1.5792385 210 187 163
0.06790726 -0.3190062 1.5792385 203 183 160
0.0694865 -0.3190062 1.5792385 182 164 146
0.07106573 -0.3190062 1.5792385 177 160 142
0.072924204 -0.32023236 1.5853087 179 159 143
0.07450951 -0.32023236 1.5853087 154 135 123
0.07609482 -0.32023236 1.5853087 161 142 125
0.077680126 -0.32023236 1.5853087 160 143 126
0.078660734 -0.3177894 1.5732148 143 123 112
0.07848757 -0.31087232 1.5389719 133 116 107
0.07889802 -0.30648845 1.5172696 124 110 103
0.078069836 -0.29754922 1.4730159 136 120 115
0.07925979 -0.2964903 1.4677739 150 132 128
0.08101588 -0.29754922 1.4730159 147 132 131
0.08190386 -0.29543895 1.462569 146 131 132
0.08336643 -0.29543895 1.462569 144 131 131
0.084829 -0.29543895 1.462569 139 126 127
0.086291574 -0.29543895 1.462569 127 115 115
0.087754145 -0.29543895 1.462569 127 114 115
0.0892167 -0.29543895 1.462569 128 112 114
0.09067927 -0.29543895 1.462569 125 110 111
0.09181626 -0.294395 1.4574009 131 117 118
0.092945226 -0.29335836 1.4522692 128 115 116
0.0943975 -0.29335836 1.4522692 132 116 119
0.09584977 -0.29335836 1.4522692 134 118 120
0.097302034 -0.29335836 1.4522692 135 121 122
0.0987543 -0.29335836 1.4522692 129 117 119
0.10020658 -0.29335836 1.4522692 131 116 119
0.10165884 -0.29335836 1.4522692 131 117 119
0.10311112 -0.29335836 1.4522692 129 115 118
0.104563385 -0.29335836 1.4522692 130 116 119
0.106015645 -0.29335836 1.4522692 127 113 116
0.10746792 -0.29335836 1.4522692 122 109 112
0.10892019 -0.29335836 1.4522692 122 108 110
0.11037246 -0.29335836 1.4522692 121 108 110
0.11182473 -0.29335836 1.4522692 125 111 112
0.113277 -0.29335836 1.4522692 116 103 104
0.11472926 -0.29335836 1.4522692 114 103 104
0.11659207 -0.294395 1.4574009 113 98 100
0.11804948 -0.294395 1.4574009 108 96 98
0.11950687 -0.294395 1.4574009 106 94 96
0.121393226 -0.29543895 1.462569 102 89 91
0.1228558 -0.29543895 1.462569 104 91 94
0.12387908 -0.294395 1.4574009 104 93 95
0.12533648 -0.294395 1.4574009 110 96 98
0.12679388 -0.294395 1.4574009 112 98 99
0.12870607 -0.29543895 1.462569 108 94 94
0.13016865 -0.29543895 1.462569 101 85 83
0.13163121 -0.29543895 1.462569 104 87 87
0.13356742 -0.2964903 1.4677739 104 88 87
0.1350352 -0.2964903 1.4677739 105 91 88
0.13699047 -0.29754922 1.4730159 102 88 87
0.1384635 -0.29754922 1.4730159 101 87 86
0.14102781 -0.29986963 1.4845031 105 91 88
0.1430271 -0.30095285 1.4898655 107 93 89
0.1450409 -0.3020439 1.4952669 98 81 72
0.14760642 -0.30424997 1.5061879 88 70 61
0.15179183 -0.30971667 1.5332508 79 59 47
0.15563942 -0.31439164 1.5563942 105 87 76
0.1588947 -0.3177894 1.5732148 128 109 96
0.16108234 -0.3190062 1.5792385 146 123 107
0.16204113 -0.3177894 1.5732148 141 120 104
0.16361433 -0.3177894 1.5732148 175 147 126
0.16518755 -0.3177894 1.5732148 178 151 129
0.16739929 -0.3190062 1.5792385 120 88 78
0.16897851 -0.3190062 1.5792385 112 56 46
0.17055775 -0.3190062 1.5792385 124 63 49
0.17213699 -0.3190062 1.5792385 134 72 58
0.17371623 -0.3190062 1.5792385 137 79 63
0.17529547 -0.3190062 1.5792385 146 96 84
0.17755456 -0.32023236 1.5853087 196 164 148
0.17913988 -0.32023236 1.5853087 204 184 161
0.18072519 -0.32023236 1.5853087 211 187 166
0.18161243 -0.3190062 1.5792385 217 193 171
0.18319167 -0.3190062 1.5792385 213 191 169
0.18477091 -0.3190062 1.5792385 217 190 170
0.18706642 -0.32023236 1.5853087 209 188 166
0.18865174 -0.32023236 1.5853087 207 184 164
0.19023705 -0.32023236 1.5853087 204 181 160
0.19182234 -0.32023236 1.5853087 206 184 163
0.19402914 -0.32126138 1.5904028 207 184 164
0.19561955 -0.32126138 1.5904028 209 185 164
0.19720994 -0.32126138 1.5904028 204 180 160
0.19816358 -0.32023236 1.5853087 208 185 164
0.19974889 -0.32023236 1.5853087 193 171 152
0.2013342 -0.32023236 1.5853087 190 168 150
0.20291951 -0.32023236 1.5853087 199 175 156
0.20450482 -0.32023236 1.5853087 208 183 162
0.20675236 -0.32126138 1.5904028 209 188 167
0.20834278 -0.32126138 1.5904028 215 190 169
0.20993318 -0.32126138 1.5904028 215 192 170
0.21152358 -0.32126138 1.5904028 207 187 166
0.21311398 -0.32126138 1.5904028 197 175 156
0.21470438 -0.32126138 1.5904028 209 188 167
0.21629478 -0.32126138 1.5904028 212 187 170
0.21718729 -0.32023236 1.5853087 204 184 162
0.2187726 -0.32023236 1.5853087 210 187 166
0.22035791 -0.32023236 1.5853087 200 176 156
0.2210934 -0.3190062 1.5792385 200 174 156
0.22267264 -0.3190062 1.5792385 201 176 158
0.22425188 -0.3190062 1.5792385 201 179 159
0.22669914 -0.32023236 1.5853087 198 176 154
-0.22482778 -0.3169447 1.561304 190 107 78
-0.22326647 -0.3169447 1.561304 192 109 79
-0.2225476 -0.31814906 1.5672367 194 110 79
-0.22098036 -0.31814906 1.5672367 184 107 75
-0.21941313 -0.31814906 1.5672367 185 115 88
-0.2178459 -0.31814906 1.5672367 191 138 115
-0.21627866 -0.31814906 1.5672367 195 161 140
-0.21471143 -0.31814906 1.5672367 194 166 148
-0.21314418 -0.31814906 1.5672367 195 172 153
-0.21157695 -0.31814906 1.5672367 196 171 148
-0.21000972 -0.31814906 1.5672367 195 173 150
-0.20844248 -0.31814906 1.5672367 190 169 147
-0.20687525 -0.31814906 1.5672367 187 163 140
-0.20609114 -0.3193626 1.5732148 189 167 144
-0.20451792 -0.3193626 1.5732148 188 165 144
-0.2029447 -0.3193626 1.5732148 185 164 142
-0.20137149 -0.3193626 1.5732148 185 161 142
-0.19979829 -0.3193626 1.5732148 186 162 143
-0.19822507 -0.3193626 1.5732148 194 169 149
-0.19665185 -0.3193626 1.5732148 193 170 150
-0.19507863 -0.3193626 1.5732148 192 168 148
-0.19277011 -0.31814906 1.5672367 188 164 144
-0.19120286 -0.31814906 1.5672367 192 168 146
-0.18963563 -0.31814906 1.5672367 192 170 151
-0.1880684 -0.31814906 1.5672367 190 171 148
-0.18650116 -0.31814906 1.5672367 174 155 135
-0.18493393 -0.31814906 1.5672367 172 150 132
-0.18336669 -0.31814906 1.5672367 171 150 131
-0.18179946 -0.31814906 1.5672367 181 159 139
-0.18023223 -0.31814906 1.5672367 188 167 145
-0.17866498 -0.31814906 1.5672367 190 169 148
-0.17709775 -0.31814906 1.5672367 191 168 149
-0.17486605 -0.3169447 1.561304 188 168 146
-0.17330475 -0.3169447 1.561304 188 168 146
-0.17174344 -0.3169447 1.561304 197 175 152
-0.17018212 -0.3169447 1.561304 195 172 150
-0.16862084 -0.3169447 1.561304 192 170 149
-0.16705953 -0.3169447 1.561304 189 167 145
-0.16549821 -0.3169447 1.561304 193 171 148
-0.16393691 -0.3169447 1.561304 193 170 150
-0.16299261 -0.31814906 1.5672367 194 171 152
-0.16142537 -0.31814906 1.5672367 194 172 152
-0.15985814 -0.31814906 1.5672367 191 170 149
-0.15829091 -0.31814906 1.5672367 192 170 151
-0.15672366 -0.31814906 1.5672367 187 167 147
-0.15515643 -0.31814906 1.5672367 190 169 148
-0.15358919 -0.31814906 1.5672367 190 165 146
-0.15202196 -0.31814906 1.5672367 189 168 143
-0.15045471 -0.31814906 1.5672367 187 166 143
-0.14888749 -0.31814906 1.5672367 195 177 150
-0.14732026 -0.31814906 1.5672367 189 169 147
-0.14575301 -0.31814906 1.5672367 176 157 139
-0.14418578 -0.31814906 1.5672367 174 155 137
-0.14261854 -0.31814906 1.5672367 190 169 147
-0.1410513 -0.31814906 1.5672367 191 169 148
-0.13948406 -0.31814906 1.5672367 183 163 141
-0.13791682 -0.31814906 1.5672367 176 155 136
-0.13634959 -0.31814906 1.5672367 182 160 139
-0.13478234 -0.31814906 1.5672367 184 164 141
-0.13321511 -0.31814906 1.5672367 175 158 140
-0.13164787 -0.31814906 1.5672367 169 151 133
-0.13008064 -0.31814906 1.5672367 169 148 127
-0.12851341 -0.31814906 1.5672367 169 150 125
-0.12694617 -0.31814906 1.5672367 166 146 120
-0.12585717 -0.3193626 1.5732148 159 139 117
-0.12428397 -0.3193626 1.5732148 165 145 121
-0.12271076 -0.3193626 1.5732148 143 124 107
-0.12113754 -0.3193626 1.5732148 129 112 97
-0.11910999 -0.31814906 1.5672367 120 105 93
-0.11754275 -0.31814906 1.5672367 117 103 90
-0.11553649 -0.3169447 1.561304 116 102 90
-0.11397519 -0.3169447 1.561304 107 95 85
-0.11206038 -0.31594804 1.5563942 102 92 83
-0.11050399 -0.31594804 1.5563942 93 85 77
-0.10894759 -0.31594804 1.5563942 81 73 66
-0.10698747 -0.31476027 1.5505431 73 62 59
-0.10583481 -0.31594804 1.5563942 67 56 53
-0.104278415 -0.31594804 1.5563942 59 47 44
-0.10233585 -0.31476027 1.5505431 54 42 39
-0.1007853 -0.31476027 1.5505431 54 43 40
-0.09923476 -0.31476027 1.5505431 53 41 38
-0.09768421 -0.31476027 1.5505431 56 44 42
-0.096133664 -0.31476027 1.5505431 59 48 44
-0.09458313 -0.31476027 1.5505431 62 50 47
-0.09268415 -0.31358135 1.5447358 63 51 44
-0.09079934 -0.31241128 1.5389719 65 54 47
-0.08926037 -0.31241128 1.5389719 65 56 49
-0.087395296 -0.3112499 1.5332508 67 56 52
-0.08586205 -0.3112499 1.5332508 75 63 60
-0.08370644 -0.30895284 1.5219352 76 64 59
-0.0821845 -0.30895284 1.5219352 73 61 57
-0.08066256 -0.30895284 1.5219352 76 63 60
-0.07832177 -0.30575612 1.5061879 77 63 59
-0.076258615 -0.3035392 1.4952669 79 66 62
-0.07503538 -0.3046436 1.5007075 83 71 67
-0.07300341 -0.30244273 1.4898655 86 72 68
-0.071772814 -0.3035392 1.4952669 78 64 60
-0.06977165 -0.30135414 1.4845031 87 73 67
-0.06804224 -0.3002734 1.4791791 93 80 74
-0.06656306 -0.3002734 1.4791791 93 80 75
-0.06458206 -0.2979581 1.4677739 84 71 63
-0.06311428 -0.2979581 1.4677739 83 69 62
-0.061866667 -0.29902223 1.4730159 81 69 63
-0.059753437 -0.2958524 1.4574009 82 71 64
-0.05809077 -0.29481065 1.4522692 84 72 66
-0.057040192 -0.29690152 1.462569 81 69 63
-0.05557762 -0.29690152 1.462569 84 71 66
-0.05411505 -0.29690152 1.462569 80 67 62
-0.052652486 -0.29690152 1.462569 79 67 61
-0.05082942 -0.29481065 1.4522692 83 71 64
-0.04937715 -0.29481065 1.4522692 96 83 77
-0.047756728 -0.29377624 1.4471736 116 101 97
-0.04598684 -0.291729 1.4370887 119 104 102
-0.044549752 -0.291729 1.4370887 112 97 95
-0.04311266 -0.291729 1.4370887 108 94 91
-0.04167557 -0.291729 1.4370887 106 93 89
-0.040238485 -0.291729 1.4370887 110 97 95
-0.038801394 -0.291729 1.4370887 112 98 98
-0.037364308 -0.291729 1.4370887 112 98 99
-0.03592722 -0.291729 1.4370887 113 100 101
-0.034610726 -0.29274905 1.4421135 123 108 110
-0.03316861 -0.29274905 1.4421135 119 105 107
-0.0317265 -0.29274905 1.4421135 123 109 110
-0.030284384 -0.29274905 1.4421135 123 109 110
