ply
format ascii 1.0
element vertex 1053
property float32 x
property float32 y
property float32 z
property uchar red
property uchar green
property uchar blue
element face 0
property list uint8 int32 vertex_indices
end_header
0.04575655 -0.061008733 1.9065229 96 98 93
0.04693981 -0.060082953 1.8775923 124 129 120
0.047873016 -0.058920637 1.8412699 129 139 128
0.049714286 -0.058920637 1.8412699 128 137 126
0.05155556 -0.058920637 1.8412699 125 133 122
0.053396825 -0.058920637 1.8412699 123 131 121
0.05503336 -0.058702253 1.8344454 115 121 112
0.056867804 -0.058702253 1.8344454 116 120 110
0.058702253 -0.058702253 1.8344454 120 122 111
0.06031315 -0.05848548 1.8276712 105 107 98
0.062371142 -0.058702253 1.8344454 102 104 94
0.06396849 -0.05848548 1.8276712 113 114 103
0.06555408 -0.058270298 1.8209468 108 112 103
0.067375034 -0.058270298 1.8209468 109 114 104
0.06919598 -0.058270298 1.8209468 122 128 116
0.070704766 -0.058014166 1.8129426 116 122 115
0.07251771 -0.058014166 1.8129426 124 131 123
0.07433065 -0.058014166 1.8129426 130 136 128
0.0758657 -0.057802435 1.8063262 120 127 119
0.07767203 -0.057802435 1.8063262 129 137 127
0.079478346 -0.057802435 1.8063262 126 134 125
0.08128467 -0.057802435 1.8063262 128 133 125
0.08278885 -0.057592243 1.7997576 135 141 133
0.08458861 -0.057592243 1.7997576 131 138 131
0.08670366 -0.057802435 1.8063262 127 133 126
0.08850998 -0.057802435 1.8063262 137 144 137
0.09031631 -0.057802435 1.8063262 132 138 130
0.09212264 -0.057802435 1.8063262 130 136 129
0.09392896 -0.057802435 1.8063262 159 167 159
0.09538715 -0.057592243 1.7997576 145 155 147
0.097186916 -0.057592243 1.7997576 163 177 168
0.09898667 -0.057592243 1.7997576 168 180 171
0.10115427 -0.057802435 1.8063262 156 167 159
0.102960594 -0.057802435 1.8063262 184 197 188
0.10476691 -0.057802435 1.8063262 160 174 165
0.10696361 -0.058014166 1.8129426 189 201 191
0.108776554 -0.058014166 1.8129426 172 180 171
0.1105895 -0.058014166 1.8129426 180 190 182
0.11240245 -0.058014166 1.8129426 194 206 197
0.11471965 -0.058270298 1.8209468 185 198 189
0.11602833 -0.058014166 1.8129426 200 210 201
0.11836154 -0.058270298 1.8209468 193 201 193
0.1206263 -0.05848548 1.8276712 190 200 194
0.12245397 -0.05848548 1.8276712 173 181 174
0.12428164 -0.05848548 1.8276712 135 141 134
0.12610932 -0.05848548 1.8276712 139 143 135
0.12793697 -0.05848548 1.8276712 160 165 157
0.13024563 -0.058702253 1.8344454 181 185 179
0.13257143 -0.058920637 1.8412699 186 191 185
0.13491462 -0.059140656 1.8481455 187 193 186
0.13779183 -0.059585657 1.8620517 193 200 180
0.14683545 -0.062649794 1.957806 203 196 173
0.16837482 -0.07089466 2.2154582 210 187 156
-0.21752945 -0.07107397 2.1537569 167 159 125
-0.19439645 -0.064150825 1.9439645 141 145 131
-0.18434313 -0.06144771 1.8620517 137 146 130
-0.17977566 -0.060536698 1.8344454 130 137 120
-0.17994203 -0.061217394 1.8550725 129 136 121
-0.17742197 -0.0609888 1.8481455 129 136 123
-0.17557383 -0.0609888 1.8481455 128 134 120
-0.17307936 -0.060761906 1.8412699 131 138 125
-0.1712381 -0.060761906 1.8412699 130 134 120
-0.16876897 -0.060536698 1.8344454 120 127 117
-0.16631807 -0.06031315 1.8276712 133 141 129
-0.1644904 -0.06031315 1.8276712 121 128 117
-0.16266273 -0.06031315 1.8276712 129 137 123
-0.16083507 -0.06031315 1.8276712 132 140 125
-0.15842238 -0.060091242 1.8209468 117 124 110
-0.15591307 -0.059827108 1.8129426 115 122 110
-0.15478048 -0.060091242 1.8209468 123 132 118
-0.15228719 -0.059827108 1.8129426 117 125 112
-0.15047425 -0.059827108 1.8129426 124 135 125
-0.1486613 -0.059827108 1.8129426 125 135 124
-0.14631243 -0.059608765 1.8063262 120 125 114
-0.14450608 -0.059608765 1.8063262 136 143 131
-0.14322247 -0.059827108 1.8129426 140 146 132
-0.14089343 -0.059608765 1.8063262 116 120 108
-0.13908711 -0.059608765 1.8063262 142 148 135
-0.13728079 -0.059608765 1.8063262 128 135 124
-0.1359707 -0.059827108 1.8129426 107 111 103
-0.13415776 -0.059827108 1.8129426 143 147 134
-0.13234481 -0.059827108 1.8129426 128 132 119
-0.13053188 -0.059827108 1.8129426 117 117 104
-0.12871893 -0.059827108 1.8129426 140 144 127
-0.12690598 -0.059827108 1.8129426 127 129 118
-0.12509304 -0.059827108 1.8129426 114 114 104
-0.1232801 -0.059827108 1.8129426 125 122 113
-0.12146716 -0.059827108 1.8129426 122 121 112
-0.120182484 -0.060091242 1.8209468 118 119 107
-0.11836154 -0.060091242 1.8209468 136 135 119
-0.11697096 -0.06031315 1.8276712 128 129 114
-0.11514328 -0.06031315 1.8276712 134 133 116
-0.11331561 -0.06031315 1.8276712 119 120 107
-0.11148794 -0.06031315 1.8276712 106 106 98
-0.11006672 -0.060536698 1.8344454 110 109 101
-0.108232275 -0.060536698 1.8344454 100 100 92
-0.10679365 -0.060761906 1.8412699 90 91 83
-0.10495239 -0.060761906 1.8412699 78 80 72
-0.10349615 -0.0609888 1.8481455 43 48 38
-0.101648 -0.0609888 1.8481455 45 49 39
-0.10017391 -0.061217394 1.8550725 45 50 40
-0.098688744 -0.06144771 1.8620517 54 59 50
-0.09682669 -0.06144771 1.8620517 56 58 50
-0.095323265 -0.061679758 1.8690836 56 62 52
-0.09310258 -0.06144771 1.8620517 78 82 73
-0.09124053 -0.06144771 1.8620517 84 87 78
-0.089378476 -0.06144771 1.8620517 81 84 75
-0.087516434 -0.06144771 1.8620517 78 80 71
-0.085977845 -0.061679758 1.8690836 94 99 90
-0.08410876 -0.061679758 1.8690836 106 113 103
-0.08223968 -0.061679758 1.8690836 113 121 111
-0.08073647 -0.06196055 1.8775923 113 121 112
-0.07885888 -0.06196055 1.8775923 114 122 113
-0.07663243 -0.061679758 1.8690836 114 122 113
-0.07510369 -0.06196055 1.8775923 105 110 101
-0.073226094 -0.06196055 1.8775923 118 123 112
-0.07134851 -0.06196055 1.8775923 114 119 107
-0.06947092 -0.06196055 1.8775923 108 110 101
-0.06759332 -0.06196055 1.8775923 110 112 102
-0.06596598 -0.0621965 1.8847424 116 117 107
-0.06408124 -0.0621965 1.8847424 107 107 94
-0.0621965 -0.0621965 1.8847424 112 112 98
-0.060311757 -0.0621965 1.8847424 97 95 89
-0.058427013 -0.0621965 1.8847424 105 105 97
-0.05654227 -0.0621965 1.8847424 99 100 93
-0.054866463 -0.062434252 1.891947 91 94 85
-0.05297452 -0.062434252 1.891947 90 92 82
-0.050888043 -0.0621965 1.8847424 93 96 85
-0.049003303 -0.0621965 1.8847424 92 93 84
-0.047298677 -0.062434252 1.891947 97 98 90
-0.04558097 -0.06267383 1.899207 97 97 91
-0.043681763 -0.06267383 1.899207 97 99 90
-0.041782554 -0.06267383 1.899207 98 100 91
-0.039883345 -0.06267383 1.899207 96 99 90
-0.03798414 -0.06267383 1.899207 110 117 107
-0.036223933 -0.06291526 1.9065229 108 115 107
-0.034185726 -0.06267383 1.899207 112 118 112
-0.032163102 -0.062434252 1.891947 109 117 110
-0.030504366 -0.06291526 1.9065229 114 122 115
-0.028597843 -0.06291526 1.9065229 111 119 112
-0.026691321 -0.06291526 1.9065229 115 122 115
-0.024689691 -0.06267383 1.899207 114 123 115
-0.022878274 -0.06291526 1.9065229 117 126 117
-0.020971753 -0.06291526 1.9065229 112 121 113
-0.01906523 -0.06291526 1.9065229 120 132 121
-0.017158706 -0.06291526 1.9065229 108 118 109
-0.015252183 -0.06291526 1.9065229 118 131 121
-0.013345661 -0.06291526 1.9065229 113 124 113
-0.011439137 -0.06291526 1.9065229 108 114 106
-0.009532615 -0.06291526 1.9065229 120 127 118
-0.0076260916 -0.06291526 1.9065229 113 114 107
-0.005741686 -0.06315855 1.9138954 105 105 96
-0.0038277907 -0.06315855 1.9138954 114 115 104
-0.0019138954 -0.06315855 1.9138954 120 121 110
0.0 -0.06315855 1.9138954 107 107 100
0.0019138954 -0.06315855 1.9138954 115 116 107
0.0038277907 -0.06315855 1.9138954 100 101 95
0.005741686 -0.06315855 1.9138954 75 76 70
0.0076853004 -0.063403726 1.9213251 68 70 65
0.009606626 -0.063403726 1.9213251 73 74 69
0.01152795 -0.063403726 1.9213251 72 76 70
0.013449276 -0.063403726 1.9213251 69 74 69
0.015370601 -0.063403726 1.9213251 73 76 71
0.017291926 -0.063403726 1.9213251 73 75 71
0.019213252 -0.063403726 1.9213251 77 80 74
0.021134578 -0.063403726 1.9213251 80 83 75
0.0230559 -0.063403726 1.9213251 87 89 82
0.024977226 -0.063403726 1.9213251 89 92 84
0.026898552 -0.063403726 1.9213251 93 96 87
0.028819876 -0.063403726 1.9213251 98 102 92
0.030622326 -0.06315855 1.9138954 93 96 88
0.032662526 -0.063403726 1.9213251 94 96 89
0.03458385 -0.063403726 1.9213251 96 100 93
0.036364015 -0.06315855 1.9138954 89 90 82
0.03827791 -0.06315855 1.9138954 89 90 82
0.040191803 -0.06315855 1.9138954 90 92 85
0.042269155 -0.063403726 1.9213251 87 89 82
0.044190474 -0.063403726 1.9213251 93 93 85
0.04558097 -0.06267383 1.899207 99 100 94
0.04693981 -0.06196055 1.8775923 123 126 117
0.047873016 -0.060761906 1.8412699 128 137 126
0.049714286 -0.060761906 1.8412699 127 136 126
0.05155556 -0.060761906 1.8412699 126 136 126
0.053198915 -0.060536698 1.8344454 131 141 129
0.05503336 -0.060536698 1.8344454 120 127 117
0.056867804 -0.060536698 1.8344454 105 109 102
0.05848548 -0.06031315 1.8276712 114 117 110
0.060536698 -0.060536698 1.8344454 112 115 109
0.06214082 -0.06031315 1.8276712 111 115 108
0.06373314 -0.060091242 1.8209468 119 124 114
0.06555408 -0.060091242 1.8209468 117 124 115
0.067375034 -0.060091242 1.8209468 114 119 112
0.06889182 -0.059827108 1.8129426 126 133 124
0.070704766 -0.059827108 1.8129426 124 132 124
0.07251771 -0.059827108 1.8129426 116 124 117
0.07433065 -0.059827108 1.8129426 128 137 129
0.0758657 -0.059608765 1.8063262 127 135 127
0.07767203 -0.059608765 1.8063262 134 142 134
0.079478346 -0.059608765 1.8063262 133 142 134
0.08128467 -0.059608765 1.8063262 122 130 123
0.08278885 -0.059392 1.7997576 131 139 133
0.08458861 -0.059392 1.7997576 135 146 138
0.08670366 -0.059608765 1.8063262 126 132 126
0.08850998 -0.059608765 1.8063262 135 143 136
0.089987874 -0.059392 1.7997576 154 164 157
0.09212264 -0.059608765 1.8063262 146 153 146
0.09358739 -0.059392 1.7997576 166 174 165
0.09538715 -0.059392 1.7997576 179 191 184
0.097186916 -0.059392 1.7997576 162 172 166
0.09898667 -0.059392 1.7997576 197 213 203
0.100786425 -0.059392 1.7997576 168 182 174
0.102960594 -0.059608765 1.8063262 185 201 194
0.10476691 -0.059608765 1.8063262 193 206 199
0.10657324 -0.059608765 1.8063262 190 203 194
0.10837957 -0.059608765 1.8063262 196 210 200
0.1105895 -0.059827108 1.8129426 173 184 176
0.11240245 -0.059827108 1.8129426 201 211 202
0.11471965 -0.060091242 1.8209468 179 189 180
0.11602833 -0.059827108 1.8129426 190 199 192
0.11784127 -0.059827108 1.8129426 176 185 179
0.120182484 -0.060091242 1.8209468 196 202 195
0.12245397 -0.06031315 1.8276712 177 184 178
0.12428164 -0.06031315 1.8276712 174 181 172
0.12610932 -0.06031315 1.8276712 149 151 143
0.12793697 -0.06031315 1.8276712 170 175 166
0.12976465 -0.06031315 1.8276712 188 196 187
0.13257143 -0.060761906 1.8412699 188 198 190
0.13491462 -0.0609888 1.8481455 197 205 197
0.13676277 -0.0609888 1.8481455 199 204 192
0.14081943 -0.06196055 1.8775923 202 202 183
0.16227323 -0.070460744 2.135174 209 187 157
-0.2309994 -0.07776218 2.2871227 177 159 127
-0.19655812 -0.066829756 1.9655812 140 144 131
-0.18434313 -0.06330976 1.8620517 139 147 131
-0.17977566 -0.062371142 1.8344454 133 141 125
-0.17994203 -0.063072465 1.8550725 129 136 123
-0.17742197 -0.062836945 1.8481455 134 140 127
-0.17492063 -0.062603176 1.8412699 126 133 120
-0.17307936 -0.062603176 1.8412699 134 142 128
-0.1712381 -0.062603176 1.8412699 132 140 124
-0.16876897 -0.062371142 1.8344454 127 135 124
-0.16631807 -0.06214082 1.8276712 135 143 130
-0.1644904 -0.06214082 1.8276712 119 125 114
-0.16266273 -0.06214082 1.8276712 118 126 114
-0.16024332 -0.061912194 1.8209468 125 133 119
-0.15842238 -0.061912194 1.8209468 111 118 103
-0.15660143 -0.061912194 1.8209468 108 113 104
-0.15478048 -0.061912194 1.8209468 127 135 123
-0.15228719 -0.06164005 1.8129426 124 131 118
-0.15047425 -0.06164005 1.8129426 108 114 102
-0.14811875 -0.061415087 1.8063262 134 142 131
-0.14631243 -0.061415087 1.8063262 129 136 125
-0.14450608 -0.061415087 1.8063262 128 136 122
-0.14269976 -0.061415087 1.8063262 141 145 131
-0.14089343 -0.061415087 1.8063262 123 126 114
-0.13858134 -0.061191756 1.7997576 140 149 134
-0.13728079 -0.061415087 1.8063262 129 135 124
-0.13547446 -0.061415087 1.8063262 110 113 105
-0.13366814 -0.061415087 1.8063262 137 143 130
-0.13234481 -0.06164005 1.8129426 120 125 115
-0.13053188 -0.06164005 1.8129426 110 113 102
-0.12871893 -0.06164005 1.8129426 128 133 119
-0.12644283 -0.061415087 1.8063262 121 122 106
-0.12463651 -0.061415087 1.8063262 113 114 100
-0.1232801 -0.06164005 1.8129426 126 128 113
-0.12146716 -0.06164005 1.8129426 121 122 109
-0.120182484 -0.061912194 1.8209468 117 117 105
-0.11836154 -0.061912194 1.8209468 125 127 112
-0.116540596 -0.061912194 1.8209468 110 111 98
-0.11471965 -0.061912194 1.8209468 125 125 108
-0.11289871 -0.061912194 1.8209468 127 127 113
-0.111077756 -0.061912194 1.8209468 118 118 108
-0.11006672 -0.062371142 1.8344454 130 129 119
-0.108232275 -0.062371142 1.8344454 111 111 103
-0.10679365 -0.062603176 1.8412699 104 105 97
-0.10495239 -0.062603176 1.8412699 80 81 74
-0.10311112 -0.062603176 1.8412699 68 69 61
-0.10126984 -0.062603176 1.8412699 57 61 52
-0.10017391 -0.063072465 1.8550725 59 63 54
-0.09831884 -0.063072465 1.8550725 60 64 55
-0.09646377 -0.063072465 1.8550725 65 68 58
-0.095323265 -0.06354884 1.8690836 68 71 61
-0.09310258 -0.06330976 1.8620517 71 74 63
-0.09089855 -0.063072465 1.8550725 85 89 78
-0.08904348 -0.063072465 1.8550725 78 81 73
-0.087516434 -0.06330976 1.8620517 77 79 71
-0.085977845 -0.06354884 1.8690836 89 94 84
-0.08410876 -0.06354884 1.8690836 105 112 101
-0.08223968 -0.06354884 1.8690836 109 117 107
-0.08073647 -0.06383814 1.8775923 103 111 102
-0.07885888 -0.06383814 1.8775923 117 126 117
-0.07663243 -0.06354884 1.8690836 115 123 113
-0.07510369 -0.06383814 1.8775923 106 112 103
-0.073226094 -0.06383814 1.8775923 119 124 115
-0.07134851 -0.06383814 1.8775923 113 116 108
-0.06947092 -0.06383814 1.8775923 110 112 105
-0.06759332 -0.06383814 1.8775923 122 123 111
-0.06596598 -0.06408124 1.8847424 111 113 100
-0.06408124 -0.06408124 1.8847424 107 107 94
-0.0621965 -0.06408124 1.8847424 107 109 97
-0.060311757 -0.06408124 1.8847424 103 103 96
-0.058427013 -0.06408124 1.8847424 104 104 95
-0.05654227 -0.06408124 1.8847424 96 97 91
-0.054866463 -0.064326204 1.891947 91 94 87
-0.05297452 -0.064326204 1.891947 88 89 80
-0.050888043 -0.06408124 1.8847424 93 95 87
-0.049003303 -0.06408124 1.8847424 91 93 86
-0.047298677 -0.064326204 1.891947 94 97 88
-0.04558097 -0.064573035 1.899207 95 96 88
-0.043681763 -0.064573035 1.899207 98 99 89
-0.041782554 -0.064573035 1.899207 98 99 90
-0.039883345 -0.064573035 1.899207 95 98 89
-0.03798414 -0.064573035 1.899207 108 114 103
-0.036223933 -0.06482178 1.9065229 107 113 104
-0.034185726 -0.064573035 1.899207 114 121 111
-0.032286517 -0.064573035 1.899207 108 115 110
-0.030504366 -0.06482178 1.9065229 114 121 115
-0.028597843 -0.06482178 1.9065229 109 117 110
-0.026691321 -0.06482178 1.9065229 119 126 118
-0.024689691 -0.064573035 1.899207 114 123 116
-0.022878274 -0.06482178 1.9065229 121 131 125
-0.020971753 -0.06482178 1.9065229 117 126 121
-0.01906523 -0.06482178 1.9065229 119 128 121
-0.017158706 -0.06482178 1.9065229 115 125 117
-0.015252183 -0.06482178 1.9065229 121 130 122
-0.013345661 -0.06482178 1.9065229 117 126 117
-0.011439137 -0.06482178 1.9065229 112 120 111
-0.009532615 -0.06482178 1.9065229 122 129 120
-0.0076260916 -0.06482178 1.9065229 114 118 108
-0.005741686 -0.06507244 1.9138954 105 106 97
-0.0038277907 -0.06507244 1.9138954 116 118 106
-0.0019138954 -0.06507244 1.9138954 119 119 108
0.0 -0.06507244 1.9138954 105 106 97
0.0019138954 -0.06507244 1.9138954 117 119 110
0.0038277907 -0.06507244 1.9138954 97 98 92
0.005741686 -0.06507244 1.9138954 73 76 68
0.0076853004 -0.06532505 1.9213251 70 74 65
0.009606626 -0.06532505 1.9213251 70 74 68
0.01152795 -0.06532505 1.9213251 71 75 70
0.013449276 -0.06532505 1.9213251 70 74 69
0.015370601 -0.06532505 1.9213251 73 77 71
0.017291926 -0.06532505 1.9213251 73 77 72
0.019213252 -0.06532505 1.9213251 80 82 77
0.021134578 -0.06532505 1.9213251 80 82 76
0.0230559 -0.06532505 1.9213251 85 87 81
0.024977226 -0.06532505 1.9213251 92 94 88
0.027003378 -0.06557964 1.9288127 91 94 84
0.028932191 -0.06557964 1.9288127 98 101 90
0.030741202 -0.06532505 1.9213251 97 102 91
0.03253622 -0.06507244 1.9138954 91 95 87
0.034450114 -0.06507244 1.9138954 95 97 92
0.036505178 -0.06532505 1.9213251 93 95 88
0.038426504 -0.06532505 1.9213251 91 91 82
0.04034783 -0.06532505 1.9213251 92 93 84
0.04243388 -0.06557964 1.9288127 89 90 82
0.044190474 -0.06532505 1.9213251 95 94 86
0.04558097 -0.064573035 1.899207 102 102 96
0.04693981 -0.06383814 1.8775923 118 123 114
0.048051782 -0.062836945 1.8481455 124 136 125
0.049530026 -0.062371142 1.8344454 127 138 126
0.05136447 -0.062371142 1.8344454 117 129 119
0.053396825 -0.062603176 1.8412699 120 127 118
0.05503336 -0.062371142 1.8344454 119 125 115
0.056867804 -0.062371142 1.8344454 116 120 112
0.058702253 -0.062371142 1.8344454 122 125 117
0.06031315 -0.06214082 1.8276712 122 127 118
0.06214082 -0.06214082 1.8276712 114 117 110
0.06373314 -0.061912194 1.8209468 119 122 113
0.06555408 -0.061912194 1.8209468 125 132 123
0.06707888 -0.06164005 1.8129426 115 122 114
0.06889182 -0.06164005 1.8129426 125 133 124
0.070704766 -0.06164005 1.8129426 130 138 129
0.07251771 -0.06164005 1.8129426 124 132 125
0.074059375 -0.061415087 1.8063262 132 140 132
0.0758657 -0.061415087 1.8063262 130 139 132
0.07767203 -0.061415087 1.8063262 123 131 124
0.07918933 -0.061191756 1.7997576 133 142 135
0.08098909 -0.061191756 1.7997576 128 140 133
0.08278885 -0.061191756 1.7997576 123 133 127
0.08458861 -0.061191756 1.7997576 136 145 137
0.086388364 -0.061191756 1.7997576 144 153 145
0.08818813 -0.061191756 1.7997576 142 152 145
0.089987874 -0.061191756 1.7997576 167 176 169
0.09178764 -0.061191756 1.7997576 159 170 164
0.09358739 -0.061191756 1.7997576 156 167 159
0.09538715 -0.061191756 1.7997576 197 210 201
0.097186916 -0.061191756 1.7997576 182 194 185
0.09898667 -0.061191756 1.7997576 198 211 202
0.100786425 -0.061191756 1.7997576 195 208 199
0.10258618 -0.061191756 1.7997576 186 199 191
0.10476691 -0.061415087 1.8063262 204 215 208
0.10657324 -0.061415087 1.8063262 181 193 186
0.10837957 -0.061415087 1.8063262 201 212 204
0.1101859 -0.061415087 1.8063262 196 209 200
0.11240245 -0.06164005 1.8129426 199 209 200
0.11421539 -0.06164005 1.8129426 207 214 207
0.11602833 -0.06164005 1.8129426 203 212 205
0.11784127 -0.06164005 1.8129426 205 212 205
0.119654216 -0.06164005 1.8129426 200 207 198
0.122003436 -0.061912194 1.8209468 196 204 194
0.12428164 -0.06214082 1.8276712 181 189 178
0.12610932 -0.06214082 1.8276712 156 160 151
0.12793697 -0.06214082 1.8276712 148 151 143
0.12976465 -0.06214082 1.8276712 171 176 168
0.13208006 -0.062371142 1.8344454 185 190 183
0.1344127 -0.062603176 1.8412699 185 191 185
0.13676277 -0.062836945 1.8481455 190 194 187
0.13861091 -0.062836945 1.8481455 200 200 184
0.15659839 -0.070057176 2.0605052 211 195 162
-0.19973098 -0.06990584 1.9973097 143 147 127
-0.18434313 -0.065171815 1.8620517 138 145 129
-0.17977566 -0.06420559 1.8344454 138 146 129
-0.17994203 -0.06492753 1.8550725 127 134 119
-0.1767619 -0.064444445 1.8412699 136 144 131
-0.17492063 -0.064444445 1.8412699 134 142 129
-0.17307936 -0.064444445 1.8412699 132 140 126
-0.17060342 -0.06420559 1.8344454 133 141 126
-0.16876897 -0.06420559 1.8344454 126 135 123
-0.16631807 -0.06396849 1.8276712 121 128 116
-0.1638852 -0.06373314 1.8209468 127 133 122
-0.16206427 -0.06373314 1.8209468 112 118 107
-0.16024332 -0.06373314 1.8209468 109 116 106
-0.15842238 -0.06373314 1.8209468 120 130 113
-0.15591307 -0.06345299 1.8129426 109 116 105
-0.15410013 -0.06345299 1.8129426 109 116 105
-0.15228719 -0.06345299 1.8129426 125 134 120
-0.14992507 -0.06322142 1.8063262 118 124 111
-0.14811875 -0.06322142 1.8063262 131 137 126
-0.14631243 -0.06322142 1.8063262 138 144 134
-0.14450608 -0.06322142 1.8063262 136 143 131
-0.14218085 -0.062991515 1.7997576 142 147 132
-0.14089343 -0.06322142 1.8063262 130 135 122
-0.13908711 -0.06322142 1.8063262 135 142 128
-0.13728079 -0.06322142 1.8063262 124 126 115
-0.13547446 -0.06322142 1.8063262 107 110 101
-0.13366814 -0.06322142 1.8063262 136 140 128
-0.13186182 -0.06322142 1.8063262 119 120 112
-0.13005549 -0.06322142 1.8063262 113 113 102
-0.12824915 -0.06322142 1.8063262 124 126 113
-0.12644283 -0.06322142 1.8063262 113 113 100
-0.12463651 -0.06322142 1.8063262 109 109 97
-0.122830175 -0.06322142 1.8063262 121 120 107
-0.12102385 -0.06322142 1.8063262 107 107 96
-0.119654216 -0.06345299 1.8129426 115 114 102
-0.11784127 -0.06345299 1.8129426 118 118 104
-0.11602833 -0.06345299 1.8129426 111 110 97
-0.11471965 -0.06373314 1.8209468 126 125 109
-0.11289871 -0.06373314 1.8209468 113 113 101
-0.1105895 -0.06345299 1.8129426 114 113 102
-0.109256804 -0.06373314 1.8209468 125 124 113
-0.107832596 -0.06396849 1.8276712 112 111 101
-0.10639783 -0.06420559 1.8344454 125 125 114
-0.10495239 -0.064444445 1.8412699 119 118 109
-0.10349615 -0.06468509 1.8481455 126 125 114
-0.101648 -0.06468509 1.8481455 109 110 101
-0.10017391 -0.06492753 1.8550725 97 99 91
-0.09795171 -0.06468509 1.8481455 89 91 82
-0.09646377 -0.06492753 1.8550725 91 93 84
-0.09496464 -0.065171815 1.8620517 91 93 83
-0.09310258 -0.065171815 1.8620517 86 88 77
-0.09124053 -0.065171815 1.8620517 82 83 73
-0.08904348 -0.06492753 1.8550725 81 83 74
-0.08718841 -0.06492753 1.8550725 79 80 71
-0.085977845 -0.06541793 1.8690836 84 87 79
-0.08410876 -0.06541793 1.8690836 106 111 100
-0.08223968 -0.06541793 1.8690836 108 115 105
-0.0803706 -0.06541793 1.8690836 107 116 107
-0.07885888 -0.06571573 1.8775923 119 130 120
-0.07663243 -0.06541793 1.8690836 106 113 104
-0.07510369 -0.06571573 1.8775923 115 121 111
-0.073226094 -0.06571573 1.8775923 121 125 117
-0.07134851 -0.06571573 1.8775923 110 115 107
-0.06947092 -0.06571573 1.8775923 108 111 102
-0.06759332 -0.06571573 1.8775923 121 123 110
-0.06596598 -0.06596598 1.8847424 108 111 99
-0.06408124 -0.06596598 1.8847424 108 110 97
-0.0621965 -0.06596598 1.8847424 109 111 100
-0.060311757 -0.06596598 1.8847424 102 103 94
-0.058427013 -0.06596598 1.8847424 106 105 96
-0.05654227 -0.06596598 1.8847424 100 101 95
-0.054866463 -0.066218145 1.891947 94 96 87
-0.05297452 -0.066218145 1.891947 89 91 79
-0.050888043 -0.06596598 1.8847424 93 95 86
-0.049003303 -0.06596598 1.8847424 92 95 87
-0.047298677 -0.066218145 1.891947 96 99 90
-0.04558097 -0.06647225 1.899207 94 96 87
-0.043681763 -0.06647225 1.899207 100 101 92
-0.041782554 -0.06647225 1.899207 101 103 93
-0.039883345 -0.06647225 1.899207 96 101 92
-0.03798414 -0.06647225 1.899207 107 113 102
-0.036223933 -0.0667283 1.9065229 108 113 103
-0.034185726 -0.06647225 1.899207 116 123 113
-0.032286517 -0.06647225 1.899207 110 116 113
-0.030504366 -0.0667283 1.9065229 116 124 118
-0.028708432 -0.06698634 1.9138954 113 122 114
-0.026691321 -0.0667283 1.9065229 119 125 116
-0.024784798 -0.0667283 1.9065229 115 123 115
-0.022878274 -0.0667283 1.9065229 117 127 121
-0.020971753 -0.0667283 1.9065229 114 122 118
-0.01906523 -0.0667283 1.9065229 120 129 122
-0.017158706 -0.0667283 1.9065229 111 121 112
-0.015252183 -0.0667283 1.9065229 121 132 123
-0.013345661 -0.0667283 1.9065229 118 127 117
-0.011439137 -0.0667283 1.9065229 106 113 104
-0.009532615 -0.0667283 1.9065229 117 124 116
-0.0076260916 -0.0667283 1.9065229 116 120 111
-0.005741686 -0.06698634 1.9138954 105 106 97
-0.0038277907 -0.06698634 1.9138954 111 112 101
-0.0019138954 -0.06698634 1.9138954 118 118 108
0.0 -0.06698634 1.9138954 105 106 97
0.0019138954 -0.06698634 1.9138954 117 120 110
0.0038277907 -0.06698634 1.9138954 89 91 84
0.005741686 -0.06698634 1.9138954 71 74 66
0.0076853004 -0.06724638 1.9213251 72 75 69
0.009606626 -0.06724638 1.9213251 69 72 66
0.01152795 -0.06724638 1.9213251 72 77 72
0.013449276 -0.06724638 1.9213251 72 76 71
0.015370601 -0.06724638 1.9213251 74 79 73
0.017291926 -0.06724638 1.9213251 74 78 72
0.019213252 -0.06724638 1.9213251 81 83 76
0.021134578 -0.06724638 1.9213251 83 84 78
0.0230559 -0.06724638 1.9213251 84 86 80
0.024977226 -0.06724638 1.9213251 91 93 87
0.026898552 -0.06724638 1.9213251 93 95 87
0.028819876 -0.06724638 1.9213251 96 98 88
0.030741202 -0.06724638 1.9213251 98 103 93
0.032662526 -0.06724638 1.9213251 94 97 89
0.03458385 -0.06724638 1.9213251 92 94 88
0.036505178 -0.06724638 1.9213251 95 97 91
0.038426504 -0.06724638 1.9213251 91 93 85
0.04034783 -0.06724638 1.9213251 87 88 80
0.042269155 -0.06724638 1.9213251 92 93 85
0.044190474 -0.06724638 1.9213251 95 94 86
0.04575655 -0.0667283 1.9065229 103 101 96
0.04693981 -0.06571573 1.8775923 118 119 112
0.048051782 -0.06468509 1.8481455 125 133 123
0.049530026 -0.06420559 1.8344454 125 136 124
0.05136447 -0.06420559 1.8344454 123 134 122
0.053198915 -0.06420559 1.8344454 121 128 120
0.05503336 -0.06420559 1.8344454 127 136 125
0.056867804 -0.06420559 1.8344454 119 124 117
0.05848548 -0.06396849 1.8276712 109 114 107
0.06031315 -0.06396849 1.8276712 120 126 118
0.06214082 -0.06396849 1.8276712 122 127 119
0.06373314 -0.06373314 1.8209468 115 118 109
0.06555408 -0.06373314 1.8209468 125 133 124
0.06707888 -0.06345299 1.8129426 124 132 123
0.06889182 -0.06345299 1.8129426 125 132 124
0.070704766 -0.06345299 1.8129426 130 138 131
0.07225304 -0.06322142 1.8063262 124 133 123
0.074059375 -0.06322142 1.8063262 122 130 120
0.0758657 -0.06322142 1.8063262 133 141 131
0.07738958 -0.062991515 1.7997576 126 133 124
0.07918933 -0.062991515 1.7997576 126 134 126
0.08098909 -0.062991515 1.7997576 133 142 135
0.08278885 -0.062991515 1.7997576 131 139 133
0.08458861 -0.062991515 1.7997576 142 151 143
0.086388364 -0.062991515 1.7997576 159 168 160
0.08818813 -0.062991515 1.7997576 148 156 150
0.089987874 -0.062991515 1.7997576 161 172 164
0.09178764 -0.062991515 1.7997576 173 184 176
0.09324831 -0.06276329 1.7932367 158 168 162
0.09504155 -0.06276329 1.7932367 186 197 190
0.096834786 -0.06276329 1.7932367 184 196 189
0.09898667 -0.062991515 1.7997576 176 189 182
0.10042126 -0.06276329 1.7932367 204 214 206
0.10258618 -0.062991515 1.7997576 185 199 191
0.10476691 -0.06322142 1.8063262 197 205 199
0.10657324 -0.06322142 1.8063262 200 210 202
0.10837957 -0.06322142 1.8063262 185 192 186
0.1101859 -0.06322142 1.8063262 204 212 204
0.11199222 -0.06322142 1.8063262 179 188 182
0.11421539 -0.06345299 1.8129426 195 201 194
0.11602833 -0.06345299 1.8129426 179 188 182
0.11784127 -0.06345299 1.8129426 195 204 197
0.119654216 -0.06345299 1.8129426 169 174 167
0.12146716 -0.06345299 1.8129426 162 167 158
0.12382439 -0.06373314 1.8209468 165 172 161
0.12610932 -0.06396849 1.8276712 172 175 163
0.12793697 -0.06396849 1.8276712 174 176 165
0.12976465 -0.06396849 1.8276712 174 180 171
0.13159233 -0.06396849 1.8276712 191 194 185
0.1339145 -0.06420559 1.8344454 183 189 174
0.13625397 -0.064444445 1.8412699 194 200 195
0.13861091 -0.06468509 1.8481455 188 196 187
0.14433974 -0.06647225 1.899207 196 205 182
0.16714855 -0.07597662 2.1707604 217 178 152
-0.20367627 -0.07332346 2.0367627 142 148 132
-0.18503928 -0.06728701 1.8690836 139 146 129
-0.18044445 -0.066285715 1.8412699 141 147 131
-0.17927012 -0.06653323 1.8481455 131 138 125
-0.17742197 -0.06653323 1.8481455 136 142 129
-0.17492063 -0.066285715 1.8412699 142 150 137
-0.17243786 -0.06604003 1.8344454 133 140 128
-0.17060342 -0.06604003 1.8344454 132 138 125
-0.16814575 -0.06579617 1.8276712 137 143 129
-0.16570616 -0.06555408 1.8209468 115 121 109
-0.1638852 -0.06555408 1.8209468 124 131 120
-0.16206427 -0.06555408 1.8209468 115 122 111
-0.15953895 -0.06526594 1.8129426 105 111 103
-0.15772602 -0.06526594 1.8129426 117 124 111
-0.15591307 -0.06526594 1.8129426 117 126 112
-0.15410013 -0.06526594 1.8129426 113 122 110
-0.1517314 -0.06502774 1.8063262 128 137 124
-0.14992507 -0.06502774 1.8063262 131 140 127
-0.14811875 -0.06502774 1.8063262 136 145 132
-0.14578037 -0.06479128 1.7997576 136 146 133
-0.1439806 -0.06479128 1.7997576 135 145 133
-0.14218085 -0.06479128 1.7997576 130 138 125
-0.14038108 -0.06479128 1.7997576 120 124 114
-0.13858134 -0.06479128 1.7997576 134 138 126
-0.13678157 -0.06479128 1.7997576 128 130 120
-0.13547446 -0.06502774 1.8063262 115 116 104
-0.13366814 -0.06502774 1.8063262 125 126 109
-0.13186182 -0.06502774 1.8063262 115 114 102
-0.12958255 -0.06479128 1.7997576 108 106 96
-0.12778279 -0.06479128 1.7997576 119 117 106
-0.12598303 -0.06479128 1.7997576 105 103 93
-0.12463651 -0.06502774 1.8063262 113 112 96
-0.12238351 -0.06479128 1.7997576 115 114 99
-0.12102385 -0.06502774 1.8063262 103 102 91
-0.119654216 -0.06526594 1.8129426 111 110 99
-0.1174112 -0.06502774 1.8063262 107 106 95
-0.11602833 -0.06526594 1.8129426 110 108 97
-0.11421539 -0.06526594 1.8129426 117 116 103
-0.11289871 -0.06555408 1.8209468 110 109 97
-0.111077756 -0.06555408 1.8209468 112 110 99
-0.109256804 -0.06555408 1.8209468 112 111 100
-0.10743586 -0.06555408 1.8209468 112 110 100
-0.10600493 -0.06579617 1.8276712 123 120 109
-0.10495239 -0.066285715 1.8412699 114 111 101
-0.10311112 -0.066285715 1.8412699 116 113 104
-0.10126984 -0.066285715 1.8412699 123 120 109
-0.09979986 -0.06653323 1.8481455 122 121 109
-0.09795171 -0.06653323 1.8481455 118 118 107
-0.09646377 -0.06678261 1.8550725 116 114 104
-0.09496464 -0.06703386 1.8620517 111 110 100
-0.09310258 -0.06703386 1.8620517 108 108 98
-0.09124053 -0.06703386 1.8620517 91 92 82
-0.08904348 -0.06678261 1.8550725 84 85 77
-0.08718841 -0.06678261 1.8550725 79 81 71
-0.08565438 -0.06703386 1.8620517 84 86 76
-0.08410876 -0.06728701 1.8690836 102 106 94
-0.08223968 -0.06728701 1.8690836 103 110 99
-0.0803706 -0.06728701 1.8690836 106 113 105
-0.07885888 -0.06759332 1.8775923 112 121 113
-0.07663243 -0.06728701 1.8690836 108 115 107
-0.07510369 -0.06759332 1.8775923 115 121 111
-0.073226094 -0.06759332 1.8775923 115 120 111
-0.07134851 -0.06759332 1.8775923 106 109 102
-0.06947092 -0.06759332 1.8775923 119 123 114
-0.06759332 -0.06759332 1.8775923 114 117 106
-0.06596598 -0.067850724 1.8847424 107 108 97
-0.06408124 -0.067850724 1.8847424 112 113 100
-0.0621965 -0.067850724 1.8847424 107 108 98
-0.060311757 -0.067850724 1.8847424 108 107 99
-0.058427013 -0.067850724 1.8847424 105 107 97
-0.05675841 -0.06811009 1.891947 100 100 94
-0.054866463 -0.06811009 1.891947 94 96 87
-0.05297452 -0.06811009 1.891947 90 92 81
-0.05108257 -0.06811009 1.891947 93 96 85
-0.049003303 -0.067850724 1.8847424 93 95 86
-0.047298677 -0.06811009 1.891947 98 101 92
-0.04540673 -0.06811009 1.891947 94 97 89
-0.043681763 -0.06837145 1.899207 98 100 91
-0.041782554 -0.06837145 1.899207 98 101 91
-0.039883345 -0.06837145 1.899207 98 100 91
-0.03813046 -0.06863482 1.9065229 107 112 101
-0.036223933 -0.06863482 1.9065229 107 114 105
-0.03431741 -0.06863482 1.9065229 113 121 112
-0.032286517 -0.06837145 1.899207 110 120 114
-0.030622326 -0.06890023 1.9138954 109 118 111
-0.028708432 -0.06890023 1.9138954 112 121 112
-0.026691321 -0.06863482 1.9065229 117 126 115
-0.024784798 -0.06863482 1.9065229 114 123 113
-0.022878274 -0.06863482 1.9065229 122 132 123
-0.020971753 -0.06863482 1.9065229 115 124 119
-0.01906523 -0.06863482 1.9065229 122 133 124
-0.017158706 -0.06863482 1.9065229 116 125 115
-0.015252183 -0.06863482 1.9065229 120 130 120
-0.013345661 -0.06863482 1.9065229 119 128 118
-0.011439137 -0.06863482 1.9065229 109 116 109
-0.009532615 -0.06863482 1.9065229 119 125 117
-0.0076260916 -0.06863482 1.9065229 117 120 111
-0.005741686 -0.06890023 1.9138954 105 106 97
-0.0038277907 -0.06890023 1.9138954 112 113 102
-0.0019138954 -0.06890023 1.9138954 119 121 109
0.0 -0.06890023 1.9138954 105 105 96
0.0019138954 -0.06890023 1.9138954 113 115 106
0.0038277907 -0.06890023 1.9138954 86 89 81
0.005741686 -0.06890023 1.9138954 70 73 66
0.0076853004 -0.0691677 1.9213251 74 78 72
0.009606626 -0.0691677 1.9213251 72 75 70
0.01152795 -0.0691677 1.9213251 76 79 73
0.013449276 -0.0691677 1.9213251 74 77 72
0.015370601 -0.0691677 1.9213251 77 78 73
0.017291926 -0.0691677 1.9213251 75 78 73
0.019213252 -0.0691677 1.9213251 81 83 77
0.021134578 -0.0691677 1.9213251 82 84 77
0.0230559 -0.0691677 1.9213251 86 87 82
0.024977226 -0.0691677 1.9213251 88 90 83
0.026898552 -0.0691677 1.9213251 95 98 90
0.028819876 -0.0691677 1.9213251 93 95 86
0.030741202 -0.0691677 1.9213251 93 97 89
0.032662526 -0.0691677 1.9213251 99 103 94
0.03458385 -0.0691677 1.9213251 94 96 89
0.036505178 -0.0691677 1.9213251 90 93 87
0.038426504 -0.0691677 1.9213251 95 97 90
0.04034783 -0.0691677 1.9213251 85 88 80
0.04243388 -0.06943726 1.9288127 91 91 83
0.044190474 -0.0691677 1.9213251 97 94 87
0.04575655 -0.06863482 1.9065229 103 100 94
0.04711856 -0.067850724 1.8847424 116 115 109
0.048231885 -0.06678261 1.8550725 127 135 124
0.049530026 -0.06604003 1.8344454 128 136 124
0.05155556 -0.066285715 1.8412699 125 136 124
0.053198915 -0.06604003 1.8344454 113 120 112
0.054830134 -0.06579617 1.8276712 112 119 110
0.056657806 -0.06579617 1.8276712 119 126 117
0.05848548 -0.06579617 1.8276712 113 118 110
0.06031315 -0.06579617 1.8276712 120 125 116
0.06214082 -0.06579617 1.8276712 121 129 120
0.06373314 -0.06555408 1.8209468 124 127 117
0.06526594 -0.06526594 1.8129426 129 137 128
0.06707888 -0.06526594 1.8129426 131 139 130
0.06889182 -0.06526594 1.8129426 117 126 118
0.070704766 -0.06526594 1.8129426 126 135 127
0.07225304 -0.06502774 1.8063262 129 137 127
0.074059375 -0.06502774 1.8063262 125 134 123
0.0758657 -0.06502774 1.8063262 132 140 130
0.07738958 -0.06479128 1.7997576 133 141 132
0.07918933 -0.06479128 1.7997576 132 140 132
0.08098909 -0.06479128 1.7997576 143 152 145
0.08278885 -0.06479128 1.7997576 137 146 140
0.08458861 -0.06479128 1.7997576 136 146 139
0.086388364 -0.06479128 1.7997576 167 177 169
0.08818813 -0.06479128 1.7997576 151 161 154
0.089987874 -0.06479128 1.7997576 161 170 163
0.09145507 -0.06455652 1.7932367 193 207 199
0.09324831 -0.06455652 1.7932367 178 193 184
0.09504155 -0.06455652 1.7932367 182 197 188
0.096834786 -0.06455652 1.7932367 195 206 198
0.09898667 -0.06479128 1.7997576 162 174 167
0.10042126 -0.06455652 1.7932367 195 204 196
0.10221449 -0.06455652 1.7932367 195 212 202
0.10438594 -0.06479128 1.7997576 174 186 178
0.1061857 -0.06479128 1.7997576 203 212 204
0.10837957 -0.06502774 1.8063262 198 210 201
0.1101859 -0.06502774 1.8063262 205 217 208
0.11199222 -0.06502774 1.8063262 196 204 196
0.113798544 -0.06502774 1.8063262 191 198 191
0.11602833 -0.06526594 1.8129426 191 201 194
0.11784127 -0.06526594 1.8129426 179 188 181
0.119654216 -0.06526594 1.8129426 190 197 188
0.12146716 -0.06526594 1.8129426 203 209 198
0.1232801 -0.06526594 1.8129426 174 179 169
0.12564534 -0.06555408 1.8209468 158 162 153
0.12793697 -0.06579617 1.8276712 167 170 163
0.12976465 -0.06579617 1.8276712 168 171 166
0.13159233 -0.06579617 1.8276712 173 178 170
0.13342 -0.06579617 1.8276712 192 200 185
0.13574897 -0.06604003 1.8344454 185 194 187
0.13809524 -0.066285715 1.8412699 200 206 200
0.14045906 -0.06653323 1.8481455 190 201 186
0.14794204 -0.0691677 1.9213251 212 202 183
-0.20691194 -0.07655742 2.0691195 140 147 129
-0.18588164 -0.06947092 1.8775923 138 146 129
-0.17977566 -0.067874484 1.8344454 136 144 131
-0.17927012 -0.068381384 1.8481455 138 147 133
-0.17742197 -0.068381384 1.8481455 130 135 125
-0.17427231 -0.067874484 1.8344454 142 149 137
-0.17243786 -0.067874484 1.8344454 139 147 134
-0.17060342 -0.067874484 1.8344454 132 139 128
-0.16814575 -0.06762383 1.8276712 138 146 131
-0.16570616 -0.067375034 1.8209468 115 123 109
-0.1638852 -0.067375034 1.8209468 105 112 102
-0.1613519 -0.06707888 1.8129426 118 125 112
-0.15953895 -0.06707888 1.8129426 115 120 109
-0.15772602 -0.06707888 1.8129426 107 113 102
-0.15591307 -0.06707888 1.8129426 131 141 126
-0.15353772 -0.06683407 1.8063262 122 132 120
-0.1517314 -0.06683407 1.8063262 126 135 124
-0.14992507 -0.06683407 1.8063262 142 151 138
-0.14758012 -0.06659103 1.7997576 133 143 130
-0.14631243 -0.06683407 1.8063262 130 141 127
-0.14450608 -0.06683407 1.8063262 135 145 132
-0.14218085 -0.06659103 1.7997576 124 127 117
-0.14038108 -0.06659103 1.7997576 119 122 112
-0.13858134 -0.06659103 1.7997576 124 126 116
-0.13678157 -0.06659103 1.7997576 111 112 102
-0.13498183 -0.06659103 1.7997576 107 106 93
-0.13318206 -0.06659103 1.7997576 120 119 104
-0.13186182 -0.06683407 1.8063262 109 108 95
-0.13005549 -0.06683407 1.8063262 113 110 97
-0.12824915 -0.06683407 1.8063262 109 107 94
-0.12644283 -0.06683407 1.8063262 106 104 92
-0.12463651 -0.06683407 1.8063262 112 110 96
-0.122830175 -0.06683407 1.8063262 105 104 91
-0.12102385 -0.06683407 1.8063262 106 104 91
-0.11921753 -0.06683407 1.8063262 112 111 95
-0.1174112 -0.06683407 1.8063262 101 99 87
-0.11560487 -0.06683407 1.8063262 107 105 93
-0.11421539 -0.06707888 1.8129426 104 103 94
-0.11240245 -0.06707888 1.8129426 105 104 94
-0.1105895 -0.06707888 1.8129426 112 111 99
-0.108776554 -0.06707888 1.8129426 107 105 94
-0.10743586 -0.067375034 1.8209468 106 103 94
-0.105614915 -0.067375034 1.8209468 113 111 100
-0.104563385 -0.067874484 1.8344454 110 108 98
-0.10272894 -0.067874484 1.8344454 111 108 98
-0.100894496 -0.067874484 1.8344454 110 107 98
-0.09942857 -0.068126984 1.8412699 110 109 99
-0.09795171 -0.068381384 1.8481455 115 114 104
-0.096103564 -0.068381384 1.8481455 114 112 102
-0.094608694 -0.06863768 1.8550725 115 114 104
-0.09275363 -0.06863768 1.8550725 115 114 103
-0.09124053 -0.06889591 1.8620517 103 104 95
-0.08904348 -0.06863768 1.8550725 90 92 82
-0.08718841 -0.06863768 1.8550725 79 80 70
-0.08565438 -0.06889591 1.8620517 80 81 71
-0.08410876 -0.069156095 1.8690836 101 105 93
-0.08223968 -0.069156095 1.8690836 103 109 97
-0.0803706 -0.069156095 1.8690836 111 118 109
-0.07850151 -0.069156095 1.8690836 111 117 110
-0.07663243 -0.069156095 1.8690836 108 114 105
-0.07510369 -0.06947092 1.8775923 119 126 114
-0.073226094 -0.06947092 1.8775923 111 116 107
-0.07134851 -0.06947092 1.8775923 106 111 103
-0.06947092 -0.06947092 1.8775923 119 124 114
-0.06759332 -0.06947092 1.8775923 112 115 104
-0.06596598 -0.06973547 1.8847424 108 110 98
-0.06408124 -0.06973547 1.8847424 115 117 103
-0.0621965 -0.06973547 1.8847424 106 107 97
-0.060311757 -0.06973547 1.8847424 108 108 98
-0.058427013 -0.06973547 1.8847424 104 105 97
-0.05675841 -0.070002034 1.891947 103 103 96
-0.054866463 -0.070002034 1.891947 94 96 87
-0.05297452 -0.070002034 1.891947 91 93 82
-0.05108257 -0.070002034 1.891947 93 96 85
-0.049190626 -0.070002034 1.891947 92 94 85
-0.047298677 -0.070002034 1.891947 99 100 91
-0.04558097 -0.07027066 1.899207 91 94 85
-0.04351478 -0.070002034 1.891947 101 102 92
-0.041782554 -0.07027066 1.899207 100 101 92
-0.039883345 -0.07027066 1.899207 99 102 93
-0.03798414 -0.07027066 1.899207 108 114 104
-0.036084935 -0.07027066 1.899207 106 112 105
-0.034185726 -0.07027066 1.899207 115 124 115
-0.032286517 -0.07027066 1.899207 106 116 111
-0.030622326 -0.070814125 1.9138954 115 126 119
-0.028708432 -0.070814125 1.9138954 114 121 113
-0.026794534 -0.070814125 1.9138954 118 126 117
-0.024784798 -0.070541345 1.9065229 118 126 117
-0.022878274 -0.070541345 1.9065229 118 127 118
-0.020971753 -0.070541345 1.9065229 117 127 119
-0.01906523 -0.070541345 1.9065229 116 125 118
-0.017158706 -0.070541345 1.9065229 116 125 115
-0.015252183 -0.070541345 1.9065229 117 126 116
-0.013345661 -0.070541345 1.9065229 119 128 118
-0.011439137 -0.070541345 1.9065229 104 111 103
-0.009532615 -0.070541345 1.9065229 114 119 112
-0.0076260916 -0.070541345 1.9065229 119 121 112
-0.005741686 -0.070814125 1.9138954 108 110 100
-0.0038277907 -0.070814125 1.9138954 110 111 101
-0.0019138954 -0.070814125 1.9138954 121 122 109
0.0 -0.070814125 1.9138954 104 105 95
0.0019138954 -0.070814125 1.9138954 111 113 103
0.0038277907 -0.070814125 1.9138954 86 88 79
0.005741686 -0.070814125 1.9138954 72 75 67
0.0076853004 -0.07108903 1.9213251 75 77 72
0.009606626 -0.07108903 1.9213251 73 75 70
0.01152795 -0.07108903 1.9213251 75 78 73
0.013449276 -0.07108903 1.9213251 75 78 73
0.015370601 -0.07108903 1.9213251 76 78 73
0.017291926 -0.07108903 1.9213251 78 79 74
0.019213252 -0.07108903 1.9213251 79 80 74
0.021134578 -0.07108903 1.9213251 83 85 79
0.0230559 -0.07108903 1.9213251 86 88 82
0.024977226 -0.07108903 1.9213251 86 88 82
0.026898552 -0.07108903 1.9213251 93 96 87
0.028819876 -0.07108903 1.9213251 95 97 87
0.030741202 -0.07108903 1.9213251 95 97 89
0.032662526 -0.07108903 1.9213251 94 97 89
0.03458385 -0.07108903 1.9213251 95 97 90
0.036364015 -0.070814125 1.9138954 87 90 83
0.038426504 -0.07108903 1.9213251 93 95 87
0.04034783 -0.07108903 1.9213251 93 95 87
0.04243388 -0.07136607 1.9288127 88 88 80
0.044362694 -0.07136607 1.9288127 99 97 90
0.04593349 -0.070814125 1.9138954 102 99 92
0.047298677 -0.070002034 1.891947 113 114 107
0.048231885 -0.06863768 1.8550725 128 136 125
0.049530026 -0.067874484 1.8344454 128 136 123
0.05136447 -0.067874484 1.8344454 124 135 123
0.053198915 -0.067874484 1.8344454 120 127 117
0.05503336 -0.067874484 1.8344454 110 120 110
0.056657806 -0.06762383 1.8276712 125 132 123
0.05848548 -0.06762383 1.8276712 120 125 117
0.06031315 -0.06762383 1.8276712 121 126 119
0.061912194 -0.067375034 1.8209468 128 136 127
0.06345299 -0.06707888 1.8129426 126 133 122
0.06526594 -0.06707888 1.8129426 116 123 116
0.06707888 -0.06707888 1.8129426 124 134 124
0.06889182 -0.06707888 1.8129426 125 132 124
0.070446715 -0.06683407 1.8063262 128 136 128
0.07225304 -0.06683407 1.8063262 131 139 129
0.074059375 -0.06683407 1.8063262 125 135 124
0.0758657 -0.06683407 1.8063262 132 142 132
0.07738958 -0.06659103 1.7997576 134 142 133
0.07918933 -0.06659103 1.7997576 124 132 125
0.08098909 -0.06659103 1.7997576 140 147 141
0.08278885 -0.06659103 1.7997576 160 168 161
0.08458861 -0.06659103 1.7997576 140 149 143
0.086388364 -0.06659103 1.7997576 166 177 171
0.08818813 -0.06659103 1.7997576 194 204 197
0.08966184 -0.06634976 1.7932367 175 184 178
0.09145507 -0.06634976 1.7932367 188 201 194
0.09324831 -0.06634976 1.7932367 189 200 192
0.09504155 -0.06634976 1.7932367 168 179 172
0.096834786 -0.06634976 1.7932367 198 208 201
0.09862802 -0.06634976 1.7932367 191 203 195
0.10042126 -0.06634976 1.7932367 183 193 186
0.10221449 -0.06634976 1.7932367 198 211 202
0.10438594 -0.06659103 1.7997576 172 186 178
0.1061857 -0.06659103 1.7997576 181 191 184
0.10798546 -0.06659103 1.7997576 190 200 193
0.1101859 -0.06683407 1.8063262 183 189 184
0.11199222 -0.06683407 1.8063262 193 202 194
0.113798544 -0.06683407 1.8063262 183 192 182
0.11602833 -0.06707888 1.8129426 199 207 199
0.11784127 -0.06707888 1.8129426 184 193 186
0.119654216 -0.06707888 1.8129426 188 197 189
0.12146716 -0.06707888 1.8129426 171 179 170
0.1232801 -0.06707888 1.8129426 173 176 169
0.12509304 -0.06707888 1.8129426 154 156 151
0.12746628 -0.067375034 1.8209468 159 167 158
0.12976465 -0.06762383 1.8276712 174 181 172
0.13159233 -0.06762383 1.8276712 184 191 182
0.13342 -0.06762383 1.8276712 179 184 178
0.13574897 -0.067874484 1.8344454 192 202 195
0.13809524 -0.068126984 1.8412699 178 189 178
0.13890302 -0.06762383 1.8276712 207 215 205
0.14177777 -0.068126984 1.8412699 207 206 193
-0.20691194 -0.07862654 2.0691195 142 146 125
-0.1865895 -0.07162021 1.8847424 140 148 133
-0.18044445 -0.06996825 1.8412699 131 141 127
-0.17860319 -0.06996825 1.8412699 133 143 129
-0.1767619 -0.06996825 1.8412699 137 145 132
-0.17427231 -0.06970892 1.8344454 142 150 137
-0.17243786 -0.06970892 1.8344454 127 136 123
-0.16997342 -0.06945151 1.8276712 135 144 132
-0.16814575 -0.06945151 1.8276712 119 125 115
-0.16631807 -0.06945151 1.8276712 118 126 113
-0.16316484 -0.06889182 1.8129426 114 122 109
-0.1613519 -0.06889182 1.8129426 107 113 102
-0.15953895 -0.06889182 1.8129426 123 131 118
-0.15772602 -0.06889182 1.8129426 117 126 114
-0.15534405 -0.068640396 1.8063262 118 127 116
-0.15353772 -0.068640396 1.8063262 142 151 137
-0.1517314 -0.068640396 1.8063262 135 144 131
-0.14992507 -0.068640396 1.8063262 138 146 133
-0.14758012 -0.06839079 1.7997576 125 133 121
-0.14631243 -0.068640396 1.8063262 133 142 129
-0.14450608 -0.068640396 1.8063262 126 132 121
-0.14269976 -0.068640396 1.8063262 111 112 103
-0.14038108 -0.06839079 1.7997576 117 117 108
-0.13807923 -0.068142995 1.7932367 122 122 114
-0.13678157 -0.06839079 1.7997576 105 105 95
-0.13498183 -0.06839079 1.7997576 106 105 90
-0.13318206 -0.06839079 1.7997576 113 112 99
-0.13138232 -0.06839079 1.7997576 103 102 89
-0.12958255 -0.06839079 1.7997576 112 111 97
-0.12778279 -0.06839079 1.7997576 98 98 85
-0.12598303 -0.06839079 1.7997576 105 105 93
-0.124183275 -0.06839079 1.7997576 107 106 94
-0.12238351 -0.06839079 1.7997576 103 101 91
-0.12058376 -0.06839079 1.7997576 109 107 95
-0.11921753 -0.068640396 1.8063262 99 97 86
-0.1174112 -0.068640396 1.8063262 105 103 92
-0.11602833 -0.06889182 1.8129426 107 106 95
-0.11421539 -0.06889182 1.8129426 99 98 88
-0.11240245 -0.06889182 1.8129426 104 105 94
-0.1105895 -0.06889182 1.8129426 102 101 89
-0.10837957 -0.068640396 1.8063262 105 104 93
-0.10696361 -0.06889182 1.8129426 107 107 94
-0.10515067 -0.06889182 1.8129426 100 100 89
-0.10379397 -0.06919598 1.8209468 105 105 94
-0.10234959 -0.06945151 1.8276712 108 108 96
-0.100521915 -0.06945151 1.8276712 106 105 94
-0.09942857 -0.06996825 1.8412699 108 109 100
-0.0975873 -0.06996825 1.8412699 106 106 97
-0.096103564 -0.07022953 1.8481455 109 108 99
-0.094608694 -0.07049275 1.8550725 111 110 101
-0.09275363 -0.07049275 1.8550725 112 111 102
-0.09124053 -0.07075796 1.8620517 103 104 95
-0.08904348 -0.07049275 1.8550725 93 94 86
-0.08718841 -0.07049275 1.8550725 78 79 69
-0.08565438 -0.07075796 1.8620517 78 81 71
-0.08410876 -0.07102518 1.8690836 100 103 92
-0.08223968 -0.07102518 1.8690836 104 110 98
-0.0803706 -0.07102518 1.8690836 113 118 108
-0.07850151 -0.07102518 1.8690836 107 113 104
-0.07663243 -0.07102518 1.8690836 114 120 111
-0.07510369 -0.07134851 1.8775923 118 123 115
-0.073226094 -0.07134851 1.8775923 105 109 101
-0.07134851 -0.07134851 1.8775923 115 120 111
-0.06947092 -0.07134851 1.8775923 118 121 113
-0.06759332 -0.07134851 1.8775923 110 112 101
-0.06596598 -0.07162021 1.8847424 111 113 103
-0.06408124 -0.07162021 1.8847424 112 116 104
-0.0621965 -0.07162021 1.8847424 105 108 94
-0.060311757 -0.07162021 1.8847424 109 112 97
-0.058427013 -0.07162021 1.8847424 102 104 94
-0.05675841 -0.07189399 1.891947 102 103 94
-0.054866463 -0.07189399 1.891947 98 98 89
-0.05297452 -0.07189399 1.891947 94 94 84
-0.05108257 -0.07189399 1.891947 101 101 91
-0.049190626 -0.07189399 1.891947 94 96 86
-0.047298677 -0.07189399 1.891947 100 102 93
-0.04558097 -0.07216987 1.899207 97 99 90
-0.04351478 -0.07189399 1.891947 99 101 92
-0.041622832 -0.07189399 1.891947 99 101 90
-0.039883345 -0.07216987 1.899207 97 99 89
-0.03798414 -0.07216987 1.899207 108 113 103
-0.036223933 -0.072447866 1.9065229 106 115 107
-0.034185726 -0.07216987 1.899207 112 120 111
-0.032286517 -0.07216987 1.899207 111 120 113
-0.030504366 -0.072447866 1.9065229 106 114 107
-0.028597843 -0.072447866 1.9065229 116 121 116
-0.026691321 -0.072447866 1.9065229 111 118 111
-0.024784798 -0.072447866 1.9065229 116 126 119
-0.022878274 -0.072447866 1.9065229 119 128 120
-0.020971753 -0.072447866 1.9065229 117 124 115
-0.01906523 -0.072447866 1.9065229 123 133 124
-0.017158706 -0.072447866 1.9065229 118 129 119
-0.015252183 -0.072447866 1.9065229 116 126 117
-0.013345661 -0.072447866 1.9065229 121 129 121
-0.011439137 -0.072447866 1.9065229 109 116 106
-0.009532615 -0.072447866 1.9065229 115 119 109
-0.0076260916 -0.072447866 1.9065229 118 121 112
-0.005741686 -0.07272803 1.9138954 106 109 99
-0.0038277907 -0.07272803 1.9138954 106 108 98
-0.0019138954 -0.07272803 1.9138954 119 119 107
0.0 -0.07272803 1.9138954 107 107 98
0.0019138954 -0.07272803 1.9138954 111 113 103
0.0038277907 -0.07272803 1.9138954 85 88 79
0.005741686 -0.07272803 1.9138954 73 76 69
0.0076853004 -0.073010355 1.9213251 75 78 71
0.009606626 -0.073010355 1.9213251 74 77 71
0.01152795 -0.073010355 1.9213251 75 78 72
0.013449276 -0.073010355 1.9213251 76 79 74
0.015370601 -0.073010355 1.9213251 75 77 71
0.017291926 -0.073010355 1.9213251 76 80 75
