ply
format ascii 1.0
element vertex 1082
property float32 x
property float32 y
property float32 z
property uchar red
property uchar green
property uchar blue
element face 0
property list uint8 int32 vertex_indices
end_header
0.12410715 -0.32895872 1.4952669 104 89 82
0.12605943 -0.33015564 1.5007075 95 81 72
0.12802596 -0.33136132 1.5061879 96 82 73
0.12906085 -0.33015564 1.5007075 101 85 77
0.13056156 -0.33015564 1.5007075 96 81 70
0.13206226 -0.33015564 1.5007075 89 73 63
0.13356297 -0.33015564 1.5007075 88 71 63
0.13555692 -0.33136132 1.5061879 90 73 64
0.1370631 -0.33136132 1.5061879 96 78 71
0.1380651 -0.33015564 1.5007075 97 79 70
0.14007547 -0.33136132 1.5061879 102 83 76
0.14158167 -0.33136132 1.5061879 108 90 82
0.14308785 -0.33136132 1.5061879 100 80 70
0.14459404 -0.33136132 1.5061879 99 78 70
0.14663573 -0.33257586 1.5117085 96 76 67
0.14814743 -0.33257586 1.5117085 96 75 63
0.14965913 -0.33257586 1.5117085 95 75 62
0.15061879 -0.33136132 1.5061879 100 80 67
0.15212499 -0.33136132 1.5061879 99 80 69
0.15363117 -0.33136132 1.5061879 99 79 67
0.15513736 -0.33136132 1.5061879 98 78 66
0.15664354 -0.33136132 1.5061879 93 72 59
0.15814973 -0.33136132 1.5061879 107 85 73
0.15965591 -0.33136132 1.5061879 108 86 74
0.16116211 -0.33136132 1.5061879 109 88 76
0.16266829 -0.33136132 1.5061879 120 97 85
0.16417448 -0.33136132 1.5061879 124 102 89
0.16507782 -0.33015564 1.5007075 122 101 90
0.16718686 -0.33136132 1.5061879 138 115 101
0.16869305 -0.33136132 1.5061879 153 128 112
0.17019923 -0.33136132 1.5061879 140 117 104
0.17170542 -0.33136132 1.5061879 127 108 99
0.1732116 -0.33136132 1.5061879 141 119 106
0.1747178 -0.33136132 1.5061879 176 153 137
0.17622398 -0.33136132 1.5061879 187 163 148
0.17708348 -0.33015564 1.5007075 187 164 147
0.17793676 -0.32895872 1.4952669 195 173 151
0.17943203 -0.32895872 1.4952669 188 166 146
0.18092729 -0.32895872 1.4952669 156 136 120
0.18242256 -0.32895872 1.4952669 163 141 125
0.18391784 -0.32895872 1.4952669 164 142 122
0.1854131 -0.32895872 1.4952669 167 143 122
0.1862332 -0.3277704 1.4898655 157 137 119
0.18840362 -0.32895872 1.4952669 177 158 139
0.1898989 -0.32895872 1.4952669 190 166 147
0.19139417 -0.32895872 1.4952669 194 170 152
0.19219266 -0.3277704 1.4898655 191 168 149
0.19438471 -0.32895872 1.4952669 169 149 133
0.19587997 -0.32895872 1.4952669 185 161 143
0.19737522 -0.32895872 1.4952669 194 169 148
0.1988705 -0.32895872 1.4952669 177 155 135
0.20036577 -0.32895872 1.4952669 167 148 130
0.20186104 -0.32895872 1.4952669 159 139 121
0.2033563 -0.32895872 1.4952669 173 149 130
0.20559692 -0.33015564 1.5007075 181 155 134
0.20785393 -0.33136132 1.5061879 164 140 121
0.20936012 -0.33136132 1.5061879 167 143 124
0.2108663 -0.33136132 1.5061879 175 151 131
0.2123725 -0.33136132 1.5061879 184 156 136
0.21310046 -0.33015564 1.5007075 158 137 120
0.21538487 -0.33136132 1.5061879 165 144 126
-0.19963698 -0.3063873 1.3863679 249 179 0
-0.1982506 -0.3063873 1.3863679 249 179 0
-0.19686425 -0.3063873 1.3863679 249 179 0
-0.19547787 -0.3063873 1.3863679 249 179 0
-0.19409151 -0.3063873 1.3863679 249 179 0
-0.19270514 -0.3063873 1.3863679 249 179 0
-0.19131877 -0.3063873 1.3863679 249 179 0
-0.1899324 -0.3063873 1.3863679 249 179 0
-0.18918194 -0.30742064 1.3910437 249 179 0
-0.1877909 -0.30742064 1.3910437 249 179 0
-0.18639986 -0.30742064 1.3910437 249 179 0
-0.18500881 -0.30742064 1.3910437 249 179 0
-0.18361777 -0.30742064 1.3910437 249 179 0
-0.18222672 -0.30742064 1.3910437 249 179 0
-0.18083568 -0.30742064 1.3910437 249 179 0
-0.18015352 -0.30863512 1.3965389 249 179 0
-0.17875697 -0.30863512 1.3965389 250 179 0
-0.17736043 -0.30863512 1.3965389 249 181 0
-0.1759639 -0.30863512 1.3965389 249 181 0
-0.17456736 -0.30863512 1.3965389 249 181 0
-0.17317082 -0.30863512 1.3965389 249 181 0
-0.17177428 -0.30863512 1.3965389 249 181 0
-0.17037775 -0.30863512 1.3965389 249 181 0
-0.1689812 -0.30863512 1.3965389 249 181 0
-0.16815402 -0.30968365 1.4012835 249 181 0
-0.16675273 -0.30968365 1.4012835 249 180 0
-0.16535145 -0.30968365 1.4012835 251 180 0
-0.16395016 -0.30968365 1.4012835 249 181 0
-0.16254888 -0.30968365 1.4012835 249 181 0
-0.16060197 -0.30863512 1.3965389 249 181 0
-0.15920542 -0.30863512 1.3965389 249 181 0
-0.15780888 -0.30863512 1.3965389 248 182 0
-0.1574788 -0.3107394 1.4060607 248 181 0
-0.15607274 -0.3107394 1.4060607 251 182 0
-0.15466668 -0.3107394 1.4060607 251 182 0
-0.15378489 -0.31180236 1.4108704 251 182 0
-0.15237401 -0.31180236 1.4108704 251 182 0
-0.15156803 -0.3130517 1.4165236 248 182 0
-0.1501515 -0.3130517 1.4165236 248 182 0
-0.14814138 -0.31180236 1.4108704 246 181 0
-0.14673053 -0.31180236 1.4108704 241 162 0
-0.14590193 -0.3130517 1.4165236 218 121 0
-0.14498334 -0.31413057 1.4214053 222 120 0
-0.14356193 -0.31413057 1.4214053 227 132 0
-0.1426321 -0.31521693 1.4263209 223 141 0
-0.14227179 -0.3175966 1.4370887 210 153 60
-0.14232239 -0.32095152 1.4522692 207 181 157
-0.14186919 -0.32322776 1.462569 203 178 158
-0.14090629 -0.324378 1.4677739 204 184 157
-0.1399365 -0.32553652 1.4730159 208 179 157
-0.13904284 -0.3268986 1.4791791 205 177 154
-0.13756366 -0.3268986 1.4791791 204 178 153
-0.13608448 -0.3268986 1.4791791 199 174 150
-0.1346053 -0.3268986 1.4791791 186 163 140
-0.13360529 -0.3280752 1.4845031 186 163 140
-0.13212077 -0.3280752 1.4845031 182 157 138
-0.13063627 -0.3280752 1.4845031 180 156 139
-0.1296183 -0.3292603 1.4898655 176 153 134
-0.12812844 -0.3292603 1.4898655 166 142 123
-0.12618276 -0.3280752 1.4845031 159 136 118
-0.12469827 -0.3280752 1.4845031 157 136 117
-0.12410715 -0.330454 1.4952669 151 129 109
-0.12216897 -0.3292603 1.4898655 149 127 103
-0.12067911 -0.3292603 1.4898655 150 127 104
-0.11962135 -0.330454 1.4952669 149 126 103
-0.11812609 -0.330454 1.4952669 148 125 107
-0.11663082 -0.330454 1.4952669 151 126 110
-0.11513555 -0.330454 1.4952669 145 122 104
-0.113640286 -0.330454 1.4952669 146 122 100
-0.11214502 -0.330454 1.4952669 146 121 98
-0.11064975 -0.330454 1.4952669 141 120 97
-0.109154485 -0.330454 1.4952669 138 117 95
-0.10765922 -0.330454 1.4952669 144 122 101
-0.10616395 -0.330454 1.4952669 137 116 97
-0.104668684 -0.330454 1.4952669 144 122 102
-0.10317342 -0.330454 1.4952669 143 121 100
-0.10167815 -0.330454 1.4952669 125 106 90
-0.10018288 -0.330454 1.4952669 125 105 89
-0.09868761 -0.330454 1.4952669 128 108 91
-0.09684126 -0.3292603 1.4898655 130 109 91
-0.0953514 -0.3292603 1.4898655 118 101 82
-0.09386153 -0.3292603 1.4898655 120 103 83
-0.09203919 -0.3280752 1.4845031 123 107 87
-0.09055469 -0.3280752 1.4845031 126 109 91
-0.08907019 -0.3280752 1.4845031 126 108 90
-0.08758569 -0.3280752 1.4845031 122 104 88
-0.08610118 -0.3280752 1.4845031 120 103 87
-0.084616676 -0.3280752 1.4845031 111 98 82
-0.08313218 -0.3280752 1.4845031 125 108 93
-0.08135485 -0.3268986 1.4791791 117 99 86
-0.08016317 -0.3280752 1.4845031 120 103 89
-0.07867867 -0.3280752 1.4845031 118 103 86
-0.07691731 -0.3268986 1.4791791 113 99 87
-0.07570966 -0.3280752 1.4845031 112 98 86
-0.073958956 -0.3268986 1.4791791 120 104 90
-0.07247978 -0.3268986 1.4791791 120 105 90
-0.07151355 -0.3292603 1.4898655 126 110 93
-0.06977165 -0.3280752 1.4845031 128 112 94
-0.06804224 -0.3268986 1.4791791 125 111 93
-0.06680264 -0.3280752 1.4845031 115 103 87
-0.06508388 -0.3268986 1.4791791 109 98 85
-0.063604705 -0.3268986 1.4791791 107 98 87
-0.062125523 -0.3268986 1.4791791 104 95 84
-0.060646344 -0.3268986 1.4791791 104 96 84
-0.05916717 -0.3268986 1.4791791 103 95 82
-0.057687987 -0.3268986 1.4791791 97 91 77
-0.056208808 -0.3268986 1.4791791 90 81 69
-0.05472963 -0.3268986 1.4791791 87 76 65
-0.053442113 -0.3280752 1.4845031 86 73 62
-0.05195761 -0.3280752 1.4845031 87 73 67
-0.050473105 -0.3280752 1.4845031 80 67 62
-0.048988607 -0.3280752 1.4845031 76 61 55
-0.0475041 -0.3280752 1.4845031 79 65 58
-0.046019595 -0.3280752 1.4845031 75 62 53
-0.044695966 -0.3292603 1.4898655 79 63 54
-0.04305059 -0.3280752 1.4845031 78 63 54
-0.04156609 -0.3280752 1.4845031 82 66 58
-0.040081587 -0.3280752 1.4845031 81 66 57
-0.038458657 -0.3268986 1.4791791 80 65 57
-0.03711258 -0.3280752 1.4845031 79 63 55
-0.035628073 -0.3280752 1.4845031 81 66 56
-0.034143575 -0.3280752 1.4845031 84 68 59
-0.03265907 -0.3280752 1.4845031 89 73 65
-0.031174567 -0.3280752 1.4845031 90 73 65
-0.029690063 -0.3280752 1.4845031 91 74 67
-0.02820556 -0.3280752 1.4845031 93 77 69
-0.026721057 -0.3280752 1.4845031 94 76 66
-0.025236553 -0.3280752 1.4845031 94 75 65
-0.023666866 -0.3268986 1.4791791 96 77 67
-0.022187687 -0.3268986 1.4791791 99 80 71
-0.020708507 -0.3268986 1.4791791 100 84 72
-0.01929854 -0.3280752 1.4845031 105 89 78
-0.017676191 -0.32553652 1.4730159 113 96 87
-0.016203174 -0.32553652 1.4730159 124 104 94
-0.014730159 -0.32553652 1.4730159 146 123 110
-0.013257143 -0.32553652 1.4730159 164 141 126
-0.011784127 -0.32553652 1.4730159 175 150 134
-0.010311112 -0.32553652 1.4730159 177 155 138
-0.008838096 -0.32553652 1.4730159 189 168 151
-0.0073650796 -0.32553652 1.4730159 197 175 153
-0.005850276 -0.32322776 1.462569 200 177 155
-0.004387707 -0.32322776 1.462569 205 182 162
-0.0029355478 -0.324378 1.4677739 184 163 144
-0.0014677739 -0.324378 1.4677739 201 181 159
0.0 -0.32553652 1.4730159 207 184 162
0.0014791791 -0.3268986 1.4791791 202 181 159
0.0029460317 -0.32553652 1.4730159 205 183 162
0.0044375374 -0.3268986 1.4791791 215 193 170
0.0059167165 -0.3268986 1.4791791 205 185 162
0.007395896 -0.3268986 1.4791791 205 185 162
0.008875075 -0.3268986 1.4791791 203 179 159
0.010391522 -0.3280752 1.4845031 210 186 165
0.011833433 -0.3268986 1.4791791 212 189 169
0.013360528 -0.3280752 1.4845031 210 184 165
0.014845031 -0.3280752 1.4845031 212 186 165
0.016329534 -0.3280752 1.4845031 192 170 152
0.017814036 -0.3280752 1.4845031 194 170 151
0.01929854 -0.3280752 1.4845031 196 172 153
0.020858118 -0.3292603 1.4898655 215 191 169
0.022267548 -0.3280752 1.4845031 212 186 167
0.02383785 -0.3292603 1.4898655 186 159 141
0.025236553 -0.3280752 1.4845031 193 167 147
0.026817579 -0.3292603 1.4898655 202 179 157
0.028307445 -0.3292603 1.4898655 209 184 163
0.02979731 -0.3292603 1.4898655 203 182 161
0.031400606 -0.330454 1.4952669 205 185 161
0.032895874 -0.330454 1.4952669 214 190 165
0.03439114 -0.330454 1.4952669 215 193 167
0.035886407 -0.330454 1.4952669 216 195 171
0.03738167 -0.330454 1.4952669 218 197 173
0.03887694 -0.330454 1.4952669 214 190 168
0.040372208 -0.330454 1.4952669 210 189 166
0.041867472 -0.330454 1.4952669 224 202 177
0.0432061 -0.3292603 1.4898655 210 187 165
0.044695966 -0.3292603 1.4898655 194 173 152
0.046185832 -0.3292603 1.4898655 210 184 164
0.04784854 -0.330454 1.4952669 212 191 167
0.049343806 -0.330454 1.4952669 210 189 164
0.051024057 -0.33165637 1.5007075 211 188 165
0.052334342 -0.330454 1.4952669 217 195 171
0.05382961 -0.330454 1.4952669 216 192 170
0.055324875 -0.330454 1.4952669 202 180 159
0.056820143 -0.330454 1.4952669 215 191 168
0.05831541 -0.330454 1.4952669 202 179 158
0.05959462 -0.3292603 1.4898655 218 194 170
0.061084487 -0.3292603 1.4898655 219 195 171
0.06257435 -0.3292603 1.4898655 217 193 171
0.06406422 -0.3292603 1.4898655 204 182 161
0.06555408 -0.3292603 1.4898655 200 181 159
0.06704395 -0.3292603 1.4898655 206 183 162
0.068533815 -0.3292603 1.4898655 207 184 161
0.07002368 -0.3292603 1.4898655 214 191 168
0.07151355 -0.3292603 1.4898655 219 195 173
0.07300341 -0.3292603 1.4898655 216 192 169
0.07449328 -0.3292603 1.4898655 213 189 166
0.07598314 -0.3292603 1.4898655 216 191 169
0.07747301 -0.3292603 1.4898655 214 190 168
0.07896288 -0.3292603 1.4898655 212 189 166
0.080744416 -0.330454 1.4952669 202 179 159
0.08223968 -0.330454 1.4952669 197 174 157
0.08343247 -0.3292603 1.4898655 190 166 151
0.08523022 -0.330454 1.4952669 178 154 140
0.08672548 -0.330454 1.4952669 163 143 127
0.088220745 -0.330454 1.4952669 154 133 116
0.08971602 -0.330454 1.4952669 150 128 113
0.09121128 -0.330454 1.4952669 138 120 106
0.09270655 -0.330454 1.4952669 135 116 100
0.09420181 -0.330454 1.4952669 128 112 96
0.09604528 -0.33165637 1.5007075 126 109 95
0.09754599 -0.33165637 1.5007075 126 109 94
0.09904669 -0.33165637 1.5007075 124 106 92
0.1005474 -0.33165637 1.5007075 125 107 93
0.102048114 -0.33165637 1.5007075 125 108 92
0.10317342 -0.330454 1.4952669 125 107 90
0.104668684 -0.330454 1.4952669 123 107 92
0.10616395 -0.330454 1.4952669 130 113 97
0.10765922 -0.330454 1.4952669 130 113 99
0.109154485 -0.330454 1.4952669 121 105 92
0.11064975 -0.330454 1.4952669 121 104 92
0.11214502 -0.330454 1.4952669 122 107 95
0.11405377 -0.33165637 1.5007075 122 107 96
0.11513555 -0.330454 1.4952669 122 106 95
0.11663082 -0.330454 1.4952669 117 103 93
0.11812609 -0.330454 1.4952669 120 106 94
0.1200566 -0.33165637 1.5007075 120 104 91
0.1215573 -0.33165637 1.5007075 119 103 89
0.12305801 -0.33165637 1.5007075 118 100 88
0.124558724 -0.33165637 1.5007075 109 94 83
0.12605943 -0.33165637 1.5007075 97 82 72
0.12756014 -0.33165637 1.5007075 98 84 74
0.12906085 -0.33165637 1.5007075 97 83 73
0.13008823 -0.330454 1.4952669 96 80 70
0.13206226 -0.33165637 1.5007075 98 81 72
0.13356297 -0.33165637 1.5007075 95 78 70
0.13506368 -0.33165637 1.5007075 95 77 68
0.13656437 -0.33165637 1.5007075 97 80 69
0.1380651 -0.33165637 1.5007075 97 79 70
0.1395658 -0.33165637 1.5007075 97 78 68
0.1410665 -0.33165637 1.5007075 105 87 78
0.14256722 -0.33165637 1.5007075 107 88 79
0.14406791 -0.33165637 1.5007075 110 90 82
0.14610024 -0.33286753 1.5061879 100 80 69
0.14760642 -0.33286753 1.5061879 97 77 68
0.14857003 -0.33165637 1.5007075 99 79 68
0.15007076 -0.33165637 1.5007075 101 82 70
0.15212499 -0.33286753 1.5061879 98 79 68
0.15307216 -0.33165637 1.5007075 101 81 70
0.15513736 -0.33286753 1.5061879 97 76 65
0.15664354 -0.33286753 1.5061879 99 79 66
0.15814973 -0.33286753 1.5061879 108 87 74
0.15907499 -0.33165637 1.5007075 111 87 75
0.16116211 -0.33286753 1.5061879 112 91 78
0.16266829 -0.33286753 1.5061879 118 96 83
0.16357712 -0.33165637 1.5007075 124 101 88
0.16507782 -0.33165637 1.5007075 123 101 90
0.16657853 -0.33165637 1.5007075 125 105 93
0.16807924 -0.33165637 1.5007075 138 115 102
0.16957994 -0.33165637 1.5007075 142 120 105
0.17108066 -0.33165637 1.5007075 140 119 108
0.17258136 -0.33165637 1.5007075 144 121 108
0.17408207 -0.33165637 1.5007075 169 144 129
0.17558278 -0.33165637 1.5007075 175 154 140
0.17708348 -0.33165637 1.5007075 180 158 141
0.1785842 -0.33165637 1.5007075 191 169 147
0.17943203 -0.330454 1.4952669 185 163 144
0.18092729 -0.330454 1.4952669 187 163 143
0.18242256 -0.330454 1.4952669 173 152 134
0.18391784 -0.330454 1.4952669 180 156 135
0.1854131 -0.330454 1.4952669 142 122 106
0.1862332 -0.3292603 1.4898655 151 132 115
0.18840362 -0.330454 1.4952669 168 149 130
0.18921292 -0.3292603 1.4898655 175 154 137
0.1907028 -0.3292603 1.4898655 192 168 150
0.1915009 -0.3280752 1.4845031 197 171 152
0.19368252 -0.3292603 1.4898655 192 168 149
0.19517238 -0.3292603 1.4898655 178 154 137
0.19666225 -0.3292603 1.4898655 169 148 131
0.1988705 -0.330454 1.4952669 181 159 138
0.20036577 -0.330454 1.4952669 185 162 140
0.20186104 -0.330454 1.4952669 181 159 137
0.2033563 -0.330454 1.4952669 181 157 136
0.20485157 -0.330454 1.4952669 176 152 131
0.20709763 -0.33165637 1.5007075 178 154 132
0.20859835 -0.33165637 1.5007075 179 154 133
0.21009904 -0.33165637 1.5007075 173 150 130
0.21083264 -0.330454 1.4952669 178 154 133
0.21310046 -0.33165637 1.5007075 179 156 135
0.21460117 -0.33165637 1.5007075 175 154 133
-0.19885716 -0.30657145 1.3809525 249 179 0
-0.19747621 -0.30657145 1.3809525 249 179 0
-0.19609524 -0.30657145 1.3809525 249 179 0
-0.1947143 -0.30657145 1.3809525 249 179 0
-0.19333334 -0.30657145 1.3809525 249 179 0
-0.19131182 -0.3055484 1.3763441 249 179 0
-0.19057144 -0.30657145 1.3809525 249 179 0
-0.18919049 -0.30657145 1.3809525 249 179 0
-0.18780954 -0.30657145 1.3809525 249 179 0
-0.18642859 -0.30657145 1.3809525 249 179 0
-0.18504764 -0.30657145 1.3809525 249 179 0
-0.18366669 -0.30657145 1.3809525 249 179 0
-0.18228573 -0.30657145 1.3809525 249 179 0
-0.18161419 -0.30777368 1.3863679 249 179 0
-0.17952383 -0.30657145 1.3809525 249 179 0
-0.17884146 -0.30777368 1.3863679 249 179 0
-0.17805359 -0.3088117 1.3910437 249 181 0
-0.17666255 -0.3088117 1.3910437 249 181 0
-0.1752715 -0.3088117 1.3910437 249 181 0
-0.17388046 -0.3088117 1.3910437 249 181 0
-0.1724894 -0.3088117 1.3910437 249 181 0
-0.17177428 -0.31003162 1.3965389 251 182 0
-0.17037775 -0.31003162 1.3965389 251 182 0
-0.1689812 -0.31003162 1.3965389 251 181 0
-0.16758466 -0.31003162 1.3965389 251 180 0
-0.16618812 -0.31003162 1.3965389 251 180 0
-0.16479158 -0.31003162 1.3965389 251 182 0
-0.16339505 -0.31003162 1.3965389 251 182 0
-0.16199851 -0.31003162 1.3965389 251 182 0
-0.1611476 -0.31108493 1.4012835 251 182 0
-0.15974632 -0.31108493 1.4012835 251 182 0
-0.15834503 -0.31108493 1.4012835 251 182 0
-0.1574788 -0.31214547 1.4060607 248 182 0
-0.15607274 -0.31214547 1.4060607 251 182 0
-0.15466668 -0.31214547 1.4060607 251 182 0
-0.15326062 -0.31214547 1.4060607 251 182 0
-0.15237401 -0.31321323 1.4108704 251 182 0
-0.15096313 -0.31321323 1.4108704 251 182 0
-0.14955226 -0.31321323 1.4108704 246 181 0
-0.14814138 -0.31321323 1.4108704 248 173 0
-0.14731845 -0.31446823 1.4165236 214 127 0
-0.14590193 -0.31446823 1.4165236 216 114 0
-0.14390878 -0.31321323 1.4108704 212 114 0
-0.14356193 -0.31555197 1.4214053 212 122 0
-0.14214054 -0.31555197 1.4214053 210 123 0
-0.14169577 -0.31774205 1.4312705 206 148 62
-0.14182301 -0.32127255 1.4471736 205 181 148
-0.14136788 -0.323543 1.4574009 199 175 150
-0.14090629 -0.3258458 1.4677739 199 175 148
-0.1399365 -0.32700953 1.4730159 204 179 154
-0.1384635 -0.32700953 1.4730159 204 178 153
-0.13756366 -0.32837778 1.4791791 199 176 151
-0.13551746 -0.32700953 1.4730159 198 173 149
-0.1346053 -0.32837778 1.4791791 189 166 139
-0.13312612 -0.32837778 1.4791791 183 160 135
-0.13212077 -0.32955968 1.4845031 188 163 139
-0.13063627 -0.32955968 1.4845031 184 159 136
-0.12915178 -0.32955968 1.4845031 179 159 136
-0.12766728 -0.32955968 1.4845031 167 146 123
-0.12573023 -0.32837778 1.4791791 160 139 119
-0.12469827 -0.32955968 1.4845031 163 143 123
-0.12321376 -0.32955968 1.4845031 159 140 120
-0.121729255 -0.32955968 1.4845031 156 135 113
-0.12024476 -0.32955968 1.4845031 150 129 110
-0.11918924 -0.33075017 1.4898655 152 131 112
-0.11769938 -0.33075017 1.4898655 151 129 108
-0.116209514 -0.33075017 1.4898655 147 128 108
-0.11471965 -0.33075017 1.4898655 156 133 114
-0.11322978 -0.33075017 1.4898655 156 132 112
-0.11173991 -0.33075017 1.4898655 148 127 106
-0.110250056 -0.33075017 1.4898655 144 125 106
-0.108760186 -0.33075017 1.4898655 145 125 107
-0.107270315 -0.33075017 1.4898655 156 131 111
-0.10578046 -0.33075017 1.4898655 148 125 105
-0.10429059 -0.33075017 1.4898655 141 119 101
-0.10280072 -0.33075017 1.4898655 136 115 96
-0.10131086 -0.33075017 1.4898655 126 108 91
-0.099461704 -0.32955968 1.4845031 128 109 92
-0.09797721 -0.32955968 1.4845031 132 114 95
-0.09649271 -0.32955968 1.4845031 130 111 90
-0.0953514 -0.33075017 1.4898655 124 103 82
-0.09386153 -0.33075017 1.4898655 124 104 90
-0.09203919 -0.32955968 1.4845031 122 106 90
-0.09022993 -0.32837778 1.4791791 125 111 93
-0.08907019 -0.32955968 1.4845031 124 106 90
-0.08758569 -0.32955968 1.4845031 126 109 93
-0.08610118 -0.32955968 1.4845031 126 108 89
-0.084616676 -0.32955968 1.4845031 128 107 88
-0.08313218 -0.32955968 1.4845031 124 104 92
-0.08135485 -0.32837778 1.4791791 125 106 92
-0.07987567 -0.32837778 1.4791791 125 108 91
-0.07867867 -0.32955968 1.4845031 113 98 85
-0.07719416 -0.32955968 1.4845031 112 96 82
-0.07570966 -0.32955968 1.4845031 112 98 90
-0.073958956 -0.32837778 1.4791791 108 97 85
-0.07247978 -0.32837778 1.4791791 119 107 91
-0.07151355 -0.33075017 1.4898655 121 105 87
-0.06977165 -0.32955968 1.4845031 125 109 94
-0.06804224 -0.32837778 1.4791791 127 111 94
-0.06680264 -0.32955968 1.4845031 124 109 95
-0.0648127 -0.32700953 1.4730159 117 102 89
-0.063604705 -0.32837778 1.4791791 115 101 88
-0.062125523 -0.32837778 1.4791791 110 98 89
-0.060646344 -0.32837778 1.4791791 109 96 88
-0.059380125 -0.32955968 1.4845031 110 95 82
-0.057895623 -0.32955968 1.4845031 109 93 76
-0.056208808 -0.32837778 1.4791791 106 92 78
-0.05472963 -0.32837778 1.4791791 98 85 74
-0.053442113 -0.32955968 1.4845031 91 80 69
-0.05195761 -0.32955968 1.4845031 89 76 66
-0.050473105 -0.32955968 1.4845031 84 71 63
-0.048988607 -0.32955968 1.4845031 78 65 58
-0.0475041 -0.32955968 1.4845031 80 67 62
-0.046185832 -0.33075017 1.4898655 82 69 58
-0.044535097 -0.32955968 1.4845031 81 68 57
-0.0432061 -0.33075017 1.4898655 81 67 57
-0.04156609 -0.32955968 1.4845031 82 66 56
-0.040081587 -0.32955968 1.4845031 81 65 57
-0.03859708 -0.32955968 1.4845031 83 68 59
-0.03711258 -0.32955968 1.4845031 82 67 58
-0.035628073 -0.32955968 1.4845031 81 65 57
-0.034266908 -0.33075017 1.4898655 81 66 57
-0.03265907 -0.32955968 1.4845031 86 69 60
-0.031287175 -0.33075017 1.4898655 90 73 64
-0.02979731 -0.33075017 1.4898655 85 69 60
-0.028307445 -0.33075017 1.4898655 91 75 66
-0.026721057 -0.32955968 1.4845031 95 77 70
-0.025236553 -0.32955968 1.4845031 95 77 70
-0.023666866 -0.32837778 1.4791791 95 77 68
-0.022187687 -0.32837778 1.4791791 93 76 69
-0.020708507 -0.32837778 1.4791791 92 77 65
-0.019229328 -0.32837778 1.4791791 96 81 69
-0.01775015 -0.32837778 1.4791791 98 81 69
-0.01627097 -0.32837778 1.4791791 104 87 77
-0.014791792 -0.32837778 1.4791791 121 101 91
-0.013312613 -0.32837778 1.4791791 141 117 105
-0.011833433 -0.32837778 1.4791791 161 137 122
-0.010354253 -0.32837778 1.4791791 167 145 128
-0.008875075 -0.32837778 1.4791791 174 153 135
-0.007395896 -0.32837778 1.4791791 187 165 145
-0.0058710957 -0.3258458 1.4677739 198 171 152
-0.0044033215 -0.3258458 1.4677739 201 176 156
-0.0029460317 -0.32700953 1.4730159 199 175 154
-0.0014730159 -0.32700953 1.4730159 196 171 152
0.0 -0.32837778 1.4791791 209 183 162
0.0014791791 -0.32837778 1.4791791 209 186 163
0.0029583583 -0.32837778 1.4791791 199 176 155
0.0044375374 -0.32837778 1.4791791 209 186 165
0.0059167165 -0.32837778 1.4791791 209 188 166
0.0073650796 -0.32700953 1.4730159 211 188 166
0.008875075 -0.32837778 1.4791791 214 190 169
0.010391522 -0.32955968 1.4845031 210 187 166
0.011876025 -0.32955968 1.4845031 211 188 168
0.013360528 -0.32955968 1.4845031 210 189 169
0.014791792 -0.32837778 1.4791791 211 187 170
0.01627097 -0.32837778 1.4791791 182 162 146
0.01775015 -0.32837778 1.4791791 201 173 154
0.01929854 -0.32955968 1.4845031 194 170 149
0.020783044 -0.32955968 1.4845031 198 173 152
0.022267548 -0.32955968 1.4845031 207 184 161
0.02383785 -0.33075017 1.4898655 211 188 165
0.025327714 -0.33075017 1.4898655 201 178 157
0.026817579 -0.33075017 1.4898655 217 194 169
0.028307445 -0.33075017 1.4898655 215 192 168
0.02979731 -0.33075017 1.4898655 207 184 162
0.031287175 -0.33075017 1.4898655 201 176 155
0.03277704 -0.33075017 1.4898655 202 179 157
0.034266908 -0.33075017 1.4898655 213 189 166
0.035756774 -0.33075017 1.4898655 210 190 166
0.03724664 -0.33075017 1.4898655 216 192 169
0.038736504 -0.33075017 1.4898655 216 195 172
0.040226366 -0.33075017 1.4898655 214 193 170
0.041716237 -0.33075017 1.4898655 220 199 172
0.0432061 -0.33075017 1.4898655 213 192 167
0.044695966 -0.33075017 1.4898655 206 181 159
0.046185832 -0.33075017 1.4898655 206 180 159
0.0476757 -0.33075017 1.4898655 213 189 166
0.04916556 -0.33075017 1.4898655 210 186 162
0.050839074 -0.33194926 1.4952669 211 190 165
0.052334342 -0.33194926 1.4952669 212 190 167
0.05382961 -0.33194926 1.4952669 223 201 178
0.055324875 -0.33194926 1.4952669 214 193 171
0.05661489 -0.33075017 1.4898655 217 196 173
0.058104757 -0.33075017 1.4898655 209 186 163
0.05959462 -0.33075017 1.4898655 215 191 167
0.061084487 -0.33075017 1.4898655 214 190 166
0.06257435 -0.33075017 1.4898655 213 189 166
0.06406422 -0.33075017 1.4898655 218 192 170
0.06555408 -0.33075017 1.4898655 202 178 158
0.06680264 -0.32955968 1.4845031 199 177 155
0.06828715 -0.32955968 1.4845031 213 192 168
0.07002368 -0.33075017 1.4898655 216 195 171
0.07151355 -0.33075017 1.4898655 220 197 173
0.07300341 -0.33075017 1.4898655 222 200 175
0.07449328 -0.33075017 1.4898655 218 197 176
0.07598314 -0.33075017 1.4898655 213 192 173
0.07747301 -0.33075017 1.4898655 210 190 170
0.07896288 -0.33075017 1.4898655 208 185 164
0.08045273 -0.33075017 1.4898655 206 184 161
0.0819426 -0.33075017 1.4898655 195 171 150
0.083734944 -0.33194926 1.4952669 190 166 147
0.08523022 -0.33194926 1.4952669 171 150 132
0.08672548 -0.33194926 1.4952669 163 139 123
0.08790207 -0.33075017 1.4898655 150 129 111
0.08939193 -0.33075017 1.4898655 144 123 105
0.09121128 -0.33194926 1.4952669 138 120 101
0.09270655 -0.33194926 1.4952669 136 118 100
0.09420181 -0.33194926 1.4952669 137 119 98
0.09569708 -0.33194926 1.4952669 135 116 98
0.09754599 -0.33315706 1.5007075 132 114 99
0.09868761 -0.33194926 1.4952669 129 113 96
0.10018288 -0.33194926 1.4952669 127 109 94
0.10167815 -0.33194926 1.4952669 126 107 93
0.10317342 -0.33194926 1.4952669 126 108 93
0.10429059 -0.33075017 1.4898655 123 106 94
0.10616395 -0.33194926 1.4952669 131 114 98
0.10765922 -0.33194926 1.4952669 119 104 90
0.109154485 -0.33194926 1.4952669 115 101 86
0.11064975 -0.33194926 1.4952669 120 104 92
0.11214502 -0.33194926 1.4952669 117 103 90
0.113640286 -0.33194926 1.4952669 125 109 96
0.11513555 -0.33194926 1.4952669 120 103 92
0.11663082 -0.33194926 1.4952669 117 102 90
0.118555896 -0.33315706 1.5007075 119 104 90
0.1200566 -0.33315706 1.5007075 125 110 95
0.1215573 -0.33315706 1.5007075 121 104 90
0.12305801 -0.33315706 1.5007075 116 98 86
0.124558724 -0.33315706 1.5007075 113 97 85
0.12605943 -0.33315706 1.5007075 105 90 79
0.12709768 -0.33194926 1.4952669 107 92 79
0.12859295 -0.33194926 1.4952669 101 83 72
0.13008823 -0.33194926 1.4952669 101 84 73
0.1315835 -0.33194926 1.4952669 105 88 78
0.13307875 -0.33194926 1.4952669 102 81 71
0.13457403 -0.33194926 1.4952669 100 80 71
0.13656437 -0.33315706 1.5007075 98 77 67
0.1380651 -0.33315706 1.5007075 100 79 68
0.1395658 -0.33315706 1.5007075 102 82 72
0.14055508 -0.33194926 1.4952669 102 83 71
0.14256722 -0.33315706 1.5007075 110 91 82
0.14406791 -0.33315706 1.5007075 110 90 81
0.14556864 -0.33315706 1.5007075 99 78 68
0.14706933 -0.33315706 1.5007075 97 77 67
0.14857003 -0.33315706 1.5007075 100 78 70
0.15007076 -0.33315706 1.5007075 101 80 71
0.15212499 -0.3343737 1.5061879 103 81 71
0.15307216 -0.33315706 1.5007075 103 82 70
0.15513736 -0.3343737 1.5061879 110 88 75
0.15664354 -0.3343737 1.5061879 110 89 75
0.15814973 -0.3343737 1.5061879 114 90 78
0.15907499 -0.33315706 1.5007075 107 85 72
0.1605757 -0.33315706 1.5007075 113 90 76
0.16207641 -0.33315706 1.5007075 108 87 70
0.16357712 -0.33315706 1.5007075 117 98 81
0.16447936 -0.33194926 1.4952669 125 103 91
0.16597463 -0.33194926 1.4952669 134 111 98
0.16869305 -0.3343737 1.5061879 132 111 100
0.16957994 -0.33315706 1.5007075 136 115 101
0.17108066 -0.33315706 1.5007075 142 121 108
0.17258136 -0.33315706 1.5007075 140 120 107
0.17408207 -0.33315706 1.5007075 151 129 116
0.17494623 -0.33194926 1.4952669 172 149 132
0.17644149 -0.33194926 1.4952669 173 152 133
0.17793676 -0.33194926 1.4952669 181 159 144
0.17878386 -0.33075017 1.4898655 185 158 143
0.18092729 -0.33194926 1.4952669 180 154 140
0.18176359 -0.33075017 1.4898655 182 158 139
0.18325347 -0.33075017 1.4898655 190 164 145
0.18474333 -0.33075017 1.4898655 168 144 127
0.1855629 -0.32955968 1.4845031 151 131 116
0.18772306 -0.33075017 1.4898655 174 147 130
0.18921292 -0.33075017 1.4898655 181 157 138
0.1907028 -0.33075017 1.4898655 174 155 133
0.1915009 -0.32955968 1.4845031 186 164 145
0.19368252 -0.33075017 1.4898655 192 170 147
0.19517238 -0.33075017 1.4898655 188 168 146
0.19666225 -0.33075017 1.4898655 180 160 139
0.19815211 -0.33075017 1.4898655 177 157 137
0.19964199 -0.33075017 1.4898655 183 160 141
0.20113185 -0.33075017 1.4898655 182 160 139
0.2033563 -0.33194926 1.4952669 179 156 136
0.20485157 -0.33194926 1.4952669 187 162 140
0.20634684 -0.33194926 1.4952669 183 160 139
0.2078421 -0.33194926 1.4952669 179 159 137
0.20933737 -0.33194926 1.4952669 182 160 138
0.21007104 -0.33075017 1.4898655 181 157 135
0.2123279 -0.33194926 1.4952669 179 159 137
0.21382317 -0.33194926 1.4952669 175 156 135
-0.19885716 -0.3079524 1.3809525 249 179 0
-0.19747621 -0.3079524 1.3809525 249 179 0
-0.19609524 -0.3079524 1.3809525 249 179 0
-0.1947143 -0.3079524 1.3809525 249 179 0
-0.19333334 -0.3079524 1.3809525 249 179 0
-0.19195239 -0.3079524 1.3809525 249 179 0
-0.19057144 -0.3079524 1.3809525 249 179 0
-0.18855914 -0.30692473 1.3763441 249 179 0
-0.1871828 -0.30692473 1.3763441 249 179 0
-0.18580645 -0.30692473 1.3763441 249 179 0
-0.18443011 -0.30692473 1.3763441 249 179 0
-0.18305376 -0.30692473 1.3763441 249 179 0
-0.18167742 -0.30692473 1.3763441 249 179 0
-0.18030107 -0.30692473 1.3763441 249 179 0
-0.17892472 -0.30692473 1.3763441 249 179 0
-0.17754838 -0.30692473 1.3763441 251 180 0
-0.1774551 -0.30916002 1.3863679 249 181 0
-0.17606872 -0.30916002 1.3863679 249 181 0
-0.17468236 -0.30916002 1.3863679 249 181 0
-0.17329599 -0.30916002 1.3863679 249 181 0
-0.17190962 -0.30916002 1.3863679 249 181 0
-0.17052326 -0.30916002 1.3863679 250 180 0
-0.16913688 -0.30916002 1.3863679 250 180 0
-0.16775052 -0.30916002 1.3863679 251 181 0
-0.16636415 -0.30916002 1.3863679 251 181 0
-0.16497779 -0.30916002 1.3863679 251 181 0
-0.16359141 -0.30916002 1.3863679 251 182 0
-0.1627521 -0.31020272 1.3910437 251 182 0
-0.16136107 -0.31020272 1.3910437 250 181 0
-0.15997002 -0.31020272 1.3910437 250 181 0
-0.15857898 -0.31020272 1.3910437 250 181 0
-0.15780888 -0.31142816 1.3965389 250 182 0
-0.15694375 -0.3124862 1.4012835 249 182 0
-0.15554246 -0.3124862 1.4012835 251 182 0
-0.15414119 -0.3124862 1.4012835 251 182 0
-0.1527399 -0.3124862 1.4012835 251 182 0
-0.15185456 -0.31355155 1.4060607 251 182 0
-0.1504485 -0.31355155 1.4060607 248 181 0
-0.14904243 -0.31355155 1.4060607 248 179 0
-0.14814138 -0.3146241 1.4108704 232 147 0
-0.14673053 -0.3146241 1.4108704 208 112 0
-0.14590193 -0.31588477 1.4165236 215 109 0
-0.14390878 -0.3146241 1.4108704 210 109 0
-0.14249791 -0.3146241 1.4108704 211 110 0
-0.14214054 -0.3169734 1.4214053 206 117 0
-0.14169577 -0.3191733 1.4312705 206 149 66
-0.14132711 -0.32159132 1.4421135 203 180 150
-0.14037584 -0.32271972 1.4471736 202 177 158
-0.14040662 -0.3261529 1.462569 194 170 148
-0.13943852 -0.32731357 1.4677739 203 177 152
-0.13797075 -0.32731357 1.4677739 204 178 152
-0.13699047 -0.32848254 1.4730159 197 172 148
-0.13551746 -0.32848254 1.4730159 194 171 147
-0.13404445 -0.32848254 1.4730159 193 172 147
-0.13257143 -0.32848254 1.4730159 190 166 142
-0.13164695 -0.32985696 1.4791791 187 164 138
-0.13016777 -0.32985696 1.4791791 184 159 136
-0.12915178 -0.3310442 1.4845031 182 160 138
-0.12766728 -0.3310442 1.4845031 181 159 137
-0.12618276 -0.3310442 1.4845031 168 149 130
-0.12469827 -0.3310442 1.4845031 170 150 130
-0.12321376 -0.3310442 1.4845031 170 148 130
-0.12129269 -0.32985696 1.4791791 167 146 125
-0.12024476 -0.3310442 1.4845031 163 143 123
-0.11876025 -0.3310442 1.4845031 163 140 119
-0.11727575 -0.3310442 1.4845031 162 139 119
-0.11579125 -0.3310442 1.4845031 164 142 122
-0.11430674 -0.3310442 1.4845031 170 145 125
-0.11282224 -0.3310442 1.4845031 163 139 120
-0.111337736 -0.3310442 1.4845031 162 138 119
-0.10985323 -0.3310442 1.4845031 159 135 117
-0.108760186 -0.33224002 1.4898655 153 130 111
-0.107270315 -0.33224002 1.4898655 158 132 112
-0.10539973 -0.3310442 1.4845031 149 124 106
-0.10391522 -0.3310442 1.4845031 139 118 101
-0.102430716 -0.3310442 1.4845031 133 115 93
-0.10094621 -0.3310442 1.4845031 129 112 92
-0.099461704 -0.3310442 1.4845031 132 113 94
-0.09797721 -0.3310442 1.4845031 131 113 94
-0.09614664 -0.32985696 1.4791791 133 113 90
-0.0950082 -0.3310442 1.4845031 131 108 86
-0.093523696 -0.3310442 1.4845031 125 105 92
-0.09203919 -0.3310442 1.4845031 123 106 90
-0.09022993 -0.32985696 1.4791791 125 111 94
-0.08875075 -0.32985696 1.4791791 132 114 97
-0.08690794 -0.32848254 1.4730159 125 108 92
-0.08579239 -0.32985696 1.4791791 125 108 88
-0.08431321 -0.32985696 1.4791791 124 104 86
-0.08283403 -0.32985696 1.4791791 120 104 90
-0.08135485 -0.32985696 1.4791791 126 109 93
-0.07987567 -0.32985696 1.4791791 121 105 89
-0.07839649 -0.32985696 1.4791791 114 99 86
-0.07691731 -0.32985696 1.4791791 115 98 81
-0.075438134 -0.32985696 1.4791791 113 99 88
-0.073958956 -0.32985696 1.4791791 111 98 86
-0.07247978 -0.32985696 1.4791791 120 108 92
-0.07151355 -0.33224002 1.4898655 113 98 81
-0.06952142 -0.32985696 1.4791791 115 101 86
-0.06775873 -0.32848254 1.4730159 128 112 96
-0.06656306 -0.32985696 1.4791791 124 109 95
-0.06508388 -0.32985696 1.4791791 116 102 89
-0.063604705 -0.32985696 1.4791791 113 99 86
-0.062349133 -0.3310442 1.4845031 118 104 90
-0.060864627 -0.3310442 1.4845031 110 97 87
-0.05916717 -0.32985696 1.4791791 109 96 85
-0.057687987 -0.32985696 1.4791791 107 89 81
-0.05641112 -0.3310442 1.4845031 108 93 81
-0.05472963 -0.32985696 1.4791791 108 94 80
-0.05325045 -0.32985696 1.4791791 97 86 72
-0.051771272 -0.32985696 1.4791791 90 77 67
-0.05029209 -0.32985696 1.4791791 87 74 65
-0.04881291 -0.32985696 1.4791791 86 74 66
-0.047136508 -0.32848254 1.4730159 82 69 62
-0.045854554 -0.32985696 1.4791791 88 74 64
-0.044375375 -0.32985696 1.4791791 82 68 58
-0.042896196 -0.32985696 1.4791791 83 68 58
-0.041417014 -0.32985696 1.4791791 85 70 60
-0.039937835 -0.32985696 1.4791791 84 68 59
-0.03859708 -0.3310442 1.4845031 86 72 62
-0.03711258 -0.3310442 1.4845031 87 73 62
-0.035628073 -0.3310442 1.4845031 87 73 64
-0.034143575 -0.3310442 1.4845031 87 72 62
-0.03265907 -0.3310442 1.4845031 87 72 62
-0.031174567 -0.3310442 1.4845031 91 76 66
-0.029690063 -0.3310442 1.4845031 89 72 63
-0.028104404 -0.32985696 1.4791791 90 75 65
-0.026625225 -0.32985696 1.4791791 94 76 68
-0.025146045 -0.32985696 1.4791791 94 76 68
-0.023484383 -0.32731357 1.4677739 94 76 69
-0.022095237 -0.32848254 1.4730159 94 77 70
-0.020622224 -0.32848254 1.4730159 91 75 64
-0.019149207 -0.32848254 1.4730159 92 76 65
-0.017613286 -0.32731357 1.4677739 92 75 65
-0.016203174 -0.32848254 1.4730159 91 73 62
-0.014677739 -0.32731357 1.4677739 104 85 74
-0.013257143 -0.32848254 1.4730159 114 97 86
-0.011784127 -0.32848254 1.4730159 136 116 102
-0.010274418 -0.32731357 1.4677739 157 136 118
-0.008838096 -0.32848254 1.4730159 166 145 127
-0.007395896 -0.32985696 1.4791791 184 161 142
-0.0059167165 -0.32985696 1.4791791 192 168 149
-0.004419048 -0.32848254 1.4730159 186 165 146
-0.0029460317 -0.32848254 1.4730159 183 161 143
-0.0014730159 -0.32848254 1.4730159 171 149 132
0.0 -0.32848254 1.4730159 200 176 156
0.0014730159 -0.32848254 1.4730159 204 181 160
0.0029355478 -0.32731357 1.4677739 199 178 155
0.0044033215 -0.32731357 1.4677739 212 189 167
0.0058920635 -0.32848254 1.4730159 210 187 166
0.0073650796 -0.32848254 1.4730159 211 191 169
0.008838096 -0.32848254 1.4730159 215 194 172
0.010311112 -0.32848254 1.4730159 211 193 169
0.011833433 -0.32985696 1.4791791 210 190 169
0.013312613 -0.32985696 1.4791791 205 188 166
0.014791792 -0.32985696 1.4791791 193 169 151
0.01627097 -0.32985696 1.4791791 176 155 138
0.017814036 -0.3310442 1.4845031 198 173 152
0.01929854 -0.3310442 1.4845031 198 175 154
0.020708507 -0.32985696 1.4791791 206 180 159
0.022187687 -0.32985696 1.4791791 207 184 161
0.02375205 -0.3310442 1.4845031 210 185 162
0.025146045 -0.32985696 1.4791791 216 190 167
0.026625225 -0.32985696 1.4791791 212 187 164
0.02820556 -0.3310442 1.4845031 214 193 169
0.029690063 -0.3310442 1.4845031 215 191 168
0.031174567 -0.3310442 1.4845031 210 184 162
0.03265907 -0.3310442 1.4845031 195 170 151
0.034143575 -0.3310442 1.4845031 191 167 149
0.035628073 -0.3310442 1.4845031 211 187 164
0.03711258 -0.3310442 1.4845031 198 177 155
0.03859708 -0.3310442 1.4845031 216 190 168
0.040081587 -0.3310442 1.4845031 220 195 172
0.04156609 -0.3310442 1.4845031 214 190 166
0.04305059 -0.3310442 1.4845031 211 189 165
0.044535097 -0.3310442 1.4845031 207 184 161
0.046185832 -0.33224002 1.4898655 199 177 155
0.0476757 -0.33224002 1.4898655 214 189 165
0.048988607 -0.3310442 1.4845031 206 180 157
0.050473105 -0.3310442 1.4845031 207 182 158
0.05195761 -0.3310442 1.4845031 208 185 161
0.053442113 -0.3310442 1.4845031 209 189 167
0.054926615 -0.3310442 1.4845031 215 197 174
0.05661489 -0.33224002 1.4898655 220 202 177
0.058104757 -0.33224002 1.4898655 215 193 170
0.05959462 -0.33224002 1.4898655 215 191 167
0.060864627 -0.3310442 1.4845031 212 190 165
0.062349133 -0.3310442 1.4845031 221 197 173
0.06383364 -0.3310442 1.4845031 220 195 172
0.06531814 -0.3310442 1.4845031 202 180 159
0.06680264 -0.3310442 1.4845031 203 180 159
0.06828715 -0.3310442 1.4845031 216 193 170
0.06977165 -0.3310442 1.4845031 213 190 168
0.071256146 -0.3310442 1.4845031 208 185 164
0.07274065 -0.3310442 1.4845031 220 196 173
0.07422516 -0.3310442 1.4845031 223 198 176
0.07570966 -0.3310442 1.4845031 220 197 175
0.07719416 -0.3310442 1.4845031 212 189 169
0.07867867 -0.3310442 1.4845031 206 183 163
0.08016317 -0.3310442 1.4845031 195 173 152
0.08164767 -0.3310442 1.4845031 193 169 150
0.08313218 -0.3310442 1.4845031 192 168 148
0.084616676 -0.3310442 1.4845031 178 154 135
0.08610118 -0.3310442 1.4845031 161 142 123
0.08790207 -0.33224002 1.4898655 151 129 110
0.08939193 -0.33224002 1.4898655 142 121 102
0.09055469 -0.3310442 1.4845031 139 119 99
0.09203919 -0.3310442 1.4845031 139 121 100
0.093523696 -0.3310442 1.4845031 138 121 100
0.0953514 -0.33224002 1.4898655 139 120 101
0.097192355 -0.3334445 1.4952669 131 114 98
0.09833112 -0.33224002 1.4898655 129 113 96
0.099820994 -0.33224002 1.4898655 130 112 96
0.10167815 -0.3334445 1.4952669 125 107 92
0.10317342 -0.3334445 1.4952669 122 105 91
0.104668684 -0.3334445 1.4952669 125 107 94
0.10616395 -0.3334445 1.4952669 128 111 96
0.10765922 -0.3334445 1.4952669 120 105 91
0.109154485 -0.3334445 1.4952669 118 103 88
0.11064975 -0.3334445 1.4952669 123 105 94
0.11214502 -0.3334445 1.4952669 121 105 94
0.113640286 -0.3334445 1.4952669 124 108 95
0.11513555 -0.3334445 1.4952669 113 98 87
0.117055185 -0.3346578 1.5007075 121 104 92
0.11812609 -0.3334445 1.4952669 125 108 94
0.11962135 -0.3334445 1.4952669 124 108 94
0.1215573 -0.3346578 1.5007075 119 101 88
0.12305801 -0.3346578 1.5007075 116 99 87
0.12410715 -0.3334445 1.4952669 115 99 87
0.12560242 -0.3334445 1.4952669 117 100 89
0.12709768 -0.3334445 1.4952669 115 100 87
0.12859295 -0.3334445 1.4952669 111 95 83
0.13008823 -0.3334445 1.4952669 107 90 80
0.1315835 -0.3334445 1.4952669 112 95 85
0.13307875 -0.3334445 1.4952669 106 89 77
0.13457403 -0.3334445 1.4952669 106 85 76
0.13606928 -0.3334445 1.4952669 102 81 71
0.13756455 -0.3334445 1.4952669 105 83 72
0.13905983 -0.3334445 1.4952669 104 85 75
0.14055508 -0.3334445 1.4952669 108 90 79
0.14205036 -0.3334445 1.4952669 113 93 82
0.14354563 -0.3334445 1.4952669 113 91 80
0.1450409 -0.3334445 1.4952669 100 79 68
0.14653616 -0.3334445 1.4952669 97 75 68
0.14803141 -0.3334445 1.4952669 102 81 70
0.14952669 -0.3334445 1.4952669 105 83 72
0.15157145 -0.3346578 1.5007075 106 85 75
0.15307216 -0.3346578 1.5007075 105 85 73
0.15457287 -0.3346578 1.5007075 126 102 89
0.15607359 -0.3346578 1.5007075 113 91 77
0.1575743 -0.3346578 1.5007075 106 86 72
0.15907499 -0.3346578 1.5007075 109 85 74
0.1605757 -0.3346578 1.5007075 107 83 70
0.16148883 -0.3334445 1.4952669 111 92 76
0.1629841 -0.3334445 1.4952669 109 93 78
0.16447936 -0.3334445 1.4952669 126 105 92
0.16597463 -0.3334445 1.4952669 142 119 104
0.16807924 -0.3346578 1.5007075 136 114 102
0.16957994 -0.3346578 1.5007075 138 116 103
0.17108066 -0.3346578 1.5007075 138 117 105
0.17195569 -0.3334445 1.4952669 144 122 109
0.17345096 -0.3334445 1.4952669 157 134 119
0.17494623 -0.3334445 1.4952669 164 140 125
0.17644149 -0.3334445 1.4952669 161 139 122
0.177294 -0.33224002 1.4898655 172 151 138
0.17878386 -0.33224002 1.4898655 183 158 142
0.18027373 -0.33224002 1.4898655 190 163 147
0.18176359 -0.33224002 1.4898655 195 168 151
0.18259388 -0.3310442 1.4845031 191 169 148
0.18407838 -0.3310442 1.4845031 198 172 151
0.1855629 -0.3310442 1.4845031 164 141 124
0.18704739 -0.3310442 1.4845031 156 131 117
0.1885319 -0.3310442 1.4845031 176 152 134
0.1900164 -0.3310442 1.4845031 189 164 143
0.19081411 -0.32985696 1.4791791 187 165 145
0.19298542 -0.3310442 1.4845031 185 163 142
0.19446991 -0.3310442 1.4845031 189 168 147
0.19595443 -0.3310442 1.4845031 187 167 146
0.19743893 -0.3310442 1.4845031 177 155 137
0.19892341 -0.3310442 1.4845031 169 147 131
0.20113185 -0.33224002 1.4898655 175 151 133
0.2033563 -0.3334445 1.4952669 175 152 133
0.20485157 -0.3334445 1.4952669 182 160 138
0.20634684 -0.3334445 1.4952669 180 156 136
0.2078421 -0.3334445 1.4952669 179 156 135
0.20933737 -0.3334445 1.4952669 180 158 136
0.21007104 -0.33224002 1.4898655 183 160 138
0.2123279 -0.3334445 1.4952669 185 163 140
0.21382317 -0.3334445 1.4952669 186 163 141
-0.19885716 -0.30933335 1.3809525 249 179 0
-0.19747621 -0.30933335 1.3809525 249 179 0
-0.19544086 -0.3083011 1.3763441 249 179 0
-0.19406451 -0.3083011 1.3763441 249 179 0
-0.19268817 -0.3083011 1.3763441 249 179 0
-0.19131182 -0.3083011 1.3763441 249 179 0
-0.18993549 -0.3083011 1.3763441 249 179 0
-0.18855914 -0.3083011 1.3763441 249 179 0
-0.1871828 -0.3083011 1.3763441 249 179 0
-0.18580645 -0.3083011 1.3763441 249 179 0
-0.18443011 -0.3083011 1.3763441 249 179 0
-0.18305376 -0.3083011 1.3763441 249 179 0
-0.18167742 -0.3083011 1.3763441 249 179 0
-0.18030107 -0.3083011 1.3763441 249 179 0
-0.17892472 -0.3083011 1.3763441 249 179 0
-0.17754838 -0.3083011 1.3763441 251 180 0
-0.17676191 -0.30933335 1.3809525 249 181 0
-0.17538096 -0.30933335 1.3809525 249 181 0
-0.17468236 -0.31054643 1.3863679 249 181 0
-0.17329599 -0.31054643 1.3863679 249 181 0
-0.17190962 -0.31054643 1.3863679 251 180 0
-0.17052326 -0.31054643 1.3863679 251 180 0
-0.16970733 -0.31159377 1.3910437 251 180 0
-0.16831629 -0.31159377 1.3910437 250 180 0
-0.16636415 -0.31054643 1.3863679 249 181 0
-0.16497779 -0.31054643 1.3863679 249 181 0
-0.16359141 -0.31054643 1.3863679 251 182 0
-0.1627521 -0.31159377 1.3910437 251 182 0
-0.16136107 -0.31159377 1.3910437 251 182 0
-0.16060197 -0.3128247 1.3965389 251 182 0
-0.15857898 -0.31159377 1.3910437 251 182 0
-0.15718792 -0.31159377 1.3910437 251 182 0
-0.15694375 -0.3138875 1.4012835 251 182 0
-0.15554246 -0.3138875 1.4012835 251 182 0
-0.15414119 -0.3138875 1.4012835 251 182 0
-0.1527399 -0.3138875 1.4012835 251 182 0
-0.15185456 -0.3149576 1.4060607 249 182 0
-0.1504485 -0.3149576 1.4060607 246 180 0
-0.14904243 -0.3149576 1.4060607 242 164 0
-0.14814138 -0.31603497 1.4108704 208 117 0
-0.14623031 -0.3149576 1.4060607 212 109 0
-0.14531966 -0.31603497 1.4108704 215 109 0
-0.14390878 -0.31603497 1.4108704 211 109 0
-0.14249791 -0.31603497 1.4108704 210 110 0
-0.14165236 -0.31730127 1.4165236 206 117 0
-0.14169577 -0.3206046 1.4312705 210 152 73
-0.1408347 -0.32190788 1.4370887 204 181 158
-0.14037584 -0.32416686 1.4471736 202 177 162
-0.13941784 -0.3253083 1.4522692 197 176 151
-0.13894406 -0.32761544 1.462569 206 179 151
-0.1374815 -0.32761544 1.462569 200 174 148
-0.13601892 -0.32761544 1.462569 201 176 152
-0.1350352 -0.32878137 1.4677739 199 176 151
-0.13356742 -0.32878137 1.4677739 193 171 149
-0.13257143 -0.32995558 1.4730159 190 168 143
-0.13109842 -0.32995558 1.4730159 183 159 136
-0.13016777 -0.3313361 1.4791791 188 162 143
-0.12868859 -0.3313361 1.4791791 195 170 144
-0.12766728 -0.3325287 1.4845031 185 165 142
-0.12573023 -0.3313361 1.4791791 185 162 141
-0.124251045 -0.3313361 1.4791791 181 159 137
-0.12277187 -0.3313361 1.4791791 174 152 132
-0.12078731 -0.32995558 1.4730159 166 145 127
-0.11981351 -0.3313361 1.4791791 173 151 131
-0.11833434 -0.3313361 1.4791791 182 158 138
-0.11727575 -0.3325287 1.4845031 177 153 132
-0.11537597 -0.3313361 1.4791791 171 150 131
-0.113896795 -0.3313361 1.4791791 172 153 133
-0.112417616 -0.3313361 1.4791791 176 154 134
-0.11093844 -0.3313361 1.4791791 163 143 124
-0.10945926 -0.3313361 1.4791791 165 143 124
-0.10798008 -0.3313361 1.4791791 167 143 124
-0.106884226 -0.3325287 1.4845031 162 137 117
-0.10539973 -0.3325287 1.4845031 144 122 105
-0.10391522 -0.3325287 1.4845031 147 124 107
-0.102430716 -0.3325287 1.4845031 138 120 98
-0.10058418 -0.3313361 1.4791791 128 113 94
-0.099105 -0.3313361 1.4791791 129 112 95
-0.09762582 -0.3313361 1.4791791 126 109 92
-0.09614664 -0.3313361 1.4791791 134 114 94
-0.094667464 -0.3313361 1.4791791 130 109 90
-0.093188286 -0.3313361 1.4791791 130 109 94
-0.09170911 -0.3313361 1.4791791 126 110 93
-0.09022993 -0.3313361 1.4791791 127 112 95
-0.08907019 -0.3325287 1.4845031 128 109 94
-0.08727157 -0.3313361 1.4791791 125 105 89
-0.08579239 -0.3313361 1.4791791 128 107 88
-0.08431321 -0.3313361 1.4791791 123 105 87
-0.08283403 -0.3313361 1.4791791 128 111 92
-0.08135485 -0.3313361 1.4791791 128 111 92
-0.07987567 -0.3313361 1.4791791 137 117 97
-0.07839649 -0.3313361 1.4791791 130 113 96
-0.07691731 -0.3313361 1.4791791 115 101 85
-0.075438134 -0.3313361 1.4791791 119 103 90
-0.073388696 -0.32878137 1.4677739 118 103 88
-0.071920924 -0.32878137 1.4677739 122 107 93
-0.0710006 -0.3313361 1.4791791 122 105 90
-0.06923175 -0.32995558 1.4730159 117 103 89
-0.06804224 -0.3313361 1.4791791 123 109 92
-0.06656306 -0.3313361 1.4791791 122 107 91
-0.0648127 -0.32995558 1.4730159 122 106 92
-0.06333968 -0.32995558 1.4730159 117 102 89
-0.061866667 -0.32995558 1.4730159 118 105 89
-0.060393654 -0.32995558 1.4730159 116 103 91
-0.058920637 -0.32995558 1.4730159 113 99 87
-0.05744762 -0.32995558 1.4730159 110 95 87
-0.056208808 -0.3313361 1.4791791 112 97 87
-0.054501586 -0.32995558 1.4730159 108 94 80
-0.053028572 -0.32995558 1.4730159 103 91 75
-0.05155556 -0.32995558 1.4730159 97 83 77
-0.050082542 -0.32995558 1.4730159 90 76 68
-0.048609525 -0.32995558 1.4730159 86 71 63
-0.047136508 -0.32995558 1.4730159 87 73 65
-0.045663495 -0.32995558 1.4730159 85 72 62
-0.044375375 -0.3313361 1.4791791 83 70 60
-0.042896196 -0.3313361 1.4791791 81 68 57
-0.041417014 -0.3313361 1.4791791 87 74 62
-0.039937835 -0.3313361 1.4791791 88 74 64
-0.038458657 -0.3313361 1.4791791 86 73 62
-0.036979478 -0.3313361 1.4791791 88 74 63
-0.0355003 -0.3313361 1.4791791 90 76 66
-0.034143575 -0.3325287 1.4845031 88 74 64
-0.03265907 -0.3325287 1.4845031 89 73 64
-0.031062761 -0.3313361 1.4791791 93 77 67
-0.029583585 -0.3313361 1.4791791 90 75 65
-0.027987303 -0.32995558 1.4730159 90 75 65
-0.026514286 -0.32995558 1.4730159 95 78 68
-0.025146045 -0.3313361 1.4791791 96 80 72
-0.023568254 -0.32995558 1.4730159 94 77 69
-0.022095237 -0.32995558 1.4730159 93 76 69
-0.020622224 -0.32995558 1.4730159 94 78 67
-0.019149207 -0.32995558 1.4730159 96 80 68
-0.017676191 -0.32995558 1.4730159 99 81 71
-0.016203174 -0.32995558 1.4730159 102 83 74
-0.014730159 -0.32995558 1.4730159 105 88 77
-0.013312613 -0.3313361 1.4791791 109 92 80
-0.011784127 -0.32995558 1.4730159 121 103 90
-0.010311112 -0.32995558 1.4730159 142 121 106
-0.008838096 -0.32995558 1.4730159 152 131 115
-0.0073388694 -0.32878137 1.4677739 164 143 128
-0.0058920635 -0.32995558 1.4730159 169 147 133
-0.004419048 -0.32995558 1.4730159 179 157 139
-0.0029355478 -0.32878137 1.4677739 206 179 160
-0.0014677739 -0.32878137 1.4677739 196 170 152
0.0 -0.32995558 1.4730159 180 156 139
0.0014677739 -0.32878137 1.4677739 182 160 142
0.0029355478 -0.32878137 1.4677739 201 177 156
0.0044033215 -0.32878137 1.4677739 212 191 169
0.0058710957 -0.32878137 1.4677739 206 186 165
0.0073388694 -0.32878137 1.4677739 213 192 169
0.008806643 -0.32878137 1.4677739 215 193 171
0.010274418 -0.32878137 1.4677739 215 193 171
0.011784127 -0.32995558 1.4730159 213 191 170
0.013257143 -0.32995558 1.4730159 207 187 164
0.014730159 -0.32995558 1.4730159 186 164 143
0.01627097 -0.3313361 1.4791791 165 145 125
0.01775015 -0.3313361 1.4791791 184 161 142
