ply
format ascii 1.0
element vertex 1084
property float32 x
property float32 y
property float32 z
property uchar red
property uchar green
property uchar blue
element face 0
property list uint8 int32 vertex_indices
end_header
-0.22358832 -0.21056375 2.1707604 211 181 146
-0.22141756 -0.21056375 2.1707604 213 187 164
-0.21924679 -0.21056375 2.1707604 216 192 172
-0.21707603 -0.21056375 2.1707604 215 191 170
-0.21490528 -0.21056375 2.1707604 214 191 171
-0.21106818 -0.20891441 2.1537569 211 188 167
-0.20891441 -0.20891441 2.1537569 213 191 167
-0.20839301 -0.21056375 2.1707604 216 192 170
-0.2046069 -0.20891441 2.1537569 218 194 170
-0.20245314 -0.20891441 2.1537569 217 196 169
-0.19857118 -0.20711188 2.135174 217 196 171
-0.1957604 -0.20639956 2.1278305 215 197 172
-0.1897175 -0.20222634 2.0848076 210 190 168
-0.17092863 -0.18422309 1.899207 178 166 153
-0.15543072 -0.16940202 1.7464126 143 137 128
-0.14967056 -0.16497779 1.7008018 148 145 132
-0.14796975 -0.16497779 1.7008018 145 144 130
-0.14677332 -0.16554667 1.7066667 141 145 131
-0.14506666 -0.16554667 1.7066667 140 142 129
-0.14336 -0.16554667 1.7066667 141 144 131
-0.14116655 -0.16497779 1.7008018 140 145 130
-0.13946576 -0.16497779 1.7008018 144 148 135
-0.13719918 -0.16430025 1.693817 142 148 135
-0.13606414 -0.16497779 1.7008018 141 149 135
-0.13381153 -0.16430025 1.693817 142 149 137
-0.13211772 -0.16430025 1.693817 145 151 140
-0.1304239 -0.16430025 1.693817 146 154 142
-0.12873009 -0.16430025 1.693817 151 156 145
-0.12703627 -0.16430025 1.693817 153 157 147
-0.12491496 -0.16373989 1.68804 151 158 147
-0.12322692 -0.16373989 1.68804 153 160 148
-0.12153888 -0.16373989 1.68804 152 161 149
-0.11985084 -0.16373989 1.68804 155 162 150
-0.1181628 -0.16373989 1.68804 154 164 150
-0.11647476 -0.16373989 1.68804 160 166 155
-0.11478672 -0.16373989 1.68804 160 167 157
-0.11309868 -0.16373989 1.68804 162 167 158
-0.11141065 -0.16373989 1.68804 165 167 158
-0.1097226 -0.16373989 1.68804 164 169 158
-0.108404286 -0.16430025 1.693817 164 171 160
-0.10671047 -0.16430025 1.693817 166 171 160
-0.105016656 -0.16430025 1.693817 166 171 160
-0.10374892 -0.16497779 1.7008018 166 171 159
-0.102048114 -0.16497779 1.7008018 166 171 159
-0.1003473 -0.16497779 1.7008018 166 171 159
-0.09864651 -0.16497779 1.7008018 166 171 159
-0.097279996 -0.16554667 1.7066667 165 171 157
-0.095573336 -0.16554667 1.7066667 156 161 148
-0.094584204 -0.16681215 1.7197129 140 133 122
-0.0978989 -0.17585544 1.8129426 116 90 84
-0.09951239 -0.18212645 1.8775923 104 57 50
-0.09763481 -0.18212645 1.8775923 103 50 43
-0.09612186 -0.18282 1.8847424 95 43 41
-0.09387962 -0.18212645 1.8775923 85 41 35
-0.092352375 -0.18282 1.8847424 79 39 28
-0.09116194 -0.18422309 1.899207 102 60 50
-0.089606576 -0.18493272 1.9065229 106 58 48
-0.087700054 -0.18493272 1.9065229 108 59 47
-0.085793525 -0.18493272 1.9065229 109 59 47
-0.08356511 -0.18422309 1.899207 111 63 50
-0.081353724 -0.18351886 1.891947 107 59 48
-0.07976669 -0.18422309 1.899207 105 57 48
-0.07816743 -0.18493272 1.9065229 103 57 48
-0.07655582 -0.18564786 1.9138954 101 55 49
-0.07464192 -0.18564786 1.9138954 95 51 45
-0.07272803 -0.18564786 1.9138954 76 42 33
-0.07108903 -0.18636853 1.9213251 64 33 25
-0.06970892 -0.18782681 1.9363589 82 47 39
-0.067508444 -0.18709484 1.9288127 93 50 46
-0.06532505 -0.18636853 1.9213251 94 49 44
-0.063403726 -0.18636853 1.9213251 92 46 40
-0.061722007 -0.18709484 1.9288127 92 46 40
-0.059793193 -0.18709484 1.9288127 93 50 42
-0.05809077 -0.18782681 1.9363589 91 49 42
-0.05593557 -0.18709484 1.9288127 88 46 43
-0.054006755 -0.18709484 1.9288127 86 45 41
-0.052281693 -0.18782681 1.9363589 86 43 39
-0.05034533 -0.18782681 1.9363589 85 43 40
-0.048599113 -0.18856455 1.9439645 78 37 33
-0.04665515 -0.18856455 1.9439645 74 35 33
-0.04471118 -0.18856455 1.9439645 73 36 34
-0.04276722 -0.18856455 1.9439645 76 40 37
-0.040663537 -0.18782681 1.9363589 69 34 32
-0.03872718 -0.18782681 1.9363589 66 32 30
-0.036935326 -0.18856455 1.9439645 68 36 33
-0.03485446 -0.18782681 1.9363589 64 34 33
-0.032918103 -0.18782681 1.9363589 62 31 30
-0.031103432 -0.18856455 1.9439645 64 31 32
-0.029159468 -0.18856455 1.9439645 68 34 33
-0.027215503 -0.18856455 1.9439645 73 37 37
-0.025271539 -0.18856455 1.9439645 74 37 36
-0.023419559 -0.1893081 1.9516299 74 37 36
-0.02138361 -0.18856455 1.9439645 77 39 37
-0.019439643 -0.18856455 1.9439645 79 40 38
-0.01749568 -0.18856455 1.9439645 79 39 36
-0.015551716 -0.18856455 1.9439645 80 41 39
-0.013607752 -0.18856455 1.9439645 80 42 39
-0.011663787 -0.18856455 1.9439645 81 41 39
-0.009719822 -0.18856455 1.9439645 81 40 38
-0.007775858 -0.18856455 1.9439645 81 40 37
-0.0058318935 -0.18856455 1.9439645 81 42 37
-0.003887929 -0.18856455 1.9439645 81 42 37
-0.0019439645 -0.18856455 1.9439645 79 41 36
0.0 -0.1893081 1.9516299 67 36 33
0.0019516299 -0.1893081 1.9516299 57 27 23
0.0039032598 -0.1893081 1.9516299 57 27 23
0.0058548898 -0.1893081 1.9516299 64 34 31
0.0078065195 -0.1893081 1.9516299 64 33 30
0.009758149 -0.1893081 1.9516299 62 30 27
0.0117097795 -0.1893081 1.9516299 68 34 32
0.01366141 -0.1893081 1.9516299 75 39 38
0.015613039 -0.1893081 1.9516299 78 40 37
0.01756467 -0.1893081 1.9516299 80 41 36
0.019516299 -0.1893081 1.9516299 78 41 36
0.021467928 -0.1893081 1.9516299 78 41 35
0.023419559 -0.1893081 1.9516299 77 40 35
0.025371188 -0.1893081 1.9516299 80 43 37
0.02732282 -0.1893081 1.9516299 82 43 38
0.029274449 -0.1893081 1.9516299 83 42 36
0.031103432 -0.18856455 1.9439645 87 45 37
0.033047397 -0.18856455 1.9439645 93 49 40
0.03499136 -0.18856455 1.9439645 95 49 42
0.036935326 -0.18856455 1.9439645 97 51 43
0.038879286 -0.18856455 1.9439645 96 50 42
0.040663537 -0.18782681 1.9363589 96 50 42
0.042599894 -0.18782681 1.9363589 97 51 43
0.04471118 -0.18856455 1.9439645 96 49 42
0.046472613 -0.18782681 1.9363589 96 51 43
0.048408974 -0.18782681 1.9363589 100 55 47
0.05034533 -0.18782681 1.9363589 104 60 51
0.052281693 -0.18782681 1.9363589 103 57 47
0.054218046 -0.18782681 1.9363589 103 56 45
0.056154408 -0.18782681 1.9363589 108 59 51
0.057864383 -0.18709484 1.9288127 113 62 55
0.059793193 -0.18709484 1.9288127 124 71 63
0.061722007 -0.18709484 1.9288127 145 83 76
0.063650824 -0.18709484 1.9288127 155 89 79
0.06557964 -0.18709484 1.9288127 159 92 82
0.067508444 -0.18709484 1.9288127 171 100 88
0.06943726 -0.18709484 1.9288127 176 105 91
0.07136607 -0.18709484 1.9288127 182 106 92
0.073294885 -0.18709484 1.9288127 182 105 89
0.07522369 -0.18709484 1.9288127 173 101 87
0.07715251 -0.18709484 1.9288127 167 98 84
0.07908132 -0.18709484 1.9288127 170 99 84
0.08101013 -0.18709484 1.9288127 180 106 95
0.08293895 -0.18709484 1.9288127 188 108 99
0.08486776 -0.18709484 1.9288127 195 113 104
0.08679657 -0.18709484 1.9288127 203 122 110
0.08838095 -0.18636853 1.9213251 227 135 120
0.08995308 -0.18564786 1.9138954 239 143 125
0.0915131 -0.18493272 1.9065229 179 114 99
0.092705406 -0.18351886 1.891947 93 48 36
0.09138356 -0.1772841 1.8276712 141 89 85
0.08970007 -0.17060602 1.758825 217 163 146
0.089115426 -0.16623454 1.7137581 208 180 160
0.0897723 -0.16430025 1.693817 126 124 115
0.09115416 -0.16373989 1.68804 122 125 117
0.09315994 -0.16430025 1.693817 123 129 119
0.094144925 -0.16307247 1.6811595 122 126 115
0.09582609 -0.16307247 1.6811595 123 128 116
0.097507246 -0.16307247 1.6811595 121 129 117
0.09885263 -0.16252044 1.6754683 119 126 117
0.100869566 -0.16307247 1.6811595 117 124 114
0.10220357 -0.16252044 1.6754683 119 126 117
0.103879035 -0.16252044 1.6754683 121 128 120
0.10512745 -0.16186288 1.6686896 125 132 123
0.10679614 -0.16186288 1.6686896 124 131 122
0.10846482 -0.16186288 1.6686896 123 128 122
0.110133514 -0.16186288 1.6686896 120 127 120
0.1118022 -0.16186288 1.6686896 119 126 117
0.1134709 -0.16186288 1.6686896 123 130 121
0.11513958 -0.16186288 1.6686896 131 139 129
0.11641577 -0.161319 1.6630825 131 141 131
0.11807886 -0.161319 1.6630825 135 144 135
0.11974194 -0.161319 1.6630825 148 156 146
0.12140502 -0.161319 1.6630825 144 151 142
0.12348303 -0.16186288 1.6686896 152 160 151
0.12515172 -0.16186288 1.6686896 163 174 160
0.12682042 -0.16186288 1.6686896 169 179 167
0.12805736 -0.161319 1.6630825 175 183 174
0.12972043 -0.161319 1.6630825 170 178 167
0.13138351 -0.161319 1.6630825 175 184 173
0.13251227 -0.16067113 1.6564034 181 188 177
0.13516386 -0.16186288 1.6686896 184 192 180
0.13683255 -0.16186288 1.6686896 185 190 174
0.13906388 -0.16252044 1.6754683 183 186 169
0.13969892 -0.161319 1.6630825 173 170 155
0.1434834 -0.16373989 1.68804 159 153 140
0.14517145 -0.16373989 1.68804 152 140 129
0.14626087 -0.16307247 1.6811595 153 141 127
0.15837866 -0.17457649 1.7997576 200 178 158
0.18415162 -0.20070459 2.0691195 224 200 175
0.19150475 -0.20639956 2.1278305 218 197 173
0.19514269 -0.20800924 2.1444252 221 197 174
0.19883786 -0.20964427 2.161281 225 200 175
0.20188072 -0.21056375 2.1707604 222 200 175
0.20640521 -0.2129926 2.1958 224 202 177
0.20694837 -0.21130517 2.1784039 221 198 174
0.2100513 -0.21223934 2.1880343 222 197 175
0.21223934 -0.21223934 2.1880343 224 196 174
0.2151884 -0.2129926 2.1958 225 198 175
0.2173842 -0.2129926 2.1958 225 201 179
0.21958 -0.2129926 2.1958 223 198 176
0.2217758 -0.2129926 2.1958 222 195 171
0.2239716 -0.2129926 2.1958 214 191 167
0.22717528 -0.21394177 2.2055852 217 190 167
0.22938086 -0.21394177 2.2055852 216 192 168
0.23158646 -0.21394177 2.2055852 216 192 166
0.23379204 -0.21394177 2.2055852 215 191 166
0.23599762 -0.21394177 2.2055852 225 199 173
0.2382032 -0.21394177 2.2055852 217 193 167
0.2404088 -0.21394177 2.2055852 217 192 167
0.24261437 -0.21394177 2.2055852 219 191 166
0.24481997 -0.21394177 2.2055852 217 190 167
0.24813132 -0.21489945 2.2154582 219 192 169
0.25034678 -0.21489945 2.2154582 219 194 171
0.25256222 -0.21489945 2.2154582 217 193 171
0.2547777 -0.21489945 2.2154582 220 193 171
0.25699314 -0.21489945 2.2154582 221 196 174
0.25920862 -0.21489945 2.2154582 219 195 173
0.26142406 -0.21489945 2.2154582 220 195 173
0.26363954 -0.21489945 2.2154582 218 193 173
0.26585498 -0.21489945 2.2154582 220 195 173
0.26807043 -0.21489945 2.2154582 217 190 170
0.27028587 -0.21489945 2.2154582 212 188 167
0.27250135 -0.21489945 2.2154582 212 188 165
0.2747168 -0.21489945 2.2154582 214 187 167
0.27693227 -0.21489945 2.2154582 215 189 167
0.27914774 -0.21489945 2.2154582 220 193 170
0.2813632 -0.21489945 2.2154582 221 193 174
0.28357863 -0.21489945 2.2154582 221 195 173
0.2868212 -0.21567175 2.2234201 217 193 172
0.28904462 -0.21567175 2.2234201 216 192 172
0.29126805 -0.21567175 2.2234201 218 191 176
0.29349145 -0.21567175 2.2234201 223 197 181
0.29571488 -0.21567175 2.2234201 221 197 178
0.2979383 -0.21567175 2.2234201 223 196 178
0.30016172 -0.21567175 2.2234201 223 198 179
0.30374968 -0.21664502 2.2334538 222 197 178
0.30598316 -0.21664502 2.2334538 222 195 177
0.3082166 -0.21664502 2.2334538 219 195 175
0.31045008 -0.21664502 2.2334538 222 198 179
0.31268352 -0.21664502 2.2334538 222 197 180
0.314917 -0.21664502 2.2334538 221 197 178
0.3171504 -0.21664502 2.2334538 223 198 179
0.3193839 -0.21664502 2.2334538 222 199 179
-0.31619522 -0.2151884 2.1958 212 122 90
-0.3139994 -0.2151884 2.1958 208 120 89
-0.3118036 -0.2151884 2.1958 212 122 88
-0.3096078 -0.2151884 2.1958 211 123 88
-0.30741203 -0.2151884 2.1958 208 120 86
-0.30521622 -0.2151884 2.1958 203 117 84
-0.30302042 -0.2151884 2.1958 205 120 85
-0.3008246 -0.2151884 2.1958 205 118 85
-0.2986288 -0.2151884 2.1958 200 114 80
-0.296433 -0.2151884 2.1958 198 109 72
-0.29423723 -0.2151884 2.1958 185 103 71
-0.29204142 -0.2151884 2.1958 196 109 79
-0.28984562 -0.2151884 2.1958 204 116 81
-0.2876498 -0.2151884 2.1958 209 119 83
-0.285454 -0.2151884 2.1958 210 121 88
-0.2832582 -0.2151884 2.1958 209 125 90
-0.2810624 -0.2151884 2.1958 210 130 94
-0.27886662 -0.2151884 2.1958 206 142 113
-0.2756923 -0.21442737 2.1880343 206 166 137
-0.2735043 -0.21442737 2.1880343 206 178 153
-0.27131626 -0.21442737 2.1880343 209 187 160
-0.2691282 -0.21442737 2.1880343 209 188 160
-0.26694018 -0.21442737 2.1880343 210 189 162
-0.26475215 -0.21442737 2.1880343 210 189 164
-0.26256412 -0.21442737 2.1880343 213 189 166
-0.26037607 -0.21442737 2.1880343 211 191 167
-0.25818804 -0.21442737 2.1880343 207 187 160
-0.256 -0.21442737 2.1880343 205 183 155
-0.25269485 -0.21348359 2.1784039 209 185 159
-0.25051644 -0.21348359 2.1784039 210 189 162
-0.24833804 -0.21348359 2.1784039 211 188 161
-0.24615964 -0.21348359 2.1784039 208 189 158
-0.24398123 -0.21348359 2.1784039 211 187 160
-0.24180283 -0.21348359 2.1784039 212 190 159
-0.23962443 -0.21348359 2.1784039 206 182 154
-0.23744601 -0.21348359 2.1784039 208 183 153
-0.23526761 -0.21348359 2.1784039 207 183 149
-0.23227136 -0.2127345 2.1707604 211 184 147
-0.2301006 -0.2127345 2.1707604 210 183 145
-0.22792985 -0.2127345 2.1707604 214 187 149
-0.22575907 -0.2127345 2.1707604 207 182 147
-0.22358832 -0.2127345 2.1707604 211 184 156
-0.22045067 -0.21180554 2.161281 209 186 165
-0.2182894 -0.21180554 2.161281 217 195 173
-0.21612811 -0.21180554 2.161281 216 192 170
-0.21396683 -0.21180554 2.161281 216 195 171
-0.21106818 -0.21106818 2.1537569 212 194 169
-0.20800924 -0.21015367 2.1444252 213 193 167
-0.207483 -0.21180554 2.161281 215 194 168
-0.20372038 -0.21015367 2.1444252 215 194 170
-0.20070636 -0.20924705 2.135174 214 196 170
-0.19788824 -0.20852739 2.1278305 217 196 169
-0.1957604 -0.20852739 2.1278305 215 194 170
-0.19132939 -0.20604703 2.1025207 210 190 166
-0.17903537 -0.19494963 1.9892819 203 186 163
-0.15890716 -0.17497644 1.7854738 155 147 132
-0.15081072 -0.16794829 1.7137581 148 146 134
-0.14848001 -0.16725335 1.7066667 145 144 133
-0.14677332 -0.16725335 1.7066667 139 145 130
-0.14506666 -0.16725335 1.7066667 140 142 132
-0.14336 -0.16725335 1.7066667 139 143 131
-0.14116655 -0.1666786 1.7008018 139 144 131
-0.138893 -0.16599406 1.693817 143 146 133
-0.13673125 -0.16542792 1.68804 145 149 136
-0.13606414 -0.1666786 1.7008018 141 150 135
-0.13381153 -0.16599406 1.693817 141 149 137
-0.13211772 -0.16599406 1.693817 144 150 139
-0.12997907 -0.16542792 1.68804 145 153 141
-0.12829104 -0.16542792 1.68804 151 156 145
-0.126603 -0.16542792 1.68804 151 156 145
-0.12491496 -0.16542792 1.68804 151 158 147
-0.12322692 -0.16542792 1.68804 153 160 149
-0.12153888 -0.16542792 1.68804 152 162 150
-0.119362324 -0.16475363 1.6811595 155 162 150
-0.11768117 -0.16475363 1.6811595 154 163 152
-0.116000004 -0.16475363 1.6811595 159 165 153
-0.11431885 -0.16475363 1.6811595 162 168 156
-0.11263769 -0.16475363 1.6811595 163 168 158
-0.11095653 -0.16475363 1.6811595 161 169 158
-0.10927537 -0.16475363 1.6811595 164 168 158
-0.10803456 -0.16542792 1.68804 165 170 158
-0.10671047 -0.16599406 1.693817 165 173 159
-0.105016656 -0.16599406 1.693817 166 171 159
-0.10332284 -0.16599406 1.693817 165 170 157
-0.10162902 -0.16599406 1.693817 166 171 157
-0.1003473 -0.1666786 1.7008018 166 171 157
-0.09864651 -0.1666786 1.7008018 166 171 157
-0.09694571 -0.1666786 1.7008018 163 170 156
-0.095573336 -0.16725335 1.7066667 157 161 149
-0.094584204 -0.16853186 1.7197129 141 136 125
-0.09833113 -0.17845279 1.8209468 119 88 84
-0.09951239 -0.18400404 1.8775923 108 62 55
-0.097192355 -0.1831702 1.8690836 107 59 47
-0.09612186 -0.18470475 1.8847424 107 55 43
-0.09387962 -0.18400404 1.8775923 109 58 46
-0.092352375 -0.18470475 1.8847424 109 59 46
-0.09116194 -0.18612228 1.899207 110 64 53
-0.089262724 -0.18612228 1.899207 111 62 50
-0.087700054 -0.18683925 1.9065229 110 60 48
-0.08546431 -0.18612228 1.899207 108 59 47
-0.08356511 -0.18612228 1.899207 108 59 46
-0.0816659 -0.18612228 1.899207 107 58 47
-0.07976669 -0.18612228 1.899207 106 56 48
-0.077867486 -0.18612228 1.899207 107 59 51
-0.07655582 -0.18756175 1.9138954 102 55 48
-0.07464192 -0.18756175 1.9138954 101 57 51
-0.07272803 -0.18756175 1.9138954 90 52 43
-0.07108903 -0.18828985 1.9213251 69 38 28
-0.0691677 -0.18828985 1.9213251 60 34 20
-0.06724638 -0.18828985 1.9213251 80 41 33
-0.06532505 -0.18828985 1.9213251 97 53 45
-0.063403726 -0.18828985 1.9213251 96 50 44
-0.061482403 -0.18828985 1.9213251 91 46 39
-0.059793193 -0.18902364 1.9288127 91 46 40
-0.057864383 -0.18902364 1.9288127 94 48 44
-0.05593557 -0.18902364 1.9288127 92 48 44
-0.053797103 -0.18828985 1.9213251 88 44 40
-0.052281693 -0.18976317 1.9363589 87 42 37
-0.05034533 -0.18976317 1.9363589 89 46 43
-0.048220318 -0.18902364 1.9288127 84 42 40
-0.04665515 -0.19050851 1.9439645 81 39 37
-0.04471118 -0.19050851 1.9439645 80 41 39
-0.042599894 -0.18976317 1.9363589 78 38 36
-0.040663537 -0.18976317 1.9363589 74 39 36
-0.038576256 -0.18902364 1.9288127 64 31 27
-0.036935326 -0.19050851 1.9439645 65 33 30
-0.03499136 -0.19050851 1.9439645 67 35 34
-0.032918103 -0.18976317 1.9363589 65 32 31
-0.031103432 -0.19050851 1.9439645 63 30 29
-0.029159468 -0.19050851 1.9439645 64 31 31
-0.027215503 -0.19050851 1.9439645 69 35 35
-0.025271539 -0.19050851 1.9439645 71 36 34
-0.023327574 -0.19050851 1.9439645 71 36 32
-0.02138361 -0.19050851 1.9439645 74 38 34
-0.019439643 -0.19050851 1.9439645 77 39 36
-0.01749568 -0.19050851 1.9439645 79 40 37
-0.015551716 -0.19050851 1.9439645 78 38 36
-0.013607752 -0.19050851 1.9439645 77 39 36
-0.011663787 -0.19050851 1.9439645 77 39 36
-0.009719822 -0.19050851 1.9439645 79 39 37
-0.007775858 -0.19050851 1.9439645 80 40 36
-0.0058318935 -0.19050851 1.9439645 79 40 35
-0.003887929 -0.19050851 1.9439645 79 40 36
-0.0019439645 -0.19050851 1.9439645 75 39 35
0.0 -0.19050851 1.9439645 60 31 28
0.0019439645 -0.19050851 1.9439645 49 22 18
0.003887929 -0.19050851 1.9439645 61 32 30
0.0058318935 -0.19050851 1.9439645 67 36 35
0.007775858 -0.19050851 1.9439645 61 30 28
0.009719822 -0.19050851 1.9439645 63 32 30
0.011663787 -0.19050851 1.9439645 72 38 37
0.013607752 -0.19050851 1.9439645 77 41 41
0.015551716 -0.19050851 1.9439645 77 40 38
0.01749568 -0.19050851 1.9439645 80 42 38
0.019439643 -0.19050851 1.9439645 79 41 37
0.02138361 -0.19050851 1.9439645 79 43 38
0.023419559 -0.19125974 1.9516299 80 43 38
0.025371188 -0.19125974 1.9516299 81 43 36
0.02732282 -0.19125974 1.9516299 81 42 37
0.029274449 -0.19125974 1.9516299 87 44 39
0.031103432 -0.19050851 1.9439645 91 48 40
0.032918103 -0.18976317 1.9363589 94 47 39
0.03485446 -0.18976317 1.9363589 96 49 41
0.036935326 -0.19050851 1.9439645 97 50 42
0.038879286 -0.19050851 1.9439645 94 49 40
0.040663537 -0.18976317 1.9363589 94 48 40
0.04276722 -0.19050851 1.9439645 94 48 40
0.04471118 -0.19050851 1.9439645 96 50 42
0.046472613 -0.18976317 1.9363589 99 54 47
0.048408974 -0.18976317 1.9363589 101 53 48
0.05034533 -0.18976317 1.9363589 102 55 49
0.052281693 -0.18976317 1.9363589 102 57 50
0.054218046 -0.18976317 1.9363589 101 56 47
0.056154408 -0.18976317 1.9363589 103 58 49
0.057864383 -0.18902364 1.9288127 103 55 46
0.059793193 -0.18902364 1.9288127 115 69 59
0.061722007 -0.18902364 1.9288127 118 70 60
0.063650824 -0.18902364 1.9288127 140 83 73
0.06557964 -0.18902364 1.9288127 156 92 81
0.06724638 -0.18828985 1.9213251 173 99 84
0.0691677 -0.18828985 1.9213251 183 105 88
0.07136607 -0.18902364 1.9288127 178 105 89
0.073294885 -0.18902364 1.9288127 185 107 92
0.07522369 -0.18902364 1.9288127 188 109 93
0.07715251 -0.18902364 1.9288127 190 109 93
0.07908132 -0.18902364 1.9288127 190 108 92
0.08069566 -0.18828985 1.9213251 192 110 99
0.082616985 -0.18828985 1.9213251 196 111 103
0.08453831 -0.18828985 1.9213251 197 110 102
0.08645962 -0.18828985 1.9213251 201 114 104
0.08838095 -0.18828985 1.9213251 212 121 109
0.09030227 -0.18828985 1.9213251 214 128 111
0.0915131 -0.18683925 1.9065229 203 125 108
0.092705406 -0.18541081 1.891947 133 88 78
0.092063494 -0.18044445 1.8412699 160 105 95
0.09040687 -0.17372303 1.7726839 214 176 157
0.08979949 -0.16923751 1.7269133 205 175 155
0.0897723 -0.16599406 1.693817 131 127 117
0.09115416 -0.16542792 1.68804 124 125 116
0.09315994 -0.16599406 1.693817 121 125 116
0.094144925 -0.16475363 1.6811595 122 129 119
0.09550169 -0.1641959 1.6754683 120 127 116
0.097507246 -0.16475363 1.6811595 120 125 114
0.09885263 -0.1641959 1.6754683 119 125 115
0.1005281 -0.1641959 1.6754683 122 128 119
0.10220357 -0.1641959 1.6754683 122 129 120
0.103879035 -0.1641959 1.6754683 124 131 123
0.105554506 -0.1641959 1.6754683 126 132 124
0.10679614 -0.16353159 1.6686896 124 132 124
0.10846482 -0.16353159 1.6686896 120 128 120
0.110133514 -0.16353159 1.6686896 123 131 124
0.1118022 -0.16353159 1.6686896 118 127 120
0.1134709 -0.16353159 1.6686896 120 125 115
0.11513958 -0.16353159 1.6686896 123 131 121
0.11641577 -0.16298209 1.6630825 133 142 131
0.11807886 -0.16298209 1.6630825 136 146 136
0.11974194 -0.16298209 1.6630825 150 160 149
0.12140502 -0.16298209 1.6630825 154 164 154
0.12348303 -0.16353159 1.6686896 154 163 154
0.12515172 -0.16353159 1.6686896 160 171 161
0.12682042 -0.16353159 1.6686896 166 174 165
0.12805736 -0.16298209 1.6630825 173 182 174
0.12972043 -0.16298209 1.6630825 171 179 171
0.13138351 -0.16298209 1.6630825 171 178 170
0.13251227 -0.16232753 1.6564034 178 184 174
0.13516386 -0.16353159 1.6686896 183 188 178
0.13683255 -0.16353159 1.6686896 184 190 176
0.13906388 -0.1641959 1.6754683 183 186 172
0.13969892 -0.16298209 1.6630825 185 187 172
0.14289856 -0.16475363 1.6811595 181 180 165
0.14517145 -0.16542792 1.68804 174 168 152
0.14626087 -0.16475363 1.6811595 170 161 147
0.15780485 -0.1757372 1.7932367 214 192 170
0.18262465 -0.20109232 2.0519624 222 200 177
0.19068493 -0.2076347 2.1187215 219 197 173
0.19514269 -0.21015367 2.1444252 219 197 174
0.19883786 -0.21180554 2.161281 221 198 175
0.20099914 -0.21180554 2.161281 224 200 175
0.20476995 -0.21348359 2.1784039 220 196 173
0.20694837 -0.21348359 2.1784039 223 196 174
0.20912677 -0.21348359 2.1784039 225 200 177
0.21223934 -0.21442737 2.1880343 223 198 174
0.21442737 -0.21442737 2.1880343 224 196 176
0.21661541 -0.21442737 2.1880343 224 200 178
0.21880344 -0.21442737 2.1880343 226 201 178
0.22099148 -0.21442737 2.1880343 226 201 178
0.2231795 -0.21442737 2.1880343 221 197 172
0.22616741 -0.2151884 2.1958 218 197 171
0.2283632 -0.2151884 2.1958 216 191 167
0.230559 -0.2151884 2.1958 209 186 163
0.23275481 -0.2151884 2.1958 211 187 164
0.2349506 -0.2151884 2.1958 215 191 166
0.2371464 -0.2151884 2.1958 217 192 167
0.23934221 -0.2151884 2.1958 218 194 168
0.241538 -0.2151884 2.1958 215 191 167
0.24373381 -0.2151884 2.1958 208 185 162
0.24702555 -0.21614735 2.2055852 205 181 159
0.24923113 -0.21614735 2.2055852 211 185 164
0.2514367 -0.21614735 2.2055852 222 194 172
0.2536423 -0.21614735 2.2055852 220 195 173
0.25584787 -0.21614735 2.2055852 217 192 172
0.25805348 -0.21614735 2.2055852 220 195 175
0.26025906 -0.21614735 2.2055852 219 192 172
0.26246464 -0.21614735 2.2055852 219 193 173
0.26467022 -0.21614735 2.2055852 223 196 175
0.26687583 -0.21614735 2.2055852 219 192 172
0.26908138 -0.21614735 2.2055852 220 193 173
0.271287 -0.21614735 2.2055852 213 186 167
0.27349257 -0.21614735 2.2055852 211 184 164
0.27569816 -0.21614735 2.2055852 208 184 163
0.27790374 -0.21614735 2.2055852 215 186 165
0.28010932 -0.21614735 2.2055852 215 188 166
0.2823149 -0.21614735 2.2055852 217 192 169
0.2857941 -0.2171149 2.2154582 220 193 171
0.28800955 -0.2171149 2.2154582 221 196 174
0.290225 -0.2171149 2.2154582 219 195 174
0.2924405 -0.2171149 2.2154582 222 197 177
0.29465595 -0.2171149 2.2154582 222 200 179
0.2968714 -0.2171149 2.2154582 220 198 178
0.29908684 -0.2171149 2.2154582 221 197 178
0.30238512 -0.21789517 2.2234201 220 196 177
0.30460855 -0.21789517 2.2234201 223 198 181
0.30683196 -0.21789517 2.2234201 222 198 181
0.3090554 -0.21789517 2.2234201 225 200 181
0.31127882 -0.21789517 2.2234201 228 203 184
0.31350222 -0.21789517 2.2234201 224 200 181
0.31572565 -0.21789517 2.2234201 220 199 180
0.31794906 -0.21789517 2.2234201 219 195 178
-0.31507695 -0.21661541 2.1880343 211 121 89
-0.31288892 -0.21661541 2.1880343 209 120 88
-0.31070086 -0.21661541 2.1880343 209 120 87
-0.30851284 -0.21661541 2.1880343 211 121 87
-0.3063248 -0.21661541 2.1880343 201 116 84
-0.30413678 -0.21661541 2.1880343 211 120 86
-0.30194873 -0.21661541 2.1880343 206 117 84
-0.2997607 -0.21661541 2.1880343 208 117 84
-0.29757267 -0.21661541 2.1880343 203 112 80
-0.29538465 -0.21661541 2.1880343 199 110 75
-0.2931966 -0.21661541 2.1880343 195 108 77
-0.29100856 -0.21661541 2.1880343 210 120 88
-0.28882053 -0.21661541 2.1880343 215 124 87
-0.2866325 -0.21661541 2.1880343 198 112 77
-0.28444445 -0.21661541 2.1880343 204 116 84
-0.28225642 -0.21661541 2.1880343 211 126 92
-0.2800684 -0.21661541 2.1880343 213 142 110
-0.27788034 -0.21661541 2.1880343 206 158 132
-0.27447888 -0.21566199 2.1784039 205 173 151
-0.27230048 -0.21566199 2.1784039 203 179 159
-0.27012208 -0.21566199 2.1784039 207 187 161
-0.26794365 -0.21566199 2.1784039 213 193 168
-0.26694018 -0.21661541 2.1880343 210 192 169
-0.26358685 -0.21566199 2.1784039 207 190 168
-0.26140845 -0.21566199 2.1784039 210 188 162
-0.25923008 -0.21566199 2.1784039 213 191 167
-0.25705168 -0.21566199 2.1784039 209 188 161
-0.25487325 -0.21566199 2.1784039 206 185 160
-0.25269485 -0.21566199 2.1784039 210 189 163
-0.25051644 -0.21566199 2.1784039 213 191 167
-0.24833804 -0.21566199 2.1784039 209 191 162
-0.24615964 -0.21566199 2.1784039 208 190 157
-0.24398123 -0.21566199 2.1784039 208 188 164
-0.24180283 -0.21566199 2.1784039 212 192 164
-0.23878364 -0.21490528 2.1707604 207 187 161
-0.23661289 -0.21490528 2.1707604 205 186 158
-0.23444213 -0.21490528 2.1707604 204 182 153
-0.23227136 -0.21490528 2.1707604 200 178 150
-0.2290958 -0.21396683 2.161281 201 178 153
-0.22693451 -0.21396683 2.161281 203 180 155
-0.22477324 -0.21396683 2.161281 202 180 153
-0.22261195 -0.21396683 2.161281 208 185 161
-0.22045067 -0.21396683 2.161281 206 183 163
-0.21752945 -0.21322192 2.1537569 210 186 167
-0.21537569 -0.21322192 2.1537569 212 191 169
-0.21322192 -0.21322192 2.1537569 212 191 170
-0.20924705 -0.21138224 2.135174 211 193 167
-0.20800924 -0.2122981 2.1444252 209 189 164
-0.2058648 -0.2122981 2.1444252 213 192 167
-0.20284154 -0.21138224 2.135174 212 191 167
-0.20001607 -0.21065521 2.1278305 211 193 167
-0.1970411 -0.20975344 2.1187215 210 190 166
-0.19492237 -0.20975344 2.1187215 208 187 163
-0.19280365 -0.20975344 2.1187215 201 182 159
-0.18467662 -0.20314427 2.0519624 200 181 159
-0.16326565 -0.18161009 1.8344454 174 160 143
-0.15133473 -0.17025158 1.7197129 151 146 132
-0.14848001 -0.16896 1.7066667 148 145 132
-0.14677332 -0.16896 1.7066667 143 144 131
-0.14506666 -0.16896 1.7066667 140 144 131
-0.14336 -0.16896 1.7066667 143 146 133
-0.14058681 -0.16768788 1.693817 141 146 132
-0.138893 -0.16768788 1.693817 143 147 135
-0.13673125 -0.16711597 1.68804 144 149 136
-0.13550535 -0.16768788 1.693817 142 148 135
-0.13381153 -0.16768788 1.693817 143 148 137
-0.13211772 -0.16768788 1.693817 146 150 138
-0.12997907 -0.16711597 1.68804 146 152 140
-0.12829104 -0.16711597 1.68804 147 155 142
-0.126603 -0.16711597 1.68804 150 156 145
-0.12491496 -0.16711597 1.68804 151 159 148
-0.12272464 -0.16643478 1.6811595 154 161 149
-0.12104349 -0.16643478 1.6811595 153 162 150
-0.119362324 -0.16643478 1.6811595 156 163 153
-0.11768117 -0.16643478 1.6811595 156 163 152
-0.116000004 -0.16643478 1.6811595 159 164 154
-0.11431885 -0.16643478 1.6811595 161 166 156
-0.11263769 -0.16643478 1.6811595 162 167 157
-0.11095653 -0.16643478 1.6811595 161 169 157
-0.10927537 -0.16643478 1.6811595 163 168 157
-0.10803456 -0.16711597 1.68804 165 170 158
-0.10671047 -0.16768788 1.693817 166 171 160
-0.105016656 -0.16768788 1.693817 166 171 160
-0.10332284 -0.16768788 1.693817 167 170 158
-0.10162902 -0.16768788 1.693817 166 171 157
-0.099935204 -0.16768788 1.693817 166 171 157
-0.09824139 -0.16768788 1.693817 166 171 157
-0.09694571 -0.16837938 1.7008018 164 171 156
-0.09524491 -0.16837938 1.7008018 159 164 151
-0.09386667 -0.16896 1.7066667 147 143 131
-0.097186916 -0.178176 1.7997576 126 93 89
-0.09951239 -0.18588164 1.8775923 114 67 61
-0.09763481 -0.18588164 1.8775923 118 69 57
-0.09612186 -0.1865895 1.8847424 118 69 54
-0.09423712 -0.1865895 1.8847424 119 70 55
-0.092352375 -0.1865895 1.8847424 120 69 54
-0.09116194 -0.1880215 1.899207 117 68 55
-0.089262724 -0.1880215 1.899207 116 67 52
-0.087363526 -0.1880215 1.899207 118 67 54
-0.08546431 -0.1880215 1.899207 114 64 52
-0.08356511 -0.1880215 1.899207 114 64 51
-0.0816659 -0.1880215 1.899207 110 60 47
-0.07976669 -0.1880215 1.899207 104 58 47
-0.077867486 -0.1880215 1.899207 103 59 47
-0.07626092 -0.18874575 1.9065229 104 59 50
-0.074354395 -0.18874575 1.9065229 102 57 49
-0.07272803 -0.18947564 1.9138954 101 56 48
-0.07108903 -0.19021118 1.9213251 93 53 46
-0.06943726 -0.19095246 1.9288127 72 40 27
-0.06724638 -0.19021118 1.9213251 81 41 35
-0.06507244 -0.18947564 1.9138954 90 48 43
-0.063403726 -0.19021118 1.9213251 95 54 49
-0.06124465 -0.18947564 1.9138954 94 50 43
-0.059561078 -0.19021118 1.9213251 91 46 39
-0.05763975 -0.19021118 1.9213251 92 45 38
-0.05593557 -0.19095246 1.9288127 97 52 45
-0.054006755 -0.19095246 1.9288127 93 48 43
-0.052077945 -0.19095246 1.9288127 91 45 42
-0.05034533 -0.19169953 1.9363589 90 46 42
-0.048408974 -0.19169953 1.9363589 89 45 42
-0.046291504 -0.19095246 1.9288127 84 41 37
-0.044536255 -0.19169953 1.9363589 80 39 35
-0.042599894 -0.19169953 1.9363589 79 40 37
-0.040663537 -0.19169953 1.9363589 77 40 37
-0.03872718 -0.19169953 1.9363589 66 32 29
-0.03679082 -0.19169953 1.9363589 63 31 29
-0.03499136 -0.19245249 1.9439645 65 32 30
-0.032918103 -0.19169953 1.9363589 66 34 33
-0.031103432 -0.19245249 1.9439645 64 32 32
-0.029159468 -0.19245249 1.9439645 65 32 32
-0.027215503 -0.19245249 1.9439645 66 33 32
-0.025271539 -0.19245249 1.9439645 68 35 32
-0.023327574 -0.19245249 1.9439645 69 37 32
-0.02138361 -0.19245249 1.9439645 72 36 32
-0.019439643 -0.19245249 1.9439645 73 35 32
-0.01749568 -0.19245249 1.9439645 75 38 34
-0.015551716 -0.19245249 1.9439645 76 38 36
-0.013607752 -0.19245249 1.9439645 75 37 34
-0.011663787 -0.19245249 1.9439645 76 36 34
-0.009719822 -0.19245249 1.9439645 77 38 36
-0.007775858 -0.19245249 1.9439645 78 40 35
-0.0058318935 -0.19245249 1.9439645 76 40 33
-0.003887929 -0.19245249 1.9439645 75 39 33
-0.0019439645 -0.19245249 1.9439645 67 35 33
0.0 -0.19245249 1.9439645 51 25 21
0.0019439645 -0.19245249 1.9439645 52 27 22
0.003887929 -0.19245249 1.9439645 63 34 32
0.0058318935 -0.19245249 1.9439645 64 33 30
0.007745436 -0.19169953 1.9363589 60 31 24
0.009719822 -0.19245249 1.9439645 67 35 26
0.011663787 -0.19245249 1.9439645 76 39 32
0.013607752 -0.19245249 1.9439645 82 42 38
0.015551716 -0.19245249 1.9439645 80 40 37
0.01749568 -0.19245249 1.9439645 78 40 38
0.019439643 -0.19245249 1.9439645 79 42 36
0.02138361 -0.19245249 1.9439645 80 43 39
0.023327574 -0.19245249 1.9439645 80 42 38
0.025271539 -0.19245249 1.9439645 77 37 33
0.027215503 -0.19245249 1.9439645 82 41 37
0.029159468 -0.19245249 1.9439645 89 47 41
0.031226078 -0.19321136 1.9516299 93 50 42
0.032918103 -0.19169953 1.9363589 94 48 40
0.03485446 -0.19169953 1.9363589 95 48 40
0.037080966 -0.19321136 1.9516299 94 48 40
0.03872718 -0.19169953 1.9363589 94 48 40
0.040823255 -0.19245249 1.9439645 94 49 40
0.04276722 -0.19245249 1.9439645 93 48 40
0.044536255 -0.19169953 1.9363589 96 51 42
0.046472613 -0.19169953 1.9363589 98 53 45
0.048408974 -0.19169953 1.9363589 99 51 47
0.05034533 -0.19169953 1.9363589 100 53 48
0.052281693 -0.19169953 1.9363589 102 55 50
0.054218046 -0.19169953 1.9363589 102 56 48
0.056154408 -0.19169953 1.9363589 99 56 46
0.057864383 -0.19095246 1.9288127 94 50 39
0.059793193 -0.19095246 1.9288127 85 41 26
0.061722007 -0.19095246 1.9288127 95 53 38
0.063650824 -0.19095246 1.9288127 127 78 65
0.06557964 -0.19095246 1.9288127 159 88 74
0.067508444 -0.19095246 1.9288127 158 88 76
0.06943726 -0.19095246 1.9288127 149 87 75
0.07136607 -0.19095246 1.9288127 146 85 74
0.073294885 -0.19095246 1.9288127 142 82 73
0.07493168 -0.19021118 1.9213251 136 79 69
0.07685301 -0.19021118 1.9213251 134 76 67
0.07877433 -0.19021118 1.9213251 136 76 67
0.080383606 -0.18947564 1.9138954 138 77 71
0.082616985 -0.19021118 1.9213251 137 79 72
0.084211394 -0.18947564 1.9138954 133 78 71
0.08612529 -0.18947564 1.9138954 138 84 76
0.08803918 -0.18947564 1.9138954 149 87 79
0.08995308 -0.18947564 1.9138954 172 96 87
0.0915131 -0.18874575 1.9065229 196 113 100
0.092705406 -0.18730275 1.891947 209 126 113
0.09275363 -0.18365218 1.8550725 198 137 123
0.09178764 -0.178176 1.7997576 231 188 167
0.09081345 -0.17289485 1.7464126 223 187 164
0.09045334 -0.16896 1.7066667 136 130 119
0.09146612 -0.16768788 1.693817 124 124 115
0.09315994 -0.16768788 1.693817 122 125 118
0.09382623 -0.16587137 1.6754683 123 128 120
0.09550169 -0.16587137 1.6754683 121 124 115
0.09717716 -0.16587137 1.6754683 121 126 116
0.09885263 -0.16587137 1.6754683 124 130 120
0.1005281 -0.16587137 1.6754683 128 133 124
0.10220357 -0.16587137 1.6754683 127 134 124
0.103879035 -0.16587137 1.6754683 128 135 126
0.105554506 -0.16587137 1.6754683 124 129 121
0.10679614 -0.16520028 1.6686896 124 130 122
0.10846482 -0.16520028 1.6686896 123 130 122
0.110133514 -0.16520028 1.6686896 122 129 121
0.1118022 -0.16520028 1.6686896 126 132 125
0.1134709 -0.16520028 1.6686896 127 135 126
0.11513958 -0.16520028 1.6686896 131 138 128
0.11641577 -0.16464517 1.6630825 135 142 132
0.11807886 -0.16464517 1.6630825 140 147 138
0.11974194 -0.16464517 1.6630825 153 159 151
0.12140502 -0.16464517 1.6630825 160 170 161
0.12348303 -0.16520028 1.6686896 163 172 163
0.12515172 -0.16520028 1.6686896 164 173 164
0.12682042 -0.16520028 1.6686896 165 173 164
0.12805736 -0.16464517 1.6630825 169 177 168
0.12972043 -0.16464517 1.6630825 176 184 174
0.13138351 -0.16464517 1.6630825 174 182 172
0.13251227 -0.16398393 1.6564034 177 182 173
0.13516386 -0.16520028 1.6686896 176 181 172
0.13683255 -0.16520028 1.6686896 181 184 173
0.13906388 -0.16587137 1.6754683 184 188 176
0.13969892 -0.16464517 1.6630825 188 190 176
0.14289856 -0.16643478 1.6811595 193 192 175
0.14517145 -0.16711597 1.68804 189 188 169
0.14626087 -0.16643478 1.6811595 184 177 162
0.15655693 -0.17612654 1.779056 212 193 171
0.18202093 -0.20247273 2.0451791 220 198 176
0.18987213 -0.20885935 2.1096904 224 199 172
0.19430085 -0.21138224 2.135174 225 200 177
0.19883786 -0.21396683 2.161281 222 199 176
0.2002994 -0.21322192 2.1537569 226 201 178
0.20405148 -0.21490528 2.1707604 224 200 176
0.20622225 -0.21490528 2.1707604 225 200 176
0.20839301 -0.21490528 2.1707604 224 198 176
0.21130517 -0.21566199 2.1784039 222 196 174
0.21348359 -0.21566199 2.1784039 225 200 177
0.21566199 -0.21566199 2.1784039 227 202 180
0.21784039 -0.21566199 2.1784039 227 203 179
0.22001879 -0.21566199 2.1784039 228 203 182
0.2231795 -0.21661541 2.1880343 225 202 177
0.22536753 -0.21661541 2.1880343 222 198 172
0.22755557 -0.21661541 2.1880343 222 196 172
0.2297436 -0.21661541 2.1880343 217 190 166
0.23091081 -0.21566199 2.1784039 213 188 164
0.23308922 -0.21566199 2.1784039 217 191 167
0.23630771 -0.21661541 2.1880343 217 192 168
0.23849574 -0.21661541 2.1880343 220 196 170
0.24068378 -0.21661541 2.1880343 220 195 171
0.2428718 -0.21661541 2.1880343 214 190 167
0.24592961 -0.2173842 2.1958 212 188 165
0.24812542 -0.2173842 2.1958 213 187 166
0.2503212 -0.2173842 2.1958 219 192 170
0.252517 -0.2173842 2.1958 222 194 172
0.25471282 -0.2173842 2.1958 219 193 172
0.2569086 -0.2173842 2.1958 220 195 173
0.2591044 -0.2173842 2.1958 221 194 173
0.2613002 -0.2173842 2.1958 218 193 173
0.263496 -0.2173842 2.1958 221 195 174
0.26569182 -0.2173842 2.1958 220 193 171
0.2678876 -0.2173842 2.1958 220 193 171
0.271287 -0.21835293 2.2055852 216 189 169
0.2722792 -0.2173842 2.1958 210 186 165
0.274475 -0.2173842 2.1958 211 186 164
0.2766708 -0.2173842 2.1958 211 184 164
0.27886662 -0.2173842 2.1958 210 181 161
0.2823149 -0.21835293 2.2055852 215 189 167
0.2845205 -0.21835293 2.2055852 218 191 169
0.2867261 -0.21835293 2.2055852 222 195 174
0.28893167 -0.21835293 2.2055852 226 198 177
0.29113725 -0.21835293 2.2055852 224 198 177
0.29465595 -0.21933036 2.2154582 225 200 179
0.2968714 -0.21933036 2.2154582 223 200 179
0.29908684 -0.21933036 2.2154582 223 200 180
0.30238512 -0.2201186 2.2234201 222 199 181
0.30460855 -0.2201186 2.2234201 222 199 180
0.30683196 -0.2201186 2.2234201 222 197 180
0.3090554 -0.2201186 2.2234201 219 197 179
0.31127882 -0.2201186 2.2234201 223 200 182
0.31350222 -0.2201186 2.2234201 223 200 181
0.31572565 -0.2201186 2.2234201 223 198 180
0.31794906 -0.2201186 2.2234201 221 197 180
-0.31369016 -0.21784039 2.1784039 211 122 89
-0.31151175 -0.21784039 2.1784039 210 121 87
-0.30933335 -0.21784039 2.1784039 208 121 89
-0.30715492 -0.21784039 2.1784039 209 122 87
-0.30497652 -0.21784039 2.1784039 210 122 86
-0.30279812 -0.21784039 2.1784039 203 117 84
-0.30061972 -0.21784039 2.1784039 207 119 85
-0.29844132 -0.21784039 2.1784039 204 117 82
-0.29626295 -0.21784039 2.1784039 207 116 83
-0.29408452 -0.21784039 2.1784039 198 112 80
-0.29190612 -0.21784039 2.1784039 203 113 81
-0.28972772 -0.21784039 2.1784039 209 120 88
-0.28754932 -0.21784039 2.1784039 216 126 88
-0.28537092 -0.21784039 2.1784039 211 121 82
-0.28319252 -0.21784039 2.1784039 207 118 86
-0.28002807 -0.21707603 2.1707604 207 131 100
-0.27785733 -0.21707603 2.1707604 206 154 127
-0.2756866 -0.21707603 2.1707604 208 171 149
-0.27351582 -0.21707603 2.1707604 202 177 152
-0.27134505 -0.21707603 2.1707604 207 184 160
-0.26917428 -0.21707603 2.1707604 207 187 165
-0.26700354 -0.21707603 2.1707604 209 189 169
-0.26576525 -0.21784039 2.1784039 212 192 176
-0.26358685 -0.21784039 2.1784039 213 192 176
-0.26049125 -0.21707603 2.1707604 211 190 171
-0.25923008 -0.21784039 2.1784039 211 190 170
-0.25705168 -0.21784039 2.1784039 210 188 164
-0.25397897 -0.21707603 2.1707604 208 186 161
-0.25180823 -0.21707603 2.1707604 213 189 164
-0.24963745 -0.21707603 2.1707604 209 187 164
-0.24746668 -0.21707603 2.1707604 212 188 164
-0.24529593 -0.21707603 2.1707604 215 193 163
-0.24312517 -0.21707603 2.1707604 212 192 171
-0.24095441 -0.21707603 2.1707604 213 195 169
-0.23878364 -0.21707603 2.1707604 216 196 168
-0.23557964 -0.21612811 2.161281 212 192 163
-0.23341836 -0.21612811 2.161281 205 182 155
-0.23125708 -0.21612811 2.161281 198 176 148
-0.22829823 -0.21537569 2.1537569 195 173 148
-0.22693451 -0.21612811 2.161281 200 177 152
-0.22399071 -0.21537569 2.1537569 199 180 154
-0.22183695 -0.21537569 2.1537569 205 183 161
-0.2196832 -0.21537569 2.1537569 204 182 159
-0.21658695 -0.21444252 2.1444252 212 188 167
-0.21444252 -0.21444252 2.1444252 209 187 167
-0.21138224 -0.21351741 2.135174 206 186 165
-0.20852739 -0.21278305 2.1278305 213 191 169
-0.20711188 -0.21351741 2.135174 212 191 167
-0.20497671 -0.21351741 2.135174 209 189 164
-0.20127854 -0.21187215 2.1187215 208 188 164
-0.19915982 -0.21187215 2.1187215 209 189 165
-0.1970411 -0.21187215 2.1187215 206 186 162
-0.19409153 -0.21096905 2.1096904 206 184 161
-0.19132939 -0.21025208 2.1025207 200 180 158
-0.18544546 -0.20605052 2.0605052 200 179 157
-0.16710572 -0.18775924 1.8775923 185 168 149
-0.15250048 -0.17329599 1.7329599 159 152 137
-0.14796975 -0.17008018 1.7008018 152 148 136
-0.14677332 -0.17066666 1.7066667 142 144 132
-0.14506666 -0.17066666 1.7066667 143 146 132
-0.14228062 -0.1693817 1.693817 143 147 132
-0.14116655 -0.17008018 1.7008018 144 148 133
-0.138893 -0.1693817 1.693817 144 148 134
-0.13673125 -0.168804 1.68804 144 149 135
-0.13550535 -0.1693817 1.693817 143 149 136
-0.13335517 -0.168804 1.68804 142 148 136
-0.1316671 -0.168804 1.68804 143 149 137
-0.12997907 -0.168804 1.68804 146 152 141
-0.12829104 -0.168804 1.68804 147 154 142
-0.126603 -0.168804 1.68804 148 155 144
-0.1244058 -0.16811596 1.6811595 151 159 148
-0.12272464 -0.16811596 1.6811595 153 160 149
-0.12104349 -0.16811596 1.6811595 153 161 150
-0.119362324 -0.16811596 1.6811595 156 163 153
-0.11768117 -0.16811596 1.6811595 157 165 153
-0.116000004 -0.16811596 1.6811595 159 166 155
-0.11431885 -0.16811596 1.6811595 160 164 154
-0.11263769 -0.16811596 1.6811595 161 166 156
-0.11095653 -0.16811596 1.6811595 161 168 156
-0.10927537 -0.16811596 1.6811595 163 168 157
-0.10803456 -0.168804 1.68804 165 170 158
-0.10634652 -0.168804 1.68804 166 171 160
-0.10465848 -0.168804 1.68804 166 171 160
-0.10297044 -0.168804 1.68804 167 170 158
-0.1012824 -0.168804 1.68804 166 171 157
-0.099935204 -0.1693817 1.693817 166 171 157
-0.09824139 -0.1693817 1.693817 166 171 157
-0.09654757 -0.1693817 1.693817 165 170 156
-0.09485375 -0.1693817 1.693817 163 165 151
-0.09315994 -0.1693817 1.693817 154 148 136
-0.09606902 -0.17790559 1.779056 133 103 97
-0.09906143 -0.18690836 1.8690836 121 77 70
-0.098006606 -0.18847424 1.8847424 123 74 61
-0.096489295 -0.18919471 1.891947 122 74 58
-0.09423712 -0.18847424 1.8847424 120 72 56
-0.092352375 -0.18847424 1.8847424 119 72 56
-0.09116194 -0.1899207 1.899207 119 71 58
-0.089262724 -0.1899207 1.899207 119 70 56
-0.08702956 -0.18919471 1.891947 118 68 55
-0.08513762 -0.18919471 1.891947 119 68 58
-0.08356511 -0.1899207 1.899207 118 68 56
-0.0816659 -0.1899207 1.899207 113 65 54
-0.07976669 -0.1899207 1.899207 105 58 50
-0.07816743 -0.19065228 1.9065229 89 45 31
-0.07626092 -0.19065228 1.9065229 96 51 40
-0.074354395 -0.19065228 1.9065229 102 56 46
-0.072447866 -0.19065228 1.9065229 103 57 46
-0.070814125 -0.19138955 1.9138954 99 55 47
-0.0691677 -0.1921325 1.9213251 95 54 47
-0.06698634 -0.19138955 1.9138954 87 46 42
-0.06507244 -0.19138955 1.9138954 89 46 41
-0.063403726 -0.1921325 1.9213251 92 48 44
-0.061482403 -0.1921325 1.9213251 97 53 46
-0.059561078 -0.1921325 1.9213251 95 50 43
-0.05763975 -0.1921325 1.9213251 94 47 41
-0.05593557 -0.19288127 1.9288127 95 49 42
-0.054006755 -0.19288127 1.9288127 98 52 47
-0.052077945 -0.19288127 1.9288127 94 49 44
-0.05014913 -0.19288127 1.9288127 90 45 40
-0.048408974 -0.1936359 1.9363589 91 47 43
-0.046472613 -0.1936359 1.9363589 86 44 40
-0.044536255 -0.1936359 1.9363589 79 38 33
-0.04243388 -0.19288127 1.9288127 81 41 39
-0.040663537 -0.1936359 1.9363589 76 38 36
-0.03872718 -0.1936359 1.9363589 69 35 32
-0.03679082 -0.1936359 1.9363589 63 29 27
-0.03499136 -0.19439645 1.9439645 65 34 32
-0.032918103 -0.1936359 1.9363589 66 36 34
-0.030981744 -0.1936359 1.9363589 66 34 33
-0.029159468 -0.19439645 1.9439645 63 32 31
-0.027215503 -0.19439645 1.9439645 59 29 28
-0.025271539 -0.19439645 1.9439645 62 31 30
-0.023327574 -0.19439645 1.9439645 66 36 34
-0.02138361 -0.19439645 1.9439645 67 35 33
-0.019439643 -0.19439645 1.9439645 69 34 32
-0.01749568 -0.19439645 1.9439645 72 37 34
-0.015551716 -0.19439645 1.9439645 74 38 36
-0.013607752 -0.19439645 1.9439645 74 38 36
-0.011663787 -0.19439645 1.9439645 76 39 37
-0.009719822 -0.19439645 1.9439645 76 39 36
-0.007775858 -0.19439645 1.9439645 75 38 33
-0.0058318935 -0.19439645 1.9439645 76 39 35
-0.003887929 -0.19439645 1.9439645 71 34 32
-0.0019439645 -0.19439645 1.9439645 61 30 28
0.0 -0.19439645 1.9439645 49 21 19
0.0019439645 -0.19439645 1.9439645 60 33 30
0.003887929 -0.19439645 1.9439645 65 34 33
0.0058318935 -0.19439645 1.9439645 62 31 30
0.007775858 -0.19439645 1.9439645 62 32 28
0.009681795 -0.1936359 1.9363589 69 36 32
0.011663787 -0.19439645 1.9439645 76 41 37
0.013607752 -0.19439645 1.9439645 81 41 41
0.015551716 -0.19439645 1.9439645 80 41 39
0.01749568 -0.19439645 1.9439645 79 41 38
0.019439643 -0.19439645 1.9439645 79 41 38
0.02138361 -0.19439645 1.9439645 79 43 39
0.023327574 -0.19439645 1.9439645 79 42 37
0.025271539 -0.19439645 1.9439645 80 39 38
0.027215503 -0.19439645 1.9439645 86 43 41
0.029045384 -0.1936359 1.9363589 93 50 45
0.031103432 -0.19439645 1.9439645 94 49 41
0.032918103 -0.1936359 1.9363589 93 49 41
0.03485446 -0.1936359 1.9363589 93 48 41
0.03679082 -0.1936359 1.9363589 94 49 41
0.03872718 -0.1936359 1.9363589 93 48 39
0.040823255 -0.19439645 1.9439645 95 51 41
0.042599894 -0.1936359 1.9363589 94 50 45
0.04471118 -0.19439645 1.9439645 96 51 44
0.046472613 -0.1936359 1.9363589 96 52 43
0.048220318 -0.19288127 1.9288127 97 52 47
0.05014913 -0.19288127 1.9288127 98 51 47
0.052281693 -0.1936359 1.9363589 101 55 49
0.054218046 -0.1936359 1.9363589 103 56 49
0.056154408 -0.1936359 1.9363589 102 57 47
0.057864383 -0.19288127 1.9288127 104 58 47
0.059793193 -0.19288127 1.9288127 112 64 52
0.061722007 -0.19288127 1.9288127 124 74 61
0.063650824 -0.19288127 1.9288127 132 76 62
0.06557964 -0.19288127 1.9288127 128 72 55
0.067508444 -0.19288127 1.9288127 123 68 53
0.06943726 -0.19288127 1.9288127 117 62 50
0.07108903 -0.1921325 1.9213251 114 60 49
0.073010355 -0.1921325 1.9213251 109 54 44
0.07493168 -0.1921325 1.9213251 108 53 44
0.07685301 -0.1921325 1.9213251 111 54 46
0.07877433 -0.1921325 1.9213251 111 55 47
0.08069566 -0.1921325 1.9213251 111 53 45
0.082297504 -0.19138955 1.9138954 109 56 47
0.084211394 -0.19138955 1.9138954 92 49 37
0.08612529 -0.19138955 1.9138954 82 40 26
0.08838095 -0.1921325 1.9213251 97 44 31
0.08995308 -0.19138955 1.9138954 122 63 51
0.0915131 -0.19065228 1.9065229 134 73 62
0.092352375 -0.18847424 1.8847424 149 85 77
0.09387962 -0.18775924 1.8775923 192 112 102
0.09246007 -0.18129426 1.8129426 220 152 133
0.0914589 -0.17588249 1.758825 231 185 163
0.091526404 -0.17269133 1.7269133 155 145 132
0.0918433 -0.17008018 1.7008018 121 124 117
0.09315994 -0.1693817 1.693817 124 126 123
0.09382623 -0.16754682 1.6754683 123 123 119
0.09550169 -0.16754682 1.6754683 120 125 116
0.09717716 -0.16754682 1.6754683 125 131 121
0.09885263 -0.16754682 1.6754683 128 134 124
0.1005281 -0.16754682 1.6754683 128 135 125
0.10220357 -0.16754682 1.6754683 129 136 127
0.103879035 -0.16754682 1.6754683 126 134 125
0.10512745 -0.16686895 1.6686896 127 133 124
0.10679614 -0.16686895 1.6686896 124 131 122
0.10846482 -0.16686895 1.6686896 127 133 125
0.110133514 -0.16686895 1.6686896 123 129 121
0.1118022 -0.16686895 1.6686896 130 136 129
0.1134709 -0.16686895 1.6686896 134 141 132
0.11513958 -0.16686895 1.6686896 146 153 144
0.11641577 -0.16630824 1.6630825 144 152 142
0.11807886 -0.16630824 1.6630825 155 162 152
0.11974194 -0.16630824 1.6630825 153 162 152
0.12140502 -0.16630824 1.6630825 156 165 155
0.1230681 -0.16630824 1.6630825 164 175 164
0.12473118 -0.16630824 1.6630825 167 176 165
0.12639427 -0.16630824 1.6630825 169 180 172
0.12805736 -0.16630824 1.6630825 176 184 176
0.12972043 -0.16630824 1.6630825 169 180 170
0.13138351 -0.16630824 1.6630825 176 182 174
0.13251227 -0.16564034 1.6564034 176 182 174
0.13516386 -0.16686895 1.6686896 177 182 174
0.13683255 -0.16686895 1.6686896 177 182 173
0.13850124 -0.16686895 1.6686896 180 185 175
0.13969892 -0.16630824 1.6630825 185 188 176
0.14289856 -0.16811596 1.6811595 189 188 175
0.14457971 -0.16811596 1.6811595 190 190 173
0.14576575 -0.16754682 1.6754683 191 184 171
0.15543945 -0.17663574 1.7663574 214 195 175
0.18202093 -0.20451792 2.0451791 222 200 176
0.18987213 -0.21096905 2.1096904 220 195 169
0.19430085 -0.21351741 2.135174 220 198 174
0.19814563 -0.21537569 2.1537569 223 201 178
0.2002994 -0.21537569 2.1537569 230 205 181
0.20316043 -0.21612811 2.161281 226 202 177
0.2046069 -0.21537569 2.1537569 225 202 177
0.207483 -0.21612811 2.161281 223 198 176
0.21056375 -0.21707603 2.1707604 224 198 175
0.2127345 -0.21707603 2.1707604 225 200 177
0.21490528 -0.21707603 2.1707604 225 201 179
0.21707603 -0.21707603 2.1707604 214 192 170
0.21924679 -0.21707603 2.1707604 218 197 174
0.22219719 -0.21784039 2.1784039 218 196 171
0.22437559 -0.21784039 2.1784039 223 200 175
0.226554 -0.21784039 2.1784039 224 199 175
0.2287324 -0.21784039 2.1784039 216 191 167
0.23091081 -0.21784039 2.1784039 211 186 163
0.23227136 -0.21707603 2.1707604 215 188 165
0.23444213 -0.21707603 2.1707604 215 191 167
0.23744601 -0.21784039 2.1784039 219 194 170
0.23962443 -0.21784039 2.1784039 218 192 170
0.24180283 -0.21784039 2.1784039 213 188 167
0.24398123 -0.21784039 2.1784039 217 191 170
0.24615964 -0.21784039 2.1784039 213 185 166
0.24833804 -0.21784039 2.1784039 213 186 166
0.25051644 -0.21784039 2.1784039 220 192 170
0.25269485 -0.21784039 2.1784039 222 192 171
