ply
format ascii 1.0
element vertex 1084
property float32 x
property float32 y
property float32 z
property uchar red
property uchar green
property uchar blue
element face 0
property list uint8 int32 vertex_indices
end_header
0.019288128 -0.25267446 1.9288127 51 38 34
0.02121694 -0.25267446 1.9288127 51 37 34
0.023145752 -0.25267446 1.9288127 48 36 32
0.025074566 -0.25267446 1.9288127 45 33 32
0.027003378 -0.25267446 1.9288127 47 34 34
0.028932191 -0.25267446 1.9288127 45 32 30
0.030861003 -0.25267446 1.9288127 51 32 33
0.032662526 -0.25169358 1.9213251 52 32 32
0.034450114 -0.2507203 1.9138954 67 38 37
0.036364015 -0.2507203 1.9138954 79 48 47
0.03827791 -0.2507203 1.9138954 68 41 35
0.039883345 -0.2487961 1.899207 59 30 25
0.041622832 -0.24784507 1.891947 70 39 41
0.043349076 -0.24690124 1.8847424 56 34 35
0.045062218 -0.2459646 1.8775923 46 32 30
0.04672709 -0.24484996 1.8690836 39 33 31
0.048051782 -0.24210705 1.8481455 37 31 29
0.04989993 -0.24210705 1.8481455 67 60 52
0.05155556 -0.24120635 1.8412699 50 41 33
0.053396825 -0.24120635 1.8412699 58 49 47
0.054830134 -0.23942493 1.8276712 46 39 36
0.056449354 -0.23854403 1.8209468 49 41 42
0.058702253 -0.24031235 1.8344454 50 40 41
0.06031315 -0.23942493 1.8276712 51 40 42
0.061912194 -0.23854403 1.8209468 51 43 46
0.06373314 -0.23854403 1.8209468 54 44 48
0.06555408 -0.23854403 1.8209468 50 43 44
0.06707888 -0.23749548 1.8129426 53 44 45
0.06889182 -0.23749548 1.8129426 51 43 45
0.070446715 -0.23662873 1.8063262 51 44 45
0.0719903 -0.23576824 1.7997576 51 42 40
0.07379006 -0.23576824 1.7997576 55 44 43
0.07558982 -0.23576824 1.7997576 51 42 44
0.07710917 -0.23491402 1.7932367 52 45 46
0.07890242 -0.23491402 1.7932367 49 42 41
0.08069566 -0.23491402 1.7932367 52 43 43
0.082488894 -0.23491402 1.7932367 51 43 45
0.08428213 -0.23491402 1.7932367 54 43 45
0.086075366 -0.23491402 1.7932367 53 46 47
0.0878686 -0.23491402 1.7932367 54 46 45
0.08927369 -0.23389706 1.7854738 55 46 49
0.09105916 -0.23389706 1.7854738 53 45 48
0.092844635 -0.23389706 1.7854738 55 45 47
0.094630115 -0.23389706 1.7854738 54 45 46
0.09641559 -0.23389706 1.7854738 51 45 46
0.09820106 -0.23389706 1.7854738 54 47 51
0.09962714 -0.23305634 1.779056 52 45 48
0.10140619 -0.23305634 1.779056 52 44 47
0.103185244 -0.23305634 1.779056 51 44 44
0.1049643 -0.23305634 1.779056 51 44 45
0.10674336 -0.23305634 1.779056 51 44 45
0.108522415 -0.23305634 1.779056 52 44 45
0.110301465 -0.23305634 1.779056 52 44 45
0.11208053 -0.23305634 1.779056 52 44 44
0.113451764 -0.23222159 1.7726839 51 44 44
0.113918796 -0.22959019 1.7525969 54 46 50
0.11179192 -0.22189003 1.693817 95 74 70
0.11142653 -0.2178638 1.6630825 171 122 102
0.113089606 -0.2178638 1.6630825 188 131 108
0.11429184 -0.21698885 1.6564034 200 139 114
0.115948245 -0.21698885 1.6564034 206 143 118
0.11760464 -0.21698885 1.6564034 206 143 119
0.11926105 -0.21698885 1.6564034 207 143 118
0.12091745 -0.21698885 1.6564034 208 143 118
0.12257385 -0.21698885 1.6564034 208 143 120
0.12423026 -0.21698885 1.6564034 207 143 118
0.12546676 -0.21626508 1.6508784 210 141 117
0.12711763 -0.21626508 1.6508784 211 140 118
0.12876852 -0.21626508 1.6508784 208 139 117
0.1304194 -0.21626508 1.6508784 207 138 117
0.13207029 -0.21626508 1.6508784 206 139 117
0.13372114 -0.21626508 1.6508784 205 139 117
0.13537203 -0.21626508 1.6508784 205 139 116
0.1370229 -0.21626508 1.6508784 205 140 117
0.13867378 -0.21626508 1.6508784 208 141 119
0.14032467 -0.21626508 1.6508784 210 142 119
0.14197554 -0.21626508 1.6508784 210 141 118
0.1441071 -0.21698885 1.6564034 208 140 115
0.1457635 -0.21698885 1.6564034 205 138 113
0.1474199 -0.21698885 1.6564034 204 137 111
0.14907631 -0.21698885 1.6564034 202 135 110
0.1513405 -0.2178638 1.6630825 202 133 108
0.15300359 -0.2178638 1.6630825 199 131 106
0.15466668 -0.2178638 1.6630825 194 131 107
0.15570192 -0.21698885 1.6564034 190 131 109
0.16091262 -0.22189003 1.693817 200 149 131
0.17742197 -0.24210705 1.8481455 216 191 165
0.18782681 -0.25366303 1.9363589 222 194 172
0.19050851 -0.25465935 1.9439645 213 186 165
0.19169953 -0.25366303 1.9363589 210 186 166
0.1936359 -0.25366303 1.9363589 214 190 168
0.19634041 -0.25465935 1.9439645 211 184 164
0.19828437 -0.25465935 1.9439645 211 185 166
0.20022835 -0.25465935 1.9439645 212 186 166
0.2029695 -0.2556635 1.9516299 208 182 163
0.20492114 -0.2556635 1.9516299 221 191 171
0.20687278 -0.2556635 1.9516299 212 186 165
0.2088244 -0.2556635 1.9516299 216 189 169
0.21077603 -0.2556635 1.9516299 216 191 169
0.21272767 -0.2556635 1.9516299 211 188 166
0.21467929 -0.2556635 1.9516299 212 185 165
0.21663092 -0.2556635 1.9516299 211 185 164
0.21772403 -0.25465935 1.9439645 210 186 165
0.21966799 -0.25465935 1.9439645 213 188 166
0.22161195 -0.25465935 1.9439645 213 190 167
0.22355591 -0.25465935 1.9439645 209 184 162
0.22549988 -0.25465935 1.9439645 207 181 161
0.2283407 -0.2556635 1.9516299 206 180 159
0.23029234 -0.2556635 1.9516299 206 181 160
0.23224396 -0.2556635 1.9516299 208 182 161
0.23327574 -0.25465935 1.9439645 212 186 165
0.23429942 -0.25366303 1.9363589 209 183 164
0.2362358 -0.25366303 1.9363589 209 183 163
0.23817214 -0.25366303 1.9363589 212 186 165
0.2401085 -0.25366303 1.9363589 212 187 166
0.24204487 -0.25366303 1.9363589 210 185 166
0.24398123 -0.25366303 1.9363589 211 187 166
0.24591759 -0.25366303 1.9363589 207 184 165
0.24882746 -0.25465935 1.9439645 204 179 161
0.25077143 -0.25465935 1.9439645 203 177 161
0.25271538 -0.25465935 1.9439645 205 180 162
0.25465935 -0.25465935 1.9439645 211 187 168
0.25559938 -0.25366303 1.9363589 216 189 172
0.25753573 -0.25366303 1.9363589 207 180 164
0.2594721 -0.25366303 1.9363589 198 171 155
0.26140845 -0.25366303 1.9363589 212 182 164
0.26231855 -0.25267446 1.9288127 215 187 167
0.26424736 -0.25267446 1.9288127 213 182 163
0.26617613 -0.25267446 1.9288127 208 178 160
0.2691539 -0.25366303 1.9363589 206 178 157
0.27003378 -0.25267446 1.9288127 206 182 158
0.27196258 -0.25267446 1.9288127 205 177 160
0.27389142 -0.25267446 1.9288127 212 180 171
0.27582023 -0.25267446 1.9288127 212 184 164
-0.2799309 -0.2566033 1.9439645 164 133 72
-0.2779869 -0.2566033 1.9439645 167 140 100
-0.27604297 -0.2566033 1.9439645 161 135 104
-0.274099 -0.2566033 1.9439645 161 140 120
-0.27215502 -0.2566033 1.9439645 162 143 124
-0.27021107 -0.2566033 1.9439645 163 143 123
-0.2682671 -0.2566033 1.9439645 165 143 122
-0.26632312 -0.2566033 1.9439645 166 148 127
-0.26437917 -0.2566033 1.9439645 162 142 127
-0.2624352 -0.2566033 1.9439645 159 147 131
-0.26049125 -0.2566033 1.9439645 161 142 128
-0.25854728 -0.2566033 1.9439645 165 146 126
-0.2566033 -0.2566033 1.9439645 165 146 130
-0.25465935 -0.2566033 1.9439645 165 147 122
-0.25271538 -0.2566033 1.9439645 165 146 126
-0.25077143 -0.2566033 1.9439645 160 140 124
-0.24882746 -0.2566033 1.9439645 164 142 128
-0.24591759 -0.25559938 1.9363589 163 141 126
-0.24398123 -0.25559938 1.9363589 165 143 127
-0.24204487 -0.25559938 1.9363589 156 135 118
-0.2401085 -0.25559938 1.9363589 156 136 116
-0.23817214 -0.25559938 1.9363589 150 130 110
-0.2362358 -0.25559938 1.9363589 154 137 117
-0.23429942 -0.25559938 1.9363589 152 131 112
-0.23145753 -0.2546033 1.9288127 144 125 105
-0.22952871 -0.2546033 1.9288127 134 115 96
-0.2275999 -0.2546033 1.9288127 128 110 91
-0.2256711 -0.2546033 1.9288127 138 118 97
-0.22374228 -0.2546033 1.9288127 140 121 101
-0.22181346 -0.2546033 1.9288127 141 121 102
-0.21988466 -0.2546033 1.9288127 142 121 104
-0.21795584 -0.2546033 1.9288127 141 123 105
-0.21602702 -0.2546033 1.9288127 148 129 107
-0.21409822 -0.2546033 1.9288127 144 125 105
-0.21134576 -0.2536149 1.9213251 142 123 104
-0.20942444 -0.2536149 1.9213251 142 121 102
-0.20750311 -0.2536149 1.9213251 140 121 101
-0.20638296 -0.2546033 1.9288127 141 121 100
-0.20445415 -0.2546033 1.9288127 141 121 100
-0.20252535 -0.2546033 1.9288127 139 120 100
-0.20059653 -0.2546033 1.9288127 143 123 104
-0.1986677 -0.2546033 1.9288127 140 121 102
-0.19673891 -0.2546033 1.9288127 141 119 99
-0.19481009 -0.2546033 1.9288127 140 120 102
-0.19288127 -0.2546033 1.9288127 143 123 105
-0.19021118 -0.2536149 1.9213251 140 118 103
-0.18828985 -0.2536149 1.9213251 133 115 99
-0.18636853 -0.2536149 1.9213251 145 125 108
-0.1844472 -0.2536149 1.9213251 143 123 107
-0.18252587 -0.2536149 1.9213251 137 118 101
-0.18060455 -0.2536149 1.9213251 129 111 95
-0.17868322 -0.2536149 1.9213251 130 111 94
-0.1767619 -0.2536149 1.9213251 133 116 96
-0.17552195 -0.2546033 1.9288127 141 121 100
-0.17359313 -0.2546033 1.9288127 138 118 98
-0.17233594 -0.25559938 1.9363589 139 118 101
-0.17039958 -0.25559938 1.9363589 133 114 97
-0.16846323 -0.25559938 1.9363589 131 110 91
-0.16652687 -0.25559938 1.9363589 130 109 90
-0.16459051 -0.25559938 1.9363589 132 113 97
-0.16265415 -0.25559938 1.9363589 137 118 100
-0.16071779 -0.25559938 1.9363589 135 116 98
-0.15878144 -0.25559938 1.9363589 134 112 93
-0.15684508 -0.25559938 1.9363589 142 120 99
-0.15370601 -0.2536149 1.9213251 142 120 101
-0.15178469 -0.2536149 1.9213251 131 112 92
-0.14986336 -0.2536149 1.9213251 134 113 102
-0.14337797 -0.24579084 1.8620517 109 96 90
-0.13678157 -0.237568 1.7997576 105 93 89
-0.13391054 -0.23568255 1.7854738 86 74 72
-0.13165015 -0.23483539 1.779056 78 67 65
-0.12987109 -0.23483539 1.779056 77 67 65
-0.12717773 -0.23315918 1.7663574 75 65 65
-0.12541138 -0.23315918 1.7663574 75 66 66
-0.12364502 -0.23315918 1.7663574 73 64 63
-0.12187866 -0.23315918 1.7663574 70 61 57
-0.12011231 -0.23315918 1.7663574 69 59 55
-0.118345946 -0.23315918 1.7663574 70 61 57
-0.11657959 -0.23315918 1.7663574 69 59 56
-0.11481323 -0.23315918 1.7663574 69 60 59
-0.112564795 -0.23216489 1.758825 68 59 59
-0.110805966 -0.23216489 1.758825 66 57 58
-0.108661 -0.23134279 1.7525969 67 58 53
-0.10571055 -0.2287507 1.7329599 79 62 49
-0.102048114 -0.22450584 1.7008018 104 88 73
-0.0977278 -0.21864524 1.6564034 154 128 111
-0.094677225 -0.21547231 1.632366 177 137 117
-0.09237459 -0.2139201 1.6206069 202 142 117
-0.09039879 -0.21308285 1.614264 211 146 117
-0.08878452 -0.21308285 1.614264 216 149 118
-0.08717026 -0.21308285 1.614264 217 150 117
-0.08555599 -0.21308285 1.614264 216 150 116
-0.08394173 -0.21308285 1.614264 218 149 115
-0.08232746 -0.21308285 1.614264 218 149 116
-0.080713205 -0.21308285 1.614264 219 150 117
-0.07909894 -0.21308285 1.614264 220 150 119
-0.077484675 -0.21308285 1.614264 216 149 119
-0.07587041 -0.21308285 1.614264 216 148 120
-0.074256144 -0.21308285 1.614264 217 150 121
-0.07264189 -0.21308285 1.614264 218 150 121
-0.0713067 -0.2139201 1.6206069 219 150 123
-0.0696861 -0.2139201 1.6206069 220 151 123
-0.068065494 -0.2139201 1.6206069 222 151 124
-0.06644489 -0.2139201 1.6206069 222 152 124
-0.06457055 -0.21308285 1.614264 222 152 124
-0.062956296 -0.21308285 1.614264 221 152 125
-0.06158306 -0.2139201 1.6206069 218 152 125
-0.059962455 -0.2139201 1.6206069 218 151 124
-0.058533512 -0.21462288 1.6259309 217 149 123
-0.056907583 -0.21462288 1.6259309 217 147 119
-0.05528165 -0.21462288 1.6259309 216 146 116
-0.05365572 -0.21462288 1.6259309 213 144 114
-0.05223571 -0.21547231 1.632366 211 142 112
-0.050603345 -0.21547231 1.632366 209 141 111
-0.04897098 -0.21547231 1.632366 206 138 109
-0.047338612 -0.21547231 1.632366 205 136 109
-0.045706246 -0.21547231 1.632366 206 138 111
-0.043900136 -0.21462288 1.6259309 203 139 112
-0.04306649 -0.21864524 1.6564034 181 125 101
-0.04299282 -0.22700208 1.7197129 111 83 69
-0.045062218 -0.2478422 1.8775923 55 37 27
-0.043850027 -0.25166103 1.9065229 56 41 32
-0.042269155 -0.2536149 1.9213251 57 41 35
-0.04034783 -0.2536149 1.9213251 57 40 35
-0.038426504 -0.2536149 1.9213251 58 41 35
-0.036505178 -0.2536149 1.9213251 57 41 35
-0.03458385 -0.2536149 1.9213251 62 43 39
-0.03278982 -0.2546033 1.9288127 62 45 40
-0.030861003 -0.2546033 1.9288127 63 46 41
-0.028932191 -0.2546033 1.9288127 63 46 41
-0.027003378 -0.2546033 1.9288127 62 44 38
-0.025074566 -0.2546033 1.9288127 61 45 39
-0.023145752 -0.2546033 1.9288127 60 43 38
-0.02121694 -0.2546033 1.9288127 61 45 38
-0.019288128 -0.2546033 1.9288127 60 43 34
-0.017359314 -0.2546033 1.9288127 60 42 36
-0.015430502 -0.2546033 1.9288127 63 45 39
-0.013501689 -0.2546033 1.9288127 63 45 40
-0.011572876 -0.2546033 1.9288127 64 48 40
-0.009644064 -0.2546033 1.9288127 65 46 39
-0.007715251 -0.2546033 1.9288127 63 44 38
-0.005786438 -0.2546033 1.9288127 61 44 38
-0.0038576254 -0.2546033 1.9288127 61 44 41
-0.0019288127 -0.2546033 1.9288127 61 46 41
0.0 -0.2546033 1.9288127 61 45 43
0.0019288127 -0.2546033 1.9288127 62 44 41
0.0038576254 -0.2546033 1.9288127 61 44 37
0.0058090766 -0.25559938 1.9363589 62 44 38
0.007745436 -0.25559938 1.9363589 62 44 38
0.009681795 -0.25559938 1.9363589 60 43 37
0.011618153 -0.25559938 1.9363589 60 43 37
0.013554512 -0.25559938 1.9363589 61 46 36
0.015490872 -0.25559938 1.9363589 58 45 38
0.01742723 -0.25559938 1.9363589 55 42 37
0.01936359 -0.25559938 1.9363589 54 39 37
0.021299947 -0.25559938 1.9363589 53 38 36
0.023236306 -0.25559938 1.9363589 51 39 33
0.025172666 -0.25559938 1.9363589 49 37 36
0.027109023 -0.25559938 1.9363589 49 36 35
0.029045384 -0.25559938 1.9363589 45 32 29
0.030861003 -0.2546033 1.9288127 46 34 34
0.032662526 -0.2536149 1.9213251 43 31 31
0.03458385 -0.2536149 1.9213251 51 30 30
0.036364015 -0.2526342 1.9138954 75 46 46
0.03827791 -0.2526342 1.9138954 68 39 35
0.039883345 -0.25069532 1.899207 56 27 23
0.041622832 -0.24973701 1.891947 73 40 39
0.043184623 -0.2478422 1.8775923 61 34 34
0.044689238 -0.24579084 1.8620517 42 28 25
0.04655129 -0.24579084 1.8620517 43 33 31
0.048051782 -0.2439552 1.8481455 46 33 30
0.04989993 -0.2439552 1.8481455 64 55 49
0.051748075 -0.2439552 1.8481455 55 52 41
0.053198915 -0.24214679 1.8344454 63 56 49
0.05503336 -0.24214679 1.8344454 48 39 33
0.056867804 -0.24214679 1.8344454 49 40 39
0.05848548 -0.2412526 1.8276712 50 42 42
0.06031315 -0.2412526 1.8276712 54 44 47
0.061912194 -0.24036497 1.8209468 53 44 46
0.06373314 -0.24036497 1.8209468 53 45 45
0.06555408 -0.24036497 1.8209468 51 45 43
0.06707888 -0.23930843 1.8129426 53 44 43
0.06889182 -0.23930843 1.8129426 54 44 44
0.070704766 -0.23930843 1.8129426 55 46 44
0.0719903 -0.237568 1.7997576 51 42 41
0.07379006 -0.237568 1.7997576 53 44 44
0.07558982 -0.237568 1.7997576 52 44 41
0.07710917 -0.23670724 1.7932367 48 43 40
0.07890242 -0.23670724 1.7932367 53 46 45
0.08069566 -0.23670724 1.7932367 53 45 46
0.082488894 -0.23670724 1.7932367 52 45 43
0.08428213 -0.23670724 1.7932367 53 44 45
0.086075366 -0.23670724 1.7932367 53 47 43
0.0878686 -0.23670724 1.7932367 55 45 44
0.08927369 -0.23568255 1.7854738 55 45 49
0.09105916 -0.23568255 1.7854738 55 45 51
0.092844635 -0.23568255 1.7854738 54 45 47
0.094630115 -0.23568255 1.7854738 54 47 46
0.09641559 -0.23568255 1.7854738 52 47 47
0.09820106 -0.23568255 1.7854738 52 46 48
0.09962714 -0.23483539 1.779056 51 46 47
0.10140619 -0.23483539 1.779056 53 46 49
0.103185244 -0.23483539 1.779056 52 45 47
0.1049643 -0.23483539 1.779056 51 45 46
0.10674336 -0.23483539 1.779056 50 44 44
0.108522415 -0.23483539 1.779056 50 45 45
0.110301465 -0.23483539 1.779056 52 46 46
0.11208053 -0.23483539 1.779056 52 46 45
0.113451764 -0.23399426 1.7726839 52 45 45
0.11351682 -0.23052648 1.7464126 58 48 52
0.11141065 -0.2228213 1.68804 117 94 89
0.11142653 -0.21952689 1.6630825 176 126 106
0.112635426 -0.21864524 1.6564034 191 135 111
0.11429184 -0.21864524 1.6564034 197 139 114
0.115948245 -0.21864524 1.6564034 204 143 118
0.11760464 -0.21864524 1.6564034 206 142 119
0.11926105 -0.21864524 1.6564034 206 143 119
0.12091745 -0.21864524 1.6564034 208 143 120
0.122165 -0.21791595 1.6508784 209 142 119
0.12381588 -0.21791595 1.6508784 208 142 118
0.12546676 -0.21791595 1.6508784 204 140 119
0.12711763 -0.21791595 1.6508784 202 138 117
0.12876852 -0.21791595 1.6508784 201 137 117
0.1304194 -0.21791595 1.6508784 201 138 118
0.13207029 -0.21791595 1.6508784 204 138 118
0.13372114 -0.21791595 1.6508784 204 140 120
0.13537203 -0.21791595 1.6508784 205 139 119
0.1370229 -0.21791595 1.6508784 204 139 118
0.13867378 -0.21791595 1.6508784 207 140 119
0.14032467 -0.21791595 1.6508784 210 142 120
0.14197554 -0.21791595 1.6508784 210 142 118
0.14362642 -0.21791595 1.6508784 209 141 117
0.14527729 -0.21791595 1.6508784 207 140 115
0.1474199 -0.21864524 1.6564034 206 139 114
0.14907631 -0.21864524 1.6564034 208 138 113
0.1513405 -0.21952689 1.6630825 206 137 112
0.15300359 -0.21952689 1.6630825 204 135 110
0.15466668 -0.21952689 1.6630825 198 132 108
0.15570192 -0.21864524 1.6564034 194 131 109
0.1591695 -0.22116181 1.6754683 191 133 116
0.17277673 -0.237568 1.7997576 218 181 157
0.18422309 -0.25069532 1.899207 220 195 171
0.18902364 -0.2546033 1.9288127 218 191 171
0.19169953 -0.25559938 1.9363589 212 187 166
0.19288127 -0.2546033 1.9288127 214 187 167
0.19481009 -0.2546033 1.9288127 215 188 167
0.19673891 -0.2546033 1.9288127 213 185 166
0.1986677 -0.2546033 1.9288127 213 187 167
0.20217231 -0.2566033 1.9439645 210 184 165
0.20411627 -0.2566033 1.9439645 212 186 167
0.20606025 -0.2566033 1.9439645 215 188 168
0.20800419 -0.2566033 1.9439645 216 190 169
0.20994817 -0.2566033 1.9439645 214 188 168
0.21189214 -0.2566033 1.9439645 213 189 168
0.21383609 -0.2566033 1.9439645 212 186 164
0.21578006 -0.2566033 1.9439645 209 184 163
0.21772403 -0.2566033 1.9439645 205 180 160
0.21966799 -0.2566033 1.9439645 211 186 165
0.22074492 -0.25559938 1.9363589 214 190 168
0.22268127 -0.25559938 1.9363589 208 183 161
0.22549988 -0.2566033 1.9439645 206 180 160
0.22744384 -0.2566033 1.9439645 205 180 160
0.2293878 -0.2566033 1.9439645 202 175 156
0.23042671 -0.25559938 1.9363589 206 179 158
0.23145753 -0.2546033 1.9288127 208 180 160
0.23338634 -0.2546033 1.9288127 191 166 149
0.2362358 -0.25559938 1.9363589 205 180 160
0.23724398 -0.2546033 1.9288127 207 182 163
0.23917277 -0.2546033 1.9288127 211 186 166
0.2411016 -0.2546033 1.9288127 212 189 169
0.24303041 -0.2546033 1.9288127 213 189 169
0.24495922 -0.2546033 1.9288127 211 187 168
0.24785395 -0.25559938 1.9363589 211 187 168
0.2497903 -0.25559938 1.9363589 199 175 158
0.25172666 -0.25559938 1.9363589 209 183 164
0.25366303 -0.25559938 1.9363589 208 181 164
0.2546033 -0.2546033 1.9288127 217 191 172
0.2565321 -0.2546033 1.9288127 216 190 172
0.2584609 -0.2546033 1.9288127 215 190 170
0.26038972 -0.2546033 1.9288127 214 189 170
0.2613002 -0.2536149 1.9213251 213 188 169
0.26322153 -0.2536149 1.9213251 211 182 164
0.26514286 -0.2536149 1.9213251 210 181 163
0.26810497 -0.2546033 1.9288127 205 178 160
0.2689855 -0.2536149 1.9213251 204 177 158
0.27090684 -0.2536149 1.9213251 207 179 159
0.27282816 -0.2536149 1.9213251 210 181 163
0.2747495 -0.2536149 1.9213251 218 190 171
-0.27774903 -0.2565321 1.9288127 166 134 83
-0.27582023 -0.2565321 1.9288127 166 138 102
-0.27389142 -0.2565321 1.9288127 162 138 107
-0.27196258 -0.2565321 1.9288127 160 141 114
-0.27003378 -0.2565321 1.9288127 161 142 122
-0.26810497 -0.2565321 1.9288127 162 140 122
-0.26617613 -0.2565321 1.9288127 163 145 127
-0.26424736 -0.2565321 1.9288127 168 150 133
-0.26231855 -0.2565321 1.9288127 165 149 133
-0.26038972 -0.2565321 1.9288127 164 146 125
-0.2584609 -0.2565321 1.9288127 157 141 118
-0.2565321 -0.2565321 1.9288127 156 137 116
-0.2546033 -0.2565321 1.9288127 165 147 127
-0.25267446 -0.2565321 1.9288127 169 150 130
-0.25074565 -0.2565321 1.9288127 167 145 125
-0.24785094 -0.25553623 1.9213251 163 142 125
-0.24688803 -0.2565321 1.9288127 154 133 118
-0.24400829 -0.25553623 1.9213251 154 134 118
-0.24208696 -0.25553623 1.9213251 163 140 122
-0.24016564 -0.25553623 1.9213251 157 134 115
-0.23824431 -0.25553623 1.9213251 149 130 111
-0.23632298 -0.25553623 1.9213251 140 120 102
-0.23440166 -0.25553623 1.9213251 139 121 102
-0.23248033 -0.25553623 1.9213251 145 126 106
-0.230559 -0.25553623 1.9213251 142 124 103
-0.22775355 -0.25454807 1.9138954 142 122 103
-0.22583966 -0.25454807 1.9138954 144 124 104
-0.22392575 -0.25454807 1.9138954 139 123 102
-0.22201185 -0.25454807 1.9138954 138 120 101
-0.22009796 -0.25454807 1.9138954 143 126 106
-0.21818407 -0.25454807 1.9138954 141 123 103
-0.21627018 -0.25454807 1.9138954 141 122 103
-0.21435627 -0.25454807 1.9138954 143 123 102
-0.21244238 -0.25454807 1.9138954 142 122 101
-0.2105285 -0.25454807 1.9138954 143 125 107
-0.20942444 -0.25553623 1.9213251 142 122 104
-0.20750311 -0.25553623 1.9213251 140 121 103
-0.20558178 -0.25553623 1.9213251 137 120 102
-0.20366046 -0.25553623 1.9213251 145 123 104
-0.20173913 -0.25553623 1.9213251 140 121 101
-0.19904512 -0.25454807 1.9138954 139 121 102
-0.19713123 -0.25454807 1.9138954 138 120 102
-0.19521733 -0.25454807 1.9138954 139 119 101
-0.19330344 -0.25454807 1.9138954 137 118 101
-0.19138955 -0.25454807 1.9138954 137 118 100
-0.19021118 -0.25553623 1.9213251 137 117 100
-0.18828985 -0.25553623 1.9213251 140 123 103
-0.18564786 -0.25454807 1.9138954 136 120 101
-0.18373396 -0.25454807 1.9138954 138 118 100
-0.18182005 -0.25454807 1.9138954 132 114 94
-0.17990616 -0.25454807 1.9138954 139 116 96
-0.17799227 -0.25454807 1.9138954 139 118 97
-0.1767619 -0.25553623 1.9213251 131 114 94
-0.17552195 -0.2565321 1.9288127 139 119 96
-0.17359313 -0.2565321 1.9288127 135 117 95
-0.17166434 -0.2565321 1.9288127 127 109 93
-0.16973552 -0.2565321 1.9288127 138 119 99
-0.1678067 -0.2565321 1.9288127 141 120 98
-0.1658779 -0.2565321 1.9288127 136 118 95
-0.16394909 -0.2565321 1.9288127 140 120 100
-0.16202027 -0.2565321 1.9288127 142 122 103
-0.16009146 -0.2565321 1.9288127 133 116 96
-0.15816264 -0.2565321 1.9288127 139 118 98
-0.15623383 -0.2565321 1.9288127 136 119 99
-0.15311164 -0.25454807 1.9138954 138 120 99
-0.15178469 -0.25553623 1.9213251 129 113 95
-0.14928384 -0.25454807 1.9138954 134 114 103
-0.1423072 -0.24580334 1.8481455 104 92 85
-0.13628599 -0.23850049 1.7932367 99 88 84
-0.13391054 -0.23746802 1.7854738 78 67 66
-0.13165015 -0.23661444 1.779056 78 68 66
-0.12940592 -0.23576695 1.7726839 78 68 66
-0.12717773 -0.23492554 1.7663574 76 66 65
-0.12541138 -0.23492554 1.7663574 73 65 65
-0.12364502 -0.23492554 1.7663574 73 64 65
-0.12187866 -0.23492554 1.7663574 71 62 59
-0.12011231 -0.23492554 1.7663574 71 63 59
-0.118345946 -0.23492554 1.7663574 70 61 59
-0.116082445 -0.23392372 1.758825 71 63 62
-0.11432362 -0.23392372 1.758825 70 61 61
-0.112564795 -0.23392372 1.758825 67 58 58
-0.1104136 -0.23309538 1.7525969 73 60 51
-0.106253006 -0.22792983 1.7137581 97 77 62
-0.10220357 -0.22283728 1.6754683 137 103 88
-0.09794196 -0.21710467 1.632366 170 124 102
-0.09592992 -0.21624881 1.6259309 199 144 115
-0.09362731 -0.21469711 1.614264 211 147 116
-0.09165433 -0.2138601 1.6079706 212 148 116
-0.09039879 -0.21469711 1.614264 214 149 117
-0.08878452 -0.21469711 1.614264 218 149 118
-0.08717026 -0.21469711 1.614264 218 149 118
-0.08555599 -0.21469711 1.614264 217 150 118
-0.08394173 -0.21469711 1.614264 217 148 117
-0.08232746 -0.21469711 1.614264 217 148 117
-0.080713205 -0.21469711 1.614264 218 149 118
-0.07879056 -0.2138601 1.6079706 218 149 118
-0.07718258 -0.2138601 1.6079706 216 148 119
-0.07587041 -0.21469711 1.614264 218 150 121
-0.074256144 -0.21469711 1.614264 220 151 122
-0.07264189 -0.21469711 1.614264 221 153 122
-0.07102762 -0.21469711 1.614264 221 153 124
-0.06941336 -0.21469711 1.614264 223 153 125
-0.068065494 -0.2155407 1.6206069 223 153 125
-0.06644489 -0.2155407 1.6206069 224 154 125
-0.06457055 -0.21469711 1.614264 223 154 124
-0.062956296 -0.21469711 1.614264 223 154 126
-0.061342034 -0.21469711 1.614264 221 153 124
-0.05972777 -0.21469711 1.614264 220 152 124
-0.05834185 -0.2155407 1.6206069 219 148 121
-0.05672124 -0.2155407 1.6206069 219 148 120
-0.05528165 -0.21624881 1.6259309 217 147 118
-0.05365572 -0.21624881 1.6259309 214 145 115
-0.05223571 -0.21710467 1.632366 212 142 114
-0.050603345 -0.21710467 1.632366 210 142 112
-0.04897098 -0.21710467 1.632366 206 139 110
-0.047338612 -0.21710467 1.632366 204 136 108
-0.045706246 -0.21710467 1.632366 204 137 111
-0.04407388 -0.21710467 1.632366 204 137 111
-0.042610154 -0.21796733 1.6388521 193 131 103
-0.042520046 -0.22620665 1.7008018 136 96 84
-0.04485801 -0.24858811 1.8690836 65 43 34
-0.043681763 -0.25259453 1.899207 58 41 32
-0.042105697 -0.25454807 1.9138954 60 44 39
-0.040191803 -0.25454807 1.9138954 61 43 38
-0.038426504 -0.25553623 1.9213251 59 42 37
-0.036505178 -0.25553623 1.9213251 57 41 35
-0.03458385 -0.25553623 1.9213251 62 45 39
-0.032662526 -0.25553623 1.9213251 64 47 41
-0.030741202 -0.25553623 1.9213251 64 47 41
-0.028819876 -0.25553623 1.9213251 64 47 42
-0.026898552 -0.25553623 1.9213251 64 46 40
-0.024977226 -0.25553623 1.9213251 62 46 39
-0.0230559 -0.25553623 1.9213251 63 46 43
-0.021134578 -0.25553623 1.9213251 65 47 43
-0.019213252 -0.25553623 1.9213251 65 46 38
-0.017225057 -0.25454807 1.9138954 62 44 38
-0.015311163 -0.25454807 1.9138954 63 46 40
-0.013397267 -0.25454807 1.9138954 64 46 40
-0.011483372 -0.25454807 1.9138954 63 47 40
-0.009569477 -0.25454807 1.9138954 65 46 37
-0.0076555815 -0.25454807 1.9138954 64 45 38
-0.005741686 -0.25454807 1.9138954 62 47 40
-0.0038277907 -0.25454807 1.9138954 63 46 43
-0.0019138954 -0.25454807 1.9138954 62 46 40
0.0 -0.25553623 1.9213251 62 45 43
0.0019213251 -0.25553623 1.9213251 64 44 42
0.0038426502 -0.25553623 1.9213251 63 46 37
0.005763975 -0.25553623 1.9213251 62 44 37
0.0076853004 -0.25553623 1.9213251 63 47 40
0.009606626 -0.25553623 1.9213251 62 46 41
0.01152795 -0.25553623 1.9213251 66 47 42
0.013449276 -0.25553623 1.9213251 64 47 37
0.015370601 -0.25553623 1.9213251 63 47 42
0.017291926 -0.25553623 1.9213251 58 44 38
0.019213252 -0.25553623 1.9213251 57 43 39
0.021134578 -0.25553623 1.9213251 56 43 39
0.0230559 -0.25553623 1.9213251 52 39 33
0.024977226 -0.25553623 1.9213251 54 41 38
0.026898552 -0.25553623 1.9213251 50 38 36
0.028819876 -0.25553623 1.9213251 49 35 32
0.030504366 -0.25356755 1.9065229 49 37 36
0.03241089 -0.25356755 1.9065229 46 33 35
0.034450114 -0.25454807 1.9138954 43 31 29
0.036364015 -0.25454807 1.9138954 68 42 40
0.03813046 -0.25356755 1.9065229 72 43 39
0.04003698 -0.25356755 1.9065229 60 30 27
0.041622832 -0.25162897 1.891947 74 41 39
0.042988922 -0.24858811 1.8690836 70 39 37
0.04485801 -0.24858811 1.8690836 46 32 28
0.046376813 -0.24672464 1.8550725 41 30 31
0.048231885 -0.24672464 1.8550725 40 31 28
0.04989993 -0.24580334 1.8481455 56 50 42
0.051748075 -0.24580334 1.8481455 60 55 47
0.053396825 -0.24488889 1.8412699 63 54 50
0.05503336 -0.24398123 1.8344454 49 40 35
0.056657806 -0.24308026 1.8276712 50 41 38
0.05848548 -0.24308026 1.8276712 51 41 41
0.06031315 -0.24308026 1.8276712 53 43 42
0.061912194 -0.24218594 1.8209468 53 44 44
0.06373314 -0.24218594 1.8209468 53 45 44
0.06526594 -0.24112137 1.8129426 52 44 41
0.06707888 -0.24112137 1.8129426 54 44 46
0.06889182 -0.24112137 1.8129426 53 44 45
0.070446715 -0.24024138 1.8063262 53 43 44
0.07225304 -0.24024138 1.8063262 53 44 44
0.07379006 -0.23936777 1.7997576 52 45 42
0.07531594 -0.23850049 1.7932367 56 45 41
0.07710917 -0.23850049 1.7932367 51 43 43
0.07890242 -0.23850049 1.7932367 51 44 44
0.08034632 -0.23746802 1.7854738 51 44 43
0.082488894 -0.23850049 1.7932367 51 45 44
0.08428213 -0.23850049 1.7932367 53 46 46
0.086075366 -0.23850049 1.7932367 52 46 43
0.08748822 -0.23746802 1.7854738 53 46 47
0.08927369 -0.23746802 1.7854738 55 45 48
0.09105916 -0.23746802 1.7854738 57 47 52
0.092844635 -0.23746802 1.7854738 56 46 45
0.094630115 -0.23746802 1.7854738 55 46 46
0.09641559 -0.23746802 1.7854738 53 46 45
0.09820106 -0.23746802 1.7854738 54 49 48
0.09962714 -0.23661444 1.779056 53 47 46
0.10140619 -0.23661444 1.779056 53 46 48
0.103185244 -0.23661444 1.779056 52 47 47
0.1049643 -0.23661444 1.779056 52 46 46
0.10674336 -0.23661444 1.779056 52 47 47
0.108522415 -0.23661444 1.779056 52 45 46
0.110301465 -0.23661444 1.779056 52 45 46
0.111679085 -0.23576695 1.7726839 54 46 47
0.11304688 -0.23492554 1.7663574 51 45 44
0.11264239 -0.23048365 1.7329599 55 44 47
0.11095653 -0.2235942 1.6811595 143 110 102
0.11142653 -0.22118998 1.6630825 184 131 108
0.112635426 -0.22030166 1.6564034 198 136 112
0.11429184 -0.22030166 1.6564034 201 140 116
0.115948245 -0.22030166 1.6564034 205 143 120
0.11760464 -0.22030166 1.6564034 205 142 120
0.11886325 -0.21956684 1.6508784 206 143 118
0.120514125 -0.21956684 1.6508784 208 143 119
0.122165 -0.21956684 1.6508784 206 142 119
0.12381588 -0.21956684 1.6508784 203 140 117
0.12546676 -0.21956684 1.6508784 201 136 116
0.12661086 -0.21869148 1.6442969 201 135 116
0.12825516 -0.21869148 1.6442969 202 135 115
0.12989946 -0.21869148 1.6442969 203 135 116
0.13154374 -0.21869148 1.6442969 199 135 116
0.13318805 -0.21869148 1.6442969 200 137 117
0.13483235 -0.21869148 1.6442969 203 138 118
0.13647664 -0.21869148 1.6442969 204 137 116
0.13867378 -0.21956684 1.6508784 207 140 119
0.14032467 -0.21956684 1.6508784 208 141 119
0.14197554 -0.21956684 1.6508784 209 141 117
0.14362642 -0.21956684 1.6508784 209 141 117
0.14527729 -0.21956684 1.6508784 209 140 115
0.14692818 -0.21956684 1.6508784 207 140 114
0.14857906 -0.21956684 1.6508784 208 139 113
0.1513405 -0.22118998 1.6630825 206 139 113
0.15300359 -0.22118998 1.6630825 204 137 111
0.15466668 -0.22118998 1.6630825 201 134 109
0.15570192 -0.22030166 1.6564034 195 132 108
0.15852551 -0.22193572 1.6686896 193 130 109
0.16578367 -0.22967948 1.7269133 194 141 124
0.17927012 -0.24580334 1.8481455 221 196 171
0.18612228 -0.25259453 1.899207 215 189 169
0.19095246 -0.2565321 1.9288127 210 186 165
0.19288127 -0.2565321 1.9288127 208 182 162
0.19481009 -0.2565321 1.9288127 219 192 172
0.19673891 -0.2565321 1.9288127 211 185 166
0.1986677 -0.2565321 1.9288127 220 193 172
0.20138133 -0.25753573 1.9363589 218 191 171
0.20331769 -0.25753573 1.9363589 216 190 169
0.20525405 -0.25753573 1.9363589 195 174 155
0.2071904 -0.25753573 1.9363589 196 174 155
0.20912677 -0.25753573 1.9363589 214 187 167
0.21106313 -0.25753573 1.9363589 202 177 158
0.21299948 -0.25753573 1.9363589 210 184 164
0.21493584 -0.25753573 1.9363589 210 184 163
0.21772403 -0.25854728 1.9439645 207 181 161
0.21966799 -0.25854728 1.9439645 207 181 161
0.22161195 -0.25854728 1.9439645 208 184 164
0.22268127 -0.25753573 1.9363589 210 184 163
0.22461763 -0.25753573 1.9363589 206 181 160
0.226554 -0.25753573 1.9363589 206 180 160
0.2275999 -0.2565321 1.9288127 206 178 158
0.22952871 -0.2565321 1.9288127 201 174 155
0.23145753 -0.2565321 1.9288127 208 180 160
0.23338634 -0.2565321 1.9288127 210 184 165
0.23531516 -0.2565321 1.9288127 215 188 169
0.23724398 -0.2565321 1.9288127 213 187 169
0.23917277 -0.2565321 1.9288127 218 191 172
0.2411016 -0.2565321 1.9288127 206 182 164
0.24303041 -0.2565321 1.9288127 212 188 169
0.24495922 -0.2565321 1.9288127 215 192 172
0.24688803 -0.2565321 1.9288127 214 190 170
0.24881685 -0.2565321 1.9288127 209 183 164
0.25074565 -0.2565321 1.9288127 207 179 162
0.25267446 -0.2565321 1.9288127 200 174 157
0.2536149 -0.25553623 1.9213251 208 182 165
0.25553623 -0.25553623 1.9213251 213 189 169
0.25745755 -0.25553623 1.9213251 213 189 170
0.25937888 -0.25553623 1.9213251 213 189 170
0.26028976 -0.25454807 1.9138954 215 189 171
0.26220366 -0.25454807 1.9138954 216 187 169
0.26411754 -0.25454807 1.9138954 214 187 168
0.26706418 -0.25553623 1.9213251 210 182 163
0.26794535 -0.25454807 1.9138954 208 179 163
0.26985925 -0.25454807 1.9138954 208 177 161
0.27177313 -0.25454807 1.9138954 204 177 160
0.27368703 -0.25454807 1.9138954 209 183 165
-0.2766708 -0.25745755 1.9213251 165 136 95
-0.2747495 -0.25745755 1.9213251 161 137 101
-0.27282816 -0.25745755 1.9213251 157 135 116
-0.27090684 -0.25745755 1.9213251 160 140 118
-0.2689855 -0.25745755 1.9213251 163 143 119
-0.26706418 -0.25745755 1.9213251 161 141 119
-0.26514286 -0.25745755 1.9213251 161 142 123
-0.26322153 -0.25745755 1.9213251 163 147 127
-0.2613002 -0.25745755 1.9213251 165 147 131
-0.25937888 -0.25745755 1.9213251 165 147 129
-0.25745755 -0.25745755 1.9213251 158 142 118
-0.25553623 -0.25745755 1.9213251 158 139 120
-0.2536149 -0.25745755 1.9213251 160 143 126
-0.25169358 -0.25745755 1.9213251 161 143 122
-0.2488064 -0.25646198 1.9138954 158 138 119
-0.2468925 -0.25646198 1.9138954 160 138 120
-0.2449786 -0.25646198 1.9138954 151 131 114
-0.24306472 -0.25646198 1.9138954 152 132 115
-0.24115081 -0.25646198 1.9138954 155 134 115
-0.23923692 -0.25646198 1.9138954 153 132 112
-0.23732303 -0.25646198 1.9138954 144 125 106
-0.23540914 -0.25646198 1.9138954 144 125 105
-0.23349524 -0.25646198 1.9138954 148 128 107
-0.23158135 -0.25646198 1.9138954 146 128 106
-0.22878274 -0.25547406 1.9065229 146 129 107
-0.22687621 -0.25547406 1.9065229 150 130 109
-0.2249697 -0.25547406 1.9065229 144 127 105
-0.22306317 -0.25547406 1.9065229 144 124 104
-0.22115664 -0.25547406 1.9065229 140 122 102
-0.21925014 -0.25547406 1.9065229 145 126 104
-0.21734361 -0.25547406 1.9065229 144 123 104
-0.21543708 -0.25547406 1.9065229 143 124 103
-0.21435627 -0.25646198 1.9138954 138 120 101
-0.21244238 -0.25646198 1.9138954 141 123 102
-0.2105285 -0.25646198 1.9138954 139 123 106
-0.20861459 -0.25646198 1.9138954 145 125 107
-0.2067007 -0.25646198 1.9138954 138 119 102
-0.2047868 -0.25646198 1.9138954 139 121 102
-0.2028729 -0.25646198 1.9138954 143 123 103
-0.20095901 -0.25646198 1.9138954 146 127 106
-0.19827838 -0.25547406 1.9065229 145 127 106
-0.19637185 -0.25547406 1.9065229 142 124 104
-0.19446534 -0.25547406 1.9065229 135 114 98
-0.19255881 -0.25547406 1.9065229 135 116 99
-0.19065228 -0.25547406 1.9065229 140 121 103
-0.19021118 -0.25745755 1.9213251 139 119 102
-0.18828985 -0.25745755 1.9213251 144 123 105
-0.18636853 -0.25745755 1.9213251 141 120 102
-0.1844472 -0.25745755 1.9213251 135 114 97
-0.18252587 -0.25745755 1.9213251 130 114 94
-0.18060455 -0.25745755 1.9213251 130 114 94
-0.17868322 -0.25745755 1.9213251 135 115 96
-0.1767619 -0.25745755 1.9213251 134 116 96
-0.17552195 -0.2584609 1.9288127 137 119 95
-0.17359313 -0.2584609 1.9288127 134 117 93
-0.17166434 -0.2584609 1.9288127 137 119 97
-0.16973552 -0.2584609 1.9288127 136 120 97
-0.1678067 -0.2584609 1.9288127 137 119 98
-0.1658779 -0.2584609 1.9288127 141 123 102
-0.16394909 -0.2584609 1.9288127 138 116 99
-0.16202027 -0.2584609 1.9288127 140 119 101
-0.16009146 -0.2584609 1.9288127 140 117 99
-0.15816264 -0.2584609 1.9288127 139 118 100
-0.15623383 -0.2584609 1.9288127 138 120 101
-0.15311164 -0.25646198 1.9138954 141 122 100
-0.15119773 -0.25646198 1.9138954 135 115 98
-0.14870879 -0.25547406 1.9065229 137 116 101
-0.14177777 -0.24673016 1.8412699 97 85 81
-0.13569601 -0.23925349 1.7854738 86 74 73
-0.1334292 -0.2383935 1.779056 80 70 67
-0.1311786 -0.23753965 1.7726839 79 69 67
-0.1289441 -0.23669189 1.7663574 75 65 64
-0.12717773 -0.23669189 1.7663574 71 62 62
-0.12541138 -0.23669189 1.7663574 70 62 64
-0.12364502 -0.23669189 1.7663574 72 63 65
-0.12187866 -0.23669189 1.7663574 71 63 62
-0.12011231 -0.23669189 1.7663574 70 61 62
-0.11784127 -0.23568255 1.758825 71 63 64
-0.116082445 -0.23568255 1.758825 67 58 59
-0.113918796 -0.23484798 1.7525969 68 58 54
-0.11090943 -0.23221663 1.7329599 82 64 50
-0.10715051 -0.22790743 1.7008018 117 93 78
-0.10235446 -0.2212177 1.6508784 155 115 98
-0.099181786 -0.21787474 1.6259309 188 138 116
-0.09685584 -0.21631137 1.614264 204 148 118
-0.09524158 -0.21631137 1.614264 209 149 117
-0.09362731 -0.21631137 1.614264 210 148 116
-0.092013046 -0.21631137 1.614264 212 148 116
-0.09039879 -0.21631137 1.614264 215 148 117
-0.08878452 -0.21631137 1.614264 218 149 118
-0.08717026 -0.21631137 1.614264 220 150 118
-0.085222445 -0.21546806 1.6079706 218 149 118
-0.08361447 -0.21546806 1.6079706 218 149 117
-0.0820065 -0.21546806 1.6079706 218 149 117
-0.08039853 -0.21546806 1.6079706 218 149 118
-0.07879056 -0.21546806 1.6079706 219 150 119
-0.07718258 -0.21546806 1.6079706 218 150 121
-0.075574614 -0.21546806 1.6079706 220 151 122
-0.074256144 -0.21631137 1.614264 221 153 122
-0.07264189 -0.21631137 1.614264 223 155 122
-0.07102762 -0.21631137 1.614264 223 155 124
-0.06941336 -0.21631137 1.614264 225 156 127
-0.067799084 -0.21631137 1.614264 224 156 127
-0.06618482 -0.21631137 1.614264 222 156 128
-0.06457055 -0.21631137 1.614264 223 155 126
-0.062956296 -0.21631137 1.614264 224 156 126
-0.061342034 -0.21631137 1.614264 223 153 124
-0.05972777 -0.21631137 1.614264 222 153 124
-0.058113504 -0.21631137 1.614264 219 151 122
-0.05649924 -0.21631137 1.614264 219 148 120
-0.055100635 -0.21716133 1.6206069 217 147 119
-0.053480025 -0.21716133 1.6206069 214 146 117
-0.05223571 -0.21873704 1.632366 213 144 114
-0.05040386 -0.21787474 1.6259309 211 141 113
-0.048777927 -0.21787474 1.6259309 207 138 110
-0.047151998 -0.21787474 1.6259309 204 137 109
-0.045526065 -0.21787474 1.6259309 204 136 108
-0.043900136 -0.21787474 1.6259309 204 137 109
-0.042441513 -0.21873704 1.632366 200 137 106
-0.04171724 -0.2236044 1.6686896 147 102 88
-0.04452174 -0.24857971 1.8550725 74 48 40
-0.043349076 -0.2525555 1.8847424 61 43 35
-0.041943505 -0.25547406 1.9065229 61 44 39
-0.04003698 -0.25547406 1.9065229 60 43 38
-0.038426504 -0.25745755 1.9213251 60 44 38
-0.036505178 -0.25745755 1.9213251 62 46 40
-0.03458385 -0.25745755 1.9213251 62 45 39
-0.032662526 -0.25745755 1.9213251 67 48 40
-0.030741202 -0.25745755 1.9213251 66 48 40
-0.028819876 -0.25745755 1.9213251 66 49 41
-0.026898552 -0.25745755 1.9213251 64 48 40
-0.02488064 -0.25646198 1.9138954 63 48 41
-0.022966744 -0.25646198 1.9138954 64 48 43
-0.021052849 -0.25646198 1.9138954 65 49 44
-0.019138955 -0.25646198 1.9138954 62 45 36
-0.017225057 -0.25646198 1.9138954 63 45 37
-0.015311163 -0.25646198 1.9138954 63 44 37
-0.013397267 -0.25646198 1.9138954 63 46 38
-0.011483372 -0.25646198 1.9138954 65 49 40
-0.009569477 -0.25646198 1.9138954 65 48 39
-0.0076555815 -0.25646198 1.9138954 65 47 39
-0.005741686 -0.25646198 1.9138954 64 46 38
-0.0038277907 -0.25646198 1.9138954 63 47 40
-0.0019138954 -0.25646198 1.9138954 63 46 36
0.0 -0.25646198 1.9138954 66 49 42
0.0019138954 -0.25646198 1.9138954 67 48 41
0.0038277907 -0.25646198 1.9138954 65 49 38
0.005741686 -0.25646198 1.9138954 65 47 39
0.0076555815 -0.25646198 1.9138954 62 46 38
0.009606626 -0.25745755 1.9213251 64 47 43
0.01152795 -0.25745755 1.9213251 66 49 44
0.013449276 -0.25745755 1.9213251 67 50 40
0.015370601 -0.25745755 1.9213251 66 48 41
0.017291926 -0.25745755 1.9213251 65 48 41
0.019213252 -0.25745755 1.9213251 63 45 41
0.021134578 -0.25745755 1.9213251 60 45 41
0.0230559 -0.25745755 1.9213251 56 45 36
0.024977226 -0.25745755 1.9213251 56 42 38
0.026898552 -0.25745755 1.9213251 53 41 36
0.028819876 -0.25745755 1.9213251 53 38 36
0.030387312 -0.25449374 1.899207 48 34 31
0.032286517 -0.25449374 1.899207 47 35 35
0.034450114 -0.25646198 1.9138954 52 36 37
0.036223933 -0.25547406 1.9065229 60 36 33
0.03813046 -0.25547406 1.9065229 71 42 40
0.039883345 -0.25449374 1.899207 62 32 29
0.041622832 -0.2535209 1.891947 72 39 35
0.043184623 -0.25159737 1.8775923 74 42 41
0.04485801 -0.25045723 1.8690836 55 36 36
0.04655129 -0.24951494 1.8620517 48 31 32
0.048051782 -0.24765149 1.8481455 48 33 31
0.049714286 -0.24673016 1.8412699 62 48 44
0.051748075 -0.24765149 1.8481455 67 55 47
0.053198915 -0.24581568 1.8344454 61 52 48
0.05503336 -0.24581568 1.8344454 48 38 35
0.056867804 -0.24581568 1.8344454 53 42 41
0.05848548 -0.24490795 1.8276712 55 43 45
0.060091242 -0.24400687 1.8209468 53 43 44
0.061912194 -0.24400687 1.8209468 52 43 44
0.06345299 -0.24293432 1.8129426 53 44 45
0.06526594 -0.24293432 1.8129426 53 43 44
0.06707888 -0.24293432 1.8129426 53 43 45
0.06889182 -0.24293432 1.8129426 52 42 44
0.070446715 -0.2420477 1.8063262 53 43 41
0.07225304 -0.2420477 1.8063262 53 43 43
0.074059375 -0.2420477 1.8063262 54 44 45
0.07558982 -0.24116752 1.7997576 54 45 47
0.07738958 -0.24116752 1.7997576 52 44 45
0.07856085 -0.23925349 1.7854738 51 43 46
0.08034632 -0.23925349 1.7854738 52 46 44
0.082488894 -0.24029371 1.7932367 55 45 43
0.08391727 -0.23925349 1.7854738 52 45 45
0.086075366 -0.24029371 1.7932367 52 44 45
0.08748822 -0.23925349 1.7854738 54 44 45
0.08927369 -0.23925349 1.7854738 53 44 45
0.09105916 -0.23925349 1.7854738 52 46 48
0.092844635 -0.23925349 1.7854738 56 47 46
0.094630115 -0.23925349 1.7854738 53 46 46
0.09641559 -0.23925349 1.7854738 52 45 45
0.09820106 -0.23925349 1.7854738 54 48 48
0.09962714 -0.2383935 1.779056 53 47 47
0.10140619 -0.2383935 1.779056 54 48 50
0.103185244 -0.2383935 1.779056 53 46 47
0.1049643 -0.2383935 1.779056 53 47 47
0.10674336 -0.2383935 1.779056 54 48 48
0.108522415 -0.2383935 1.779056 52 46 47
0.110301465 -0.2383935 1.779056 50 44 44
0.111679085 -0.23753965 1.7726839 52 46 45
0.11304688 -0.23669189 1.7663574 51 45 44
0.11224937 -0.23140639 1.7269133 55 43 41
0.11095653 -0.22527538 1.6811595 161 119 105
0.11142653 -0.22285306 1.6630825 191 135 109
0.112635426 -0.22195806 1.6564034 197 137 112
0.11429184 -0.22195806 1.6564034 203 140 116
0.11556149 -0.2212177 1.6508784 205 141 118
0.11721237 -0.2212177 1.6508784 207 141 119
0.11886325 -0.2212177 1.6508784 206 142 118
0.120514125 -0.2212177 1.6508784 208 142 121
0.122165 -0.2212177 1.6508784 205 139 118
0.12381588 -0.2212177 1.6508784 201 136 116
0.12496656 -0.22033578 1.6442969 199 135 112
0.12661086 -0.22033578 1.6442969 199 134 113
0.12825516 -0.22033578 1.6442969 196 133 112
0.12989946 -0.22033578 1.6442969 199 133 113
0.13154374 -0.22033578 1.6442969 200 136 114
0.13318805 -0.22033578 1.6442969 201 136 116
0.13483235 -0.22033578 1.6442969 202 137 116
0.13647664 -0.22033578 1.6442969 201 137 116
0.13812093 -0.22033578 1.6442969 204 138 117
0.13976523 -0.22033578 1.6442969 206 139 117
0.14140953 -0.22033578 1.6442969 207 140 118
0.14362642 -0.2212177 1.6508784 209 141 117
0.14527729 -0.2212177 1.6508784 209 141 117
0.14692818 -0.2212177 1.6508784 207 141 115
0.14857906 -0.2212177 1.6508784 207 140 114
0.15073271 -0.22195806 1.6564034 208 139 114
0.15238911 -0.22195806 1.6564034 207 138 112
0.15404552 -0.22195806 1.6564034 199 133 108
0.15518257 -0.2212177 1.6508784 200 132 108
0.15799282 -0.22285306 1.6630825 196 131 108
0.1601942 -0.2236044 1.6686896 192 130 111
0.17195033 -0.23753965 1.7726839 213 168 146
0.1817971 -0.24857971 1.8550725 208 187 167
0.19021118 -0.25745755 1.9213251 218 194 172
0.1936359 -0.2594721 1.9363589 222 196 174
0.19481009 -0.2584609 1.9288127 212 191 170
0.19673891 -0.2584609 1.9288127 217 193 173
0.1986677 -0.2584609 1.9288127 214 189 169
0.20059653 -0.2584609 1.9288127 208 184 165
0.20252535 -0.2584609 1.9288127 208 185 166
0.20445415 -0.2584609 1.9288127 214 188 169
0.20638296 -0.2584609 1.9288127 213 189 169
0.20831178 -0.2584609 1.9288127 218 193 171
0.21024059 -0.2584609 1.9288127 209 186 165
0.21216941 -0.2584609 1.9288127 210 184 164
0.21409822 -0.2584609 1.9288127 212 187 167
0.21687219 -0.2594721 1.9363589 212 188 167
0.21966799 -0.26049125 1.9439645 207 184 164
0.22074492 -0.2594721 1.9363589 206 183 161
0.22268127 -0.2594721 1.9363589 212 188 165
0.22461763 -0.2594721 1.9363589 209 184 163
0.226554 -0.2594721 1.9363589 212 186 163
0.2275999 -0.2584609 1.9288127 211 185 163
0.22952871 -0.2584609 1.9288127 204 179 158
0.23145753 -0.2584609 1.9288127 204 178 158
0.23338634 -0.2584609 1.9288127 207 181 161
0.23531516 -0.2584609 1.9288127 208 183 164
0.23724398 -0.2584609 1.9288127 210 184 167
0.23917277 -0.2584609 1.9288127 211 185 167
0.2411016 -0.2584609 1.9288127 210 184 165
0.24303041 -0.2584609 1.9288127 207 181 163
0.24495922 -0.2584609 1.9288127 207 182 164
0.24592961 -0.25745755 1.9213251 211 184 166
0.24785094 -0.25745755 1.9213251 215 186 168
0.24977227 -0.25745755 1.9213251 210 184 166
0.25169358 -0.25745755 1.9213251 208 182 164
0.2526342 -0.25646198 1.9138954 204 179 161
0.25454807 -0.25646198 1.9138954 209 183 166
0.25646198 -0.25646198 1.9138954 213 187 168
0.25837588 -0.25646198 1.9138954 210 186 167
0.25928712 -0.25547406 1.9065229 213 189 171
0.26119363 -0.25547406 1.9065229 209 186 168
0.26310015 -0.25547406 1.9065229 209 183 166
0.26603147 -0.25646198 1.9138954 206 181 162
0.2669132 -0.25547406 1.9065229 210 184 163
0.26881972 -0.25547406 1.9065229 212 183 165
0.27072626 -0.25547406 1.9065229 205 177 159
0.27263278 -0.25547406 1.9065229 209 181 161
-0.2766708 -0.25937888 1.9213251 162 135 98
-0.2747495 -0.25937888 1.9213251 161 137 104
-0.27282816 -0.25937888 1.9213251 162 138 115
-0.27090684 -0.25937888 1.9213251 164 142 119
-0.2689855 -0.25937888 1.9213251 158 140 119
-0.26706418 -0.25937888 1.9213251 158 141 121
-0.26514286 -0.25937888 1.9213251 160 141 124
-0.26322153 -0.25937888 1.9213251 160 141 121
-0.2613002 -0.25937888 1.9213251 158 139 118
-0.25937888 -0.25937888 1.9213251 159 140 120
-0.25745755 -0.25937888 1.9213251 159 138 122
-0.25454807 -0.25837588 1.9138954 158 140 119
-0.2526342 -0.25837588 1.9138954 158 142 123
-0.2507203 -0.25837588 1.9138954 161 138 117
-0.2488064 -0.25837588 1.9138954 159 137 115
-0.2468925 -0.25837588 1.9138954 152 132 114
-0.2449786 -0.25837588 1.9138954 155 134 116
-0.24306472 -0.25837588 1.9138954 154 133 114
-0.24115081 -0.25837588 1.9138954 153 132 113
-0.23923692 -0.25837588 1.9138954 150 130 110
-0.23732303 -0.25837588 1.9138954 143 125 106
-0.23540914 -0.25837588 1.9138954 143 124 104
-0.2325958 -0.25738057 1.9065229 144 125 104
-0.23068927 -0.25738057 1.9065229 145 126 104
-0.22878274 -0.25738057 1.9065229 148 129 110
-0.22687621 -0.25738057 1.9065229 147 130 109
-0.2249697 -0.25738057 1.9065229 147 128 108
-0.22306317 -0.25738057 1.9065229 144 124 104
-0.22115664 -0.25738057 1.9065229 139 121 101
-0.21925014 -0.25738057 1.9065229 142 122 102
-0.21734361 -0.25738057 1.9065229 145 122 102
-0.21543708 -0.25738057 1.9065229 141 122 102
-0.21435627 -0.25837588 1.9138954 141 124 106
-0.21244238 -0.25837588 1.9138954 142 123 105
-0.20971751 -0.25738057 1.9065229 143 126 109
-0.20781098 -0.25738057 1.9065229 141 123 106
-0.20590447 -0.25738057 1.9065229 142 123 105
-0.20399794 -0.25738057 1.9065229 143 124 105
-0.20209143 -0.25738057 1.9065229 135 118 101
-0.20018491 -0.25738057 1.9065229 144 126 107
-0.19904512 -0.25837588 1.9138954 144 126 107
-0.19637185 -0.25738057 1.9065229 139 122 102
-0.19446534 -0.25738057 1.9065229 140 121 102
-0.19255881 -0.25738057 1.9065229 143 122 105
-0.19065228 -0.25738057 1.9065229 143 124 105
-0.18947564 -0.25837588 1.9138954 138 121 104
-0.18756175 -0.25837588 1.9138954 139 121 104
-0.18564786 -0.25837588 1.9138954 135 117 100
-0.18373396 -0.25837588 1.9138954 143 124 104
-0.18182005 -0.25837588 1.9138954 137 120 101
-0.17990616 -0.25837588 1.9138954 138 119 99
-0.17799227 -0.25837588 1.9138954 136 117 97
-0.17607836 -0.25837588 1.9138954 136 118 97
-0.17484057 -0.25937888 1.9213251 138 121 97
-0.17291924 -0.25937888 1.9213251 141 126 102
-0.17099795 -0.25937888 1.9213251 137 118 98
-0.16907662 -0.25937888 1.9213251 137 121 100
-0.1671553 -0.25937888 1.9213251 139 124 106
-0.16523397 -0.25937888 1.9213251 141 120 99
-0.16331264 -0.25937888 1.9213251 128 110 91
-0.16139132 -0.25937888 1.9213251 133 112 93
-0.15946999 -0.25937888 1.9213251 136 114 93
-0.15754867 -0.25937888 1.9213251 134 117 94
-0.15562734 -0.25937888 1.9213251 142 122 99
-0.15311164 -0.25837588 1.9138954 135 115 95
-0.15119773 -0.25837588 1.9138954 127 110 92
-0.14757186 -0.25541285 1.891947 121 104 90
-0.14073068 -0.24673562 1.8276712 93 82 78
-0.13569601 -0.24103898 1.7854738 86 74 73
-0.13295129 -0.23931232 1.7726839 79 70 68
-0.13071045 -0.23845825 1.7663574 76 66 64
-0.12839423 -0.23744136 1.758825 77 67 66
-0.12717773 -0.23845825 1.7663574 74 65 66
-0.12541138 -0.23845825 1.7663574 71 63 66
-0.12364502 -0.23845825 1.7663574 70 63 67
-0.12135892 -0.23744136 1.758825 69 60 64
-0.119600095 -0.23744136 1.758825 68 59 63
-0.11784127 -0.23744136 1.758825 69 59 62
-0.11477723 -0.23477161 1.739049 74 60 53
-0.11139428 -0.23135735 1.7137581 96 76 63
-0.10722997 -0.22618821 1.6754683 138 104 89
-0.10283906 -0.2203694 1.632366 172 127 108
-0.10047763 -0.21878193 1.6206069 198 144 121
-0.09808621 -0.21707603 1.6079706 209 149 120
-0.09542417 -0.21470438 1.5904028 214 149 118
-0.09419699 -0.21553549 1.5965592 212 149 117
