ply
format ascii 1.0
element vertex 1074
property float32 x
property float32 y
property float32 z
property uchar red
property uchar green
property uchar blue
element face 0
property list uint8 int32 vertex_indices
end_header
0.09148204 -0.30390644 1.5505431 115 96 74
0.09004245 -0.29413867 1.5007075 144 105 75
0.09055469 -0.2909626 1.4845031 163 111 78
0.09170911 -0.2899191 1.4791791 164 112 80
0.093188286 -0.2899191 1.4791791 167 113 84
0.094667464 -0.2899191 1.4791791 170 113 85
0.09574603 -0.28871113 1.4730159 171 113 85
0.09762582 -0.2899191 1.4791791 166 111 81
0.099105 -0.2899191 1.4791791 157 107 76
0.10058418 -0.2899191 1.4791791 151 97 74
0.102063365 -0.2899191 1.4791791 135 87 70
0.10391522 -0.2909626 1.4845031 118 75 61
0.10578046 -0.29201365 1.4898655 90 55 46
0.10765922 -0.2930723 1.4952669 53 31 30
0.10955165 -0.29413867 1.5007075 56 41 45
0.11105235 -0.29413867 1.5007075 75 58 64
0.11255306 -0.29413867 1.5007075 89 73 72
0.113640286 -0.2930723 1.4952669 93 78 77
0.11430674 -0.2909626 1.4845031 95 77 75
0.11448637 -0.2876837 1.4677739 114 88 81
0.11472926 -0.28464478 1.4522692 148 102 86
0.11618154 -0.28464478 1.4522692 170 111 88
0.117221065 -0.28364602 1.4471736 172 113 88
0.11825331 -0.28265423 1.4421135 173 111 88
0.11969542 -0.28265423 1.4421135 175 112 88
0.120715454 -0.2816694 1.4370887 176 112 87
0.122152545 -0.2816694 1.4370887 181 116 90
0.12358963 -0.2816694 1.4370887 180 116 93
0.12452053 -0.28052902 1.4312705 183 119 98
0.12595181 -0.28052902 1.4312705 184 121 100
0.12738307 -0.28052902 1.4312705 187 124 102
0.12933798 -0.2816694 1.4370887 191 126 104
0.13024563 -0.28052902 1.4312705 190 129 104
0.13167688 -0.28052902 1.4312705 188 128 103
0.13310815 -0.28052902 1.4312705 173 111 93
0.13453943 -0.28052902 1.4312705 139 82 71
0.13652343 -0.2816694 1.4370887 132 76 65
0.13892867 -0.28364602 1.4471736 161 96 81
0.13988501 -0.28265423 1.4421135 167 103 84
0.14182301 -0.28364602 1.4471736 170 104 83
0.14377464 -0.28464478 1.4522692 170 105 83
0.14522691 -0.28464478 1.4522692 173 106 84
0.14667918 -0.28464478 1.4522692 174 108 85
0.1476117 -0.28364602 1.4471736 175 110 87
0.14958373 -0.28464478 1.4522692 179 114 93
0.15050606 -0.28364602 1.4471736 183 119 97
0.15248826 -0.28464478 1.4522692 182 120 98
0.15394054 -0.28464478 1.4522692 186 123 100
0.15539281 -0.28464478 1.4522692 189 123 100
0.15684508 -0.28464478 1.4522692 184 118 95
0.15774193 -0.28364602 1.4471736 159 100 85
0.1591891 -0.28364602 1.4471736 144 81 66
0.16120188 -0.28464478 1.4522692 146 82 65
0.1632289 -0.28565058 1.4574009 150 87 70
0.1646863 -0.28565058 1.4574009 152 89 74
0.1661437 -0.28565058 1.4574009 151 91 74
0.16819544 -0.2866635 1.462569 156 97 79
0.1690585 -0.28565058 1.4574009 161 104 84
0.17112057 -0.2866635 1.462569 164 110 89
0.17258315 -0.2866635 1.462569 173 119 97
0.1752889 -0.28871113 1.4730159 170 121 101
0.1800849 -0.29413867 1.5007075 200 169 140
0.18358964 -0.29738486 1.5172696 193 166 149
0.1870566 -0.30051714 1.5332508 201 174 164
0.1900025 -0.30276823 1.5447358 204 183 166
0.19083253 -0.30163848 1.5389719 197 177 159
0.19309197 -0.30276823 1.5447358 202 179 159
0.1946367 -0.30276823 1.5447358 194 165 144
0.19766207 -0.30505326 1.5563942 167 116 102
0.19772618 -0.30276823 1.5447358 143 85 75
0.19927092 -0.30276823 1.5447358 146 86 71
0.2015706 -0.30390644 1.5505431 151 88 73
0.20236038 -0.30276823 1.5447358 153 84 69
0.20390512 -0.30276823 1.5447358 144 82 61
0.20622224 -0.30390644 1.5505431 144 87 65
0.21000972 -0.30717838 1.5672367 172 120 100
0.21553549 -0.3129256 1.5965592 195 166 142
0.22040254 -0.31763893 1.6206069 209 185 164
0.22202314 -0.31763893 1.6206069 211 189 168
0.22364375 -0.31763893 1.6206069 209 187 168
0.22600439 -0.31868246 1.6259309 215 188 168
0.22763033 -0.31868246 1.6259309 212 190 166
0.22925626 -0.31868246 1.6259309 199 172 150
0.23179597 -0.31994373 1.632366 190 160 138
0.23342833 -0.31994373 1.632366 181 150 125
-0.229018 -0.31330937 1.5904028 188 142 118
-0.22742762 -0.31330937 1.5904028 185 137 116
-0.2258372 -0.31330937 1.5904028 187 143 118
-0.2242468 -0.31330937 1.5904028 180 136 112
-0.2226564 -0.31330937 1.5904028 186 136 112
-0.221066 -0.31330937 1.5904028 186 139 117
-0.21947558 -0.31330937 1.5904028 181 140 121
-0.2178852 -0.31330937 1.5904028 189 154 134
-0.21629478 -0.31330937 1.5904028 181 145 125
-0.21470438 -0.31330937 1.5904028 178 152 131
-0.21311398 -0.31330937 1.5904028 182 158 139
-0.21234238 -0.31452215 1.5965592 176 155 137
-0.2107458 -0.31452215 1.5965592 176 156 137
-0.20914924 -0.31452215 1.5965592 182 162 141
-0.20835924 -0.31574437 1.6027634 179 158 138
-0.20675649 -0.31574437 1.6027634 169 151 131
-0.20515372 -0.31574437 1.6027634 178 156 136
-0.20276302 -0.31452215 1.5965592 184 161 142
-0.2019482 -0.31574437 1.6027634 186 164 144
-0.1995699 -0.31452215 1.5965592 183 162 142
-0.19874266 -0.31574437 1.6027634 172 152 134
-0.19637677 -0.31452215 1.5965592 170 150 132
-0.19478022 -0.31452215 1.5965592 173 153 135
-0.19318366 -0.31452215 1.5965592 179 157 138
-0.1923316 -0.31574437 1.6027634 177 155 134
-0.19072886 -0.31574437 1.6027634 178 156 136
-0.18912609 -0.31574437 1.6027634 175 153 132
-0.18752332 -0.31574437 1.6027634 175 152 133
-0.18520087 -0.31452215 1.5965592 176 153 133
-0.1843178 -0.31574437 1.6027634 169 147 128
-0.18200774 -0.31452215 1.5965592 169 148 129
-0.18111226 -0.31574437 1.6027634 163 144 124
-0.1795095 -0.31574437 1.6027634 170 150 131
-0.17790674 -0.31574437 1.6027634 174 155 135
-0.17630397 -0.31574437 1.6027634 178 158 138
-0.17470121 -0.31574437 1.6027634 176 157 137
-0.17309844 -0.31574437 1.6027634 180 160 138
-0.17149568 -0.31574437 1.6027634 176 157 136
-0.16989292 -0.31574437 1.6027634 178 158 137
-0.16829017 -0.31574437 1.6027634 175 155 135
-0.1666874 -0.31574437 1.6027634 176 156 136
-0.16508463 -0.31574437 1.6027634 172 154 132
-0.16348188 -0.31574437 1.6027634 167 149 129
-0.1618791 -0.31574437 1.6027634 179 159 137
-0.16027634 -0.31574437 1.6027634 182 162 141
-0.15867358 -0.31574437 1.6027634 178 159 138
-0.15707082 -0.31574437 1.6027634 176 157 137
-0.15546805 -0.31574437 1.6027634 177 157 137
-0.1538653 -0.31574437 1.6027634 179 159 138
-0.15226252 -0.31574437 1.6027634 178 158 138
-0.15007657 -0.31452215 1.5965592 181 161 140
-0.14848 -0.31452215 1.5965592 182 162 140
-0.14688344 -0.31452215 1.5965592 187 166 145
-0.14528689 -0.31452215 1.5965592 178 159 138
-0.14369032 -0.31452215 1.5965592 177 158 138
-0.14154585 -0.31330937 1.5904028 175 155 135
-0.14049721 -0.31452215 1.5965592 176 157 137
-0.13890065 -0.31452215 1.5965592 171 155 135
-0.1373041 -0.31452215 1.5965592 171 153 132
-0.13570753 -0.31452215 1.5965592 165 146 126
-0.13359384 -0.31330937 1.5904028 164 145 124
-0.13200343 -0.31330937 1.5904028 161 141 121
-0.13041304 -0.31330937 1.5904028 132 117 99
-0.12841 -0.3123058 1.5853087 116 104 90
-0.12682469 -0.3123058 1.5853087 116 102 88
-0.124759845 -0.31111 1.5792385 112 98 86
-0.123180605 -0.31111 1.5792385 92 82 76
-0.12113754 -0.30992332 1.5732148 82 70 68
-0.119564325 -0.30992332 1.5732148 79 69 66
-0.11754275 -0.30874562 1.5672367 78 67 65
-0.11597551 -0.30874562 1.5672367 74 63 60
-0.11440828 -0.30874562 1.5672367 72 62 57
-0.11241389 -0.30757686 1.561304 76 65 61
-0.1112738 -0.30874562 1.5672367 76 65 58
-0.109706566 -0.30874562 1.5672367 76 65 57
-0.10772997 -0.30757686 1.561304 75 64 57
-0.10616867 -0.30757686 1.561304 76 64 57
-0.104607366 -0.30757686 1.561304 87 72 66
-0.10304606 -0.30757686 1.561304 103 88 82
-0.10148475 -0.30757686 1.561304 100 86 81
-0.099923454 -0.30757686 1.561304 75 63 62
-0.09805284 -0.30660966 1.5563942 77 65 66
-0.09649645 -0.30660966 1.5563942 89 77 72
-0.09494005 -0.30660966 1.5563942 92 80 75
-0.09303258 -0.30545697 1.5505431 73 60 55
-0.09148204 -0.30545697 1.5505431 72 64 60
-0.08926037 -0.30317745 1.5389719 82 67 62
-0.08707161 -0.3009317 1.527572 145 105 86
-0.08403962 -0.29563937 1.5007075 175 118 91
-0.0819426 -0.29350352 1.4898655 177 117 90
-0.07987567 -0.2913983 1.4791791 177 113 89
-0.07867867 -0.29244712 1.4845031 170 108 84
-0.07719416 -0.29244712 1.4845031 168 104 75
-0.07570966 -0.29244712 1.4845031 163 100 70
-0.07422516 -0.29244712 1.4845031 160 96 67
-0.07217778 -0.29018414 1.4730159 158 93 64
-0.070704766 -0.29018414 1.4730159 153 90 63
-0.06898537 -0.28915146 1.4677739 149 84 60
-0.0675176 -0.28915146 1.4677739 158 92 75
-0.06604983 -0.28915146 1.4677739 178 112 91
-0.06458206 -0.28915146 1.4677739 189 127 99
-0.06289047 -0.2881261 1.462569 190 130 100
-0.0614279 -0.2881261 1.462569 189 127 100
-0.059965327 -0.2881261 1.462569 185 121 94
-0.058502764 -0.2881261 1.462569 180 117 90
-0.057040192 -0.2881261 1.462569 175 112 83
-0.05557762 -0.2881261 1.462569 171 109 81
-0.053923834 -0.28710797 1.4574009 171 108 81
-0.052466433 -0.28710797 1.4574009 169 106 79
-0.051009033 -0.28710797 1.4574009 167 105 78
-0.049551632 -0.28710797 1.4574009 169 105 79
-0.04809423 -0.28710797 1.4574009 169 106 80
-0.046472613 -0.28609705 1.4522692 172 109 82
-0.044862382 -0.2850932 1.4471736 173 113 84
-0.04356808 -0.28609705 1.4522692 177 116 86
-0.041968033 -0.2850932 1.4471736 183 120 89
-0.040520858 -0.2850932 1.4471736 187 122 94
-0.039073687 -0.2850932 1.4471736 187 122 94
-0.037494954 -0.28409636 1.4421135 187 121 97
-0.036052838 -0.28409636 1.4421135 189 123 98
-0.034732167 -0.2850932 1.4471736 190 124 97
-0.033284992 -0.2850932 1.4471736 188 123 95
-0.031837817 -0.2850932 1.4471736 185 118 87
-0.030390646 -0.2850932 1.4471736 179 111 81
-0.029045384 -0.28609705 1.4522692 177 107 78
-0.027593115 -0.28609705 1.4522692 176 105 75
-0.026140846 -0.28609705 1.4522692 171 101 73
-0.024775816 -0.28710797 1.4574009 172 99 72
-0.023236306 -0.28609705 1.4522692 173 99 73
-0.02178404 -0.28609705 1.4522692 175 101 72
-0.020331768 -0.28609705 1.4522692 177 104 74
-0.0188795 -0.28609705 1.4522692 177 105 76
-0.01742723 -0.28609705 1.4522692 180 107 76
-0.01603141 -0.28710797 1.4574009 184 109 77
-0.014522692 -0.28609705 1.4522692 182 109 78
-0.013070423 -0.28609705 1.4522692 182 113 82
-0.011659208 -0.28710797 1.4574009 184 116 88
-0.010201806 -0.28710797 1.4574009 181 114 86
-0.008744406 -0.28710797 1.4574009 176 108 78
-0.0073128454 -0.2881261 1.462569 172 105 77
-0.0058710957 -0.28915146 1.4677739 172 106 77
-0.004419048 -0.29018414 1.4730159 172 110 84
-0.0029690063 -0.29244712 1.4845031 162 107 82
-0.0014952669 -0.29456758 1.4952669 142 94 71
0.0 -0.29456758 1.4952669 138 91 73
0.001506188 -0.296719 1.5061879 147 97 79
0.0030665016 -0.3020504 1.5332508 159 112 87
0.0047377157 -0.31111 1.5792385 163 125 108
0.0064110537 -0.31574437 1.6027634 167 141 123
0.008039854 -0.3167702 1.6079706 162 140 122
0.009647823 -0.3167702 1.6079706 156 135 116
0.011219344 -0.31574437 1.6027634 151 133 116
0.012822107 -0.31574437 1.6027634 159 138 123
0.014424871 -0.31574437 1.6027634 169 147 132
0.016027633 -0.31574437 1.6027634 167 147 133
0.017630398 -0.31574437 1.6027634 176 155 140
0.019233162 -0.31574437 1.6027634 174 155 137
0.020835925 -0.31574437 1.6027634 175 156 142
0.022511588 -0.3167702 1.6079706 179 160 145
0.024119558 -0.3167702 1.6079706 168 150 134
0.02572753 -0.3167702 1.6079706 180 158 141
0.0273355 -0.3167702 1.6079706 185 163 146
0.02894347 -0.3167702 1.6079706 183 161 145
0.030551441 -0.3167702 1.6079706 177 157 141
0.032055266 -0.31574437 1.6027634 186 165 146
0.033767384 -0.3167702 1.6079706 188 168 149
0.035260797 -0.31574437 1.6027634 186 165 147
0.036863558 -0.31574437 1.6027634 190 167 148
0.038466323 -0.31574437 1.6027634 178 158 140
0.040069085 -0.31574437 1.6027634 183 160 141
0.04167185 -0.31574437 1.6027634 177 158 139
0.04327461 -0.31574437 1.6027634 175 155 135
0.044877376 -0.31574437 1.6027634 178 158 136
0.04648014 -0.31574437 1.6027634 182 160 138
0.0480829 -0.31574437 1.6027634 164 146 125
0.049685664 -0.31574437 1.6027634 169 151 129
0.05128843 -0.31574437 1.6027634 163 142 122
0.052891195 -0.31574437 1.6027634 158 138 121
0.054493956 -0.31574437 1.6027634 152 134 118
0.056096718 -0.31574437 1.6027634 157 138 121
0.057699483 -0.31574437 1.6027634 156 138 120
0.059302244 -0.31574437 1.6027634 148 130 112
0.06090501 -0.31574437 1.6027634 160 139 118
0.06250777 -0.31574437 1.6027634 149 131 111
0.06411053 -0.31574437 1.6027634 149 132 113
0.0657133 -0.31574437 1.6027634 150 132 112
0.06731606 -0.31574437 1.6027634 132 115 96
0.068918824 -0.31574437 1.6027634 136 118 100
0.07052159 -0.31574437 1.6027634 126 110 92
0.072124355 -0.31574437 1.6027634 124 107 89
0.073727116 -0.31574437 1.6027634 119 103 88
0.07532988 -0.31574437 1.6027634 119 102 87
0.07718258 -0.3167702 1.6079706 116 100 83
0.07879056 -0.3167702 1.6079706 114 98 80
0.08039853 -0.3167702 1.6079706 113 96 82
0.0820065 -0.3167702 1.6079706 109 93 78
0.0833437 -0.31574437 1.6027634 113 96 83
0.08494646 -0.31574437 1.6027634 114 98 84
0.08621419 -0.31452215 1.5965592 109 95 81
0.087810755 -0.31452215 1.5965592 110 96 80
0.08940731 -0.31452215 1.5965592 110 96 81
0.09100387 -0.31452215 1.5965592 109 94 80
0.091947906 -0.3123058 1.5853087 110 93 75
0.09113941 -0.30431294 1.5447358 111 93 71
0.08939193 -0.29350352 1.4898655 150 107 77
0.09022993 -0.2913983 1.4791791 162 111 78
0.09170911 -0.2913983 1.4791791 167 112 81
0.093188286 -0.2913983 1.4791791 168 112 83
0.094667464 -0.2913983 1.4791791 169 112 83
0.09574603 -0.29018414 1.4730159 167 112 84
0.09762582 -0.2913983 1.4791791 166 111 80
0.09869206 -0.29018414 1.4730159 157 106 75
0.10058418 -0.2913983 1.4791791 150 96 73
0.102063365 -0.2913983 1.4791791 134 86 70
0.10391522 -0.29244712 1.4845031 117 75 62
0.10578046 -0.29350352 1.4898655 88 56 45
0.10765922 -0.29456758 1.4952669 62 38 35
0.10955165 -0.29563937 1.5007075 76 60 61
0.11145791 -0.296719 1.5061879 88 73 68
0.11255306 -0.29563937 1.5007075 94 80 81
0.11405377 -0.29563937 1.5007075 93 77 79
0.11471965 -0.29350352 1.4898655 94 76 77
0.11579125 -0.29244712 1.4845031 105 84 79
0.115542956 -0.2881261 1.462569 138 99 86
0.11659207 -0.28710797 1.4574009 167 111 87
0.117633805 -0.28609705 1.4522692 171 114 89
0.11825331 -0.28409636 1.4421135 171 110 87
0.11969542 -0.28409636 1.4421135 173 111 87
0.120715454 -0.28310648 1.4370887 175 111 86
0.122152545 -0.28310648 1.4370887 180 115 88
0.12358963 -0.28310648 1.4370887 180 116 91
0.12452053 -0.2819603 1.4312705 181 119 97
0.12595181 -0.2819603 1.4312705 184 121 100
0.12738307 -0.2819603 1.4312705 187 122 102
0.12933798 -0.28310648 1.4370887 186 125 102
0.13077506 -0.28310648 1.4370887 190 130 105
0.13167688 -0.2819603 1.4312705 187 129 103
0.13310815 -0.2819603 1.4312705 184 119 98
0.13453943 -0.2819603 1.4312705 148 91 79
0.13652343 -0.28310648 1.4370887 129 73 63
0.1384429 -0.28409636 1.4421135 149 88 75
0.14037584 -0.2850932 1.4471736 166 102 84
0.14182301 -0.2850932 1.4471736 168 104 82
0.14377464 -0.28609705 1.4522692 168 105 82
0.14522691 -0.28609705 1.4522692 168 105 82
0.14667918 -0.28609705 1.4522692 170 105 83
0.1476117 -0.2850932 1.4471736 169 106 83
0.14958373 -0.28609705 1.4522692 174 110 87
0.151036 -0.28609705 1.4522692 178 114 91
0.15195324 -0.2850932 1.4471736 179 116 94
0.1534004 -0.2850932 1.4471736 182 120 96
0.15484758 -0.2850932 1.4471736 185 121 98
0.15629475 -0.2850932 1.4471736 185 118 96
0.15774193 -0.2850932 1.4471736 168 105 91
0.1591891 -0.2850932 1.4471736 141 83 67
0.16120188 -0.28609705 1.4522692 140 79 62
0.1632289 -0.28710797 1.4574009 145 84 67
0.1646863 -0.28710797 1.4574009 148 87 71
0.1661437 -0.28710797 1.4574009 147 89 70
0.16760111 -0.28710797 1.4574009 150 92 74
0.1690585 -0.28710797 1.4574009 158 100 81
0.17112057 -0.2881261 1.462569 162 106 85
0.17258315 -0.2881261 1.462569 165 111 90
0.1746651 -0.28915146 1.4677739 154 107 90
0.18074255 -0.296719 1.5061879 180 150 122
0.18358964 -0.2989021 1.5172696 196 172 148
0.1870566 -0.3020504 1.5332508 166 146 134
0.1900025 -0.30431294 1.5447358 191 169 153
0.19154724 -0.30431294 1.5447358 173 155 139
0.19309197 -0.30431294 1.5447358 190 169 152
0.19536842 -0.30545697 1.5505431 193 167 147
0.19691898 -0.30545697 1.5505431 184 136 117
0.19772618 -0.30431294 1.5447358 147 93 83
0.19852738 -0.30317745 1.5389719 145 81 70
0.2015706 -0.30545697 1.5505431 147 85 70
0.20236038 -0.30431294 1.5447358 150 84 69
0.20390512 -0.30431294 1.5447358 146 81 62
0.20544986 -0.30431294 1.5447358 143 85 64
0.20855683 -0.30660966 1.5563942 170 114 95
0.2131972 -0.31111 1.5792385 182 150 132
0.2195399 -0.31801 1.614264 192 168 151
0.22115417 -0.31801 1.614264 210 188 168
0.22276843 -0.31801 1.614264 215 191 171
0.22526436 -0.31925955 1.6206069 217 191 170
0.22688496 -0.31925955 1.6206069 211 190 167
0.22850557 -0.31925955 1.6206069 201 176 152
0.23088218 -0.3203084 1.6259309 175 149 123
0.23250812 -0.3203084 1.6259309 155 128 100
-0.22828445 -0.3138911 1.5853087 185 124 98
-0.22669914 -0.3138911 1.5853087 183 123 97
-0.22511382 -0.3138911 1.5853087 185 123 95
-0.22352852 -0.3138911 1.5853087 187 124 93
-0.2219432 -0.3138911 1.5853087 178 115 88
-0.22035791 -0.3138911 1.5853087 186 119 94
-0.2187726 -0.3138911 1.5853087 179 123 102
-0.2178852 -0.31489974 1.5904028 190 142 121
-0.21629478 -0.31489974 1.5904028 179 138 121
-0.21470438 -0.31489974 1.5904028 196 165 144
-0.21311398 -0.31489974 1.5904028 188 165 144
-0.21152358 -0.31489974 1.5904028 184 162 142
-0.20993318 -0.31489974 1.5904028 183 161 142
-0.20834278 -0.31489974 1.5904028 183 163 142
-0.20755269 -0.31611872 1.5965592 184 161 141
-0.20595613 -0.31611872 1.5965592 183 161 141
-0.20435958 -0.31611872 1.5965592 184 162 142
-0.20276302 -0.31611872 1.5965592 187 164 144
-0.20039076 -0.31489974 1.5904028 186 165 145
-0.19880036 -0.31489974 1.5904028 185 163 143
-0.19797334 -0.31611872 1.5965592 181 159 140
-0.19637677 -0.31611872 1.5965592 183 161 142
-0.19402914 -0.31489974 1.5904028 183 161 142
-0.19243875 -0.31489974 1.5904028 180 158 139
-0.19158709 -0.31611872 1.5965592 179 157 137
-0.18999054 -0.31611872 1.5965592 177 157 137
-0.18839398 -0.31611872 1.5965592 180 159 138
-0.18752332 -0.31734717 1.6027634 176 155 135
-0.18520087 -0.31611872 1.5965592 165 145 127
-0.18360431 -0.31611872 1.5965592 164 145 126
-0.18130593 -0.31489974 1.5904028 173 154 134
-0.18041117 -0.31611872 1.5965592 179 157 137
-0.17881462 -0.31611872 1.5965592 176 155 135
-0.17721806 -0.31611872 1.5965592 183 163 141
-0.17562151 -0.31611872 1.5965592 183 163 140
-0.17402495 -0.31611872 1.5965592 178 157 137
-0.17242838 -0.31611872 1.5965592 176 156 135
-0.17083183 -0.31611872 1.5965592 175 154 134
-0.16923527 -0.31611872 1.5965592 177 155 135
-0.16763872 -0.31611872 1.5965592 169 151 132
-0.16604216 -0.31611872 1.5965592 173 153 132
-0.1644456 -0.31611872 1.5965592 179 158 134
-0.16284902 -0.31611872 1.5965592 181 159 137
-0.16125247 -0.31611872 1.5965592 179 157 136
-0.15965591 -0.31611872 1.5965592 179 158 138
-0.15805936 -0.31611872 1.5965592 177 155 135
-0.1564628 -0.31611872 1.5965592 178 157 137
-0.15486625 -0.31611872 1.5965592 177 157 137
-0.15326968 -0.31611872 1.5965592 180 158 139
-0.15167312 -0.31611872 1.5965592 176 157 137
-0.15007657 -0.31611872 1.5965592 178 160 137
-0.14848 -0.31611872 1.5965592 179 162 139
-0.14688344 -0.31611872 1.5965592 183 163 141
-0.14472665 -0.31489974 1.5904028 180 162 139
-0.14313626 -0.31489974 1.5904028 176 156 136
-0.14154585 -0.31489974 1.5904028 178 159 137
-0.13995545 -0.31489974 1.5904028 170 151 131
-0.13836505 -0.31489974 1.5904028 170 152 131
-0.13677464 -0.31489974 1.5904028 175 154 134
-0.13518423 -0.31489974 1.5904028 175 154 133
-0.13359384 -0.31489974 1.5904028 164 146 126
-0.13200343 -0.31489974 1.5904028 159 142 121
-0.12999532 -0.3138911 1.5853087 146 127 108
-0.12841 -0.3138911 1.5853087 123 107 92
-0.12682469 -0.3138911 1.5853087 122 106 91
-0.124759845 -0.31268924 1.5792385 116 101 87
-0.123180605 -0.31268924 1.5792385 102 90 80
-0.12113754 -0.31149653 1.5732148 81 68 59
-0.119564325 -0.31149653 1.5732148 79 68 63
-0.11754275 -0.31031287 1.5672367 74 62 59
-0.11597551 -0.31031287 1.5672367 72 61 57
-0.11440828 -0.31031287 1.5672367 73 64 59
-0.11241389 -0.30913818 1.561304 72 61 57
-0.1112738 -0.31031287 1.5672367 74 63 57
-0.10929128 -0.30913818 1.561304 73 64 57
-0.10739121 -0.30816606 1.5563942 75 65 57
-0.10583481 -0.30816606 1.5563942 73 64 56
-0.104607366 -0.30913818 1.561304 82 70 64
-0.10272202 -0.30816606 1.5563942 102 86 82
-0.10116563 -0.30816606 1.5563942 90 75 71
-0.09960923 -0.30816606 1.5563942 76 62 61
-0.09805284 -0.30816606 1.5563942 78 64 62
-0.09649645 -0.30816606 1.5563942 107 93 83
-0.09458313 -0.30700755 1.5505431 112 97 91
-0.09303258 -0.30700755 1.5505431 92 80 76
-0.09079934 -0.30471644 1.5389719 74 62 60
-0.088599175 -0.30245927 1.527572 96 77 70
-0.08616738 -0.29931825 1.5117085 163 113 88
-0.08343247 -0.29499337 1.4898655 173 115 84
-0.08164767 -0.2939316 1.4845031 174 113 84
-0.07987567 -0.29287747 1.4791791 172 109 82
-0.07839649 -0.29287747 1.4791791 165 104 77
-0.07719416 -0.2939316 1.4845031 164 101 72
-0.07570966 -0.2939316 1.4845031 161 97 69
-0.07422516 -0.2939316 1.4845031 157 94 65
-0.07217778 -0.29165715 1.4730159 153 89 60
-0.070704766 -0.29165715 1.4730159 152 85 62
-0.06898537 -0.29061922 1.4677739 160 95 72
-0.0675176 -0.29061922 1.4677739 179 117 91
-0.06604983 -0.29061922 1.4677739 191 129 101
-0.06458206 -0.29061922 1.4677739 188 130 100
-0.06289047 -0.28958866 1.462569 184 125 98
-0.0614279 -0.28958866 1.462569 186 122 96
-0.059965327 -0.28958866 1.462569 180 118 90
-0.058502764 -0.28958866 1.462569 175 112 86
-0.057040192 -0.28958866 1.462569 172 109 81
-0.05557762 -0.28958866 1.462569 169 105 79
-0.053923834 -0.28856537 1.4574009 167 103 79
-0.052466433 -0.28856537 1.4574009 166 103 77
-0.051009033 -0.28856537 1.4574009 166 103 77
-0.049551632 -0.28856537 1.4574009 164 103 77
-0.04809423 -0.28856537 1.4574009 167 104 79
-0.046472613 -0.2875493 1.4522692 169 107 82
-0.044862382 -0.2865404 1.4471736 171 110 82
-0.043415207 -0.2865404 1.4471736 173 113 84
-0.041968033 -0.2865404 1.4471736 178 116 86
-0.040520858 -0.2865404 1.4471736 183 120 91
-0.039073687 -0.2865404 1.4471736 186 121 93
-0.037494954 -0.2855385 1.4421135 186 120 94
-0.036052838 -0.2855385 1.4421135 188 121 94
-0.034732167 -0.2865404 1.4471736 188 123 96
-0.033284992 -0.2865404 1.4471736 185 123 94
-0.031837817 -0.2865404 1.4471736 181 117 87
-0.030390646 -0.2865404 1.4471736 180 113 82
-0.029045384 -0.2875493 1.4522692 177 106 79
-0.027593115 -0.2875493 1.4522692 171 102 76
-0.026140846 -0.2875493 1.4522692 168 96 73
-0.024775816 -0.28856537 1.4574009 163 93 66
-0.023236306 -0.2875493 1.4522692 163 92 64
-0.02178404 -0.2875493 1.4522692 169 96 68
-0.020331768 -0.2875493 1.4522692 174 101 74
-0.018813258 -0.2865404 1.4471736 179 105 76
-0.01742723 -0.2875493 1.4522692 177 105 75
-0.015974961 -0.2875493 1.4522692 178 107 76
-0.014522692 -0.2875493 1.4522692 184 111 79
-0.013070423 -0.2875493 1.4522692 182 113 83
-0.011659208 -0.28856537 1.4574009 183 116 85
-0.010201806 -0.28856537 1.4574009 180 113 83
-0.008744406 -0.28856537 1.4574009 176 108 77
-0.0073128454 -0.28958866 1.462569 170 104 77
-0.0058710957 -0.29061922 1.4677739 166 104 77
-0.0044375374 -0.29287747 1.4791791 165 107 81
-0.0029797312 -0.29499337 1.4898655 153 102 82
-0.0015007075 -0.29714006 1.5007075 136 90 73
0.0 -0.29714006 1.5007075 139 90 76
0.001506188 -0.29822522 1.5061879 148 96 81
0.0030665016 -0.30358365 1.5332508 157 109 85
0.0047377157 -0.31268924 1.5792385 165 124 104
0.0063862368 -0.31611872 1.5965592 165 138 118
0.008013817 -0.31734717 1.6027634 163 141 122
0.009542418 -0.31489974 1.5904028 158 137 118
0.011175914 -0.31611872 1.5965592 165 143 125
0.0127724735 -0.31611872 1.5965592 169 147 131
0.014424871 -0.31734717 1.6027634 168 146 132
0.016027633 -0.31734717 1.6027634 177 156 140
0.017630398 -0.31734717 1.6027634 168 148 134
0.01915871 -0.31611872 1.5965592 165 147 132
0.02075527 -0.31611872 1.5965592 174 157 142
0.022351827 -0.31611872 1.5965592 181 163 147
0.023948386 -0.31611872 1.5965592 184 164 148
0.02572753 -0.31837818 1.6079706 185 160 143
0.027246978 -0.31734717 1.6027634 157 138 125
0.028849741 -0.31734717 1.6027634 186 165 147
0.030452505 -0.31734717 1.6027634 192 169 151
0.032055266 -0.31734717 1.6027634 191 169 150
0.03365803 -0.31734717 1.6027634 179 159 142
0.035260797 -0.31734717 1.6027634 181 162 144
0.036863558 -0.31734717 1.6027634 189 166 147
0.038466323 -0.31734717 1.6027634 188 166 149
0.040069085 -0.31734717 1.6027634 189 166 147
0.04167185 -0.31734717 1.6027634 193 169 150
0.04327461 -0.31734717 1.6027634 183 163 142
0.044877376 -0.31734717 1.6027634 184 163 140
0.04648014 -0.31734717 1.6027634 185 164 140
0.047896773 -0.31611872 1.5965592 174 155 132
0.049493335 -0.31611872 1.5965592 172 152 131
0.05128843 -0.31734717 1.6027634 177 155 133
0.05268645 -0.31611872 1.5965592 165 145 127
0.054493956 -0.31734717 1.6027634 164 144 125
0.05587957 -0.31611872 1.5965592 158 139 120
0.057699483 -0.31734717 1.6027634 159 140 121
0.059302244 -0.31734717 1.6027634 159 140 121
0.060669247 -0.31611872 1.5965592 156 137 119
0.06226581 -0.31611872 1.5965592 162 141 122
0.06386237 -0.31611872 1.5965592 158 139 120
0.06545892 -0.31611872 1.5965592 151 133 115
0.067055486 -0.31611872 1.5965592 143 125 107
0.06865205 -0.31611872 1.5965592 138 120 103
0.07052159 -0.31734717 1.6027634 133 115 98
0.07184516 -0.31611872 1.5965592 126 109 92
0.073727116 -0.31734717 1.6027634 125 108 91
0.075038284 -0.31611872 1.5965592 116 100 82
0.07693265 -0.31734717 1.6027634 119 102 83
0.07879056 -0.31837818 1.6079706 114 97 78
0.08039853 -0.31837818 1.6079706 112 95 80
0.08174094 -0.31734717 1.6027634 110 94 79
0.0833437 -0.31734717 1.6027634 112 94 81
0.08461764 -0.31611872 1.5965592 113 97 83
0.08621419 -0.31611872 1.5965592 115 98 85
0.087810755 -0.31611872 1.5965592 107 91 75
0.089062564 -0.31489974 1.5904028 108 93 77
0.09100387 -0.31611872 1.5965592 110 95 80
0.091947906 -0.3138911 1.5853087 112 93 76
0.09113941 -0.3058577 1.5447358 112 92 71
0.08939193 -0.29499337 1.4898655 153 107 78
0.09022993 -0.29287747 1.4791791 165 108 74
0.09132699 -0.29165715 1.4730159 169 112 78
0.093188286 -0.29287747 1.4791791 167 112 81
0.094667464 -0.29287747 1.4791791 166 111 81
0.09574603 -0.29165715 1.4730159 166 111 81
0.09762582 -0.29287747 1.4791791 164 109 79
0.09869206 -0.29165715 1.4730159 155 104 74
0.10058418 -0.29287747 1.4791791 149 95 73
0.102063365 -0.29287747 1.4791791 133 85 70
0.10391522 -0.2939316 1.4845031 114 73 60
0.10578046 -0.29499337 1.4898655 83 51 43
0.10765922 -0.29606283 1.4952669 82 59 56
0.10955165 -0.29714006 1.5007075 92 76 74
0.11105235 -0.29714006 1.5007075 95 80 80
0.11296409 -0.29822522 1.5061879 95 80 80
0.11405377 -0.29714006 1.5007075 96 80 83
0.11471965 -0.29499337 1.4898655 97 81 83
0.11579125 -0.2939316 1.4845031 101 81 78
0.11595414 -0.29061922 1.4677739 120 92 79
0.11700553 -0.28958866 1.462569 158 106 85
0.117633805 -0.2875493 1.4522692 173 113 90
0.11825331 -0.2855385 1.4421135 172 111 87
0.11969542 -0.2855385 1.4421135 174 109 87
0.120715454 -0.28454357 1.4370887 173 110 85
0.122152545 -0.28454357 1.4370887 175 111 85
0.12308926 -0.28339154 1.4312705 179 115 89
0.12452053 -0.28339154 1.4312705 181 117 95
0.12595181 -0.28339154 1.4312705 181 118 98
0.12738307 -0.28339154 1.4312705 186 120 100
0.12881434 -0.28339154 1.4312705 188 122 100
0.13024563 -0.28339154 1.4312705 190 127 103
0.13167688 -0.28339154 1.4312705 190 127 103
0.13310815 -0.28339154 1.4312705 188 122 101
0.13407417 -0.28241152 1.4263209 162 104 87
0.13652343 -0.28454357 1.4370887 132 76 66
0.1384429 -0.2855385 1.4421135 136 79 67
0.13988501 -0.2855385 1.4421135 162 99 84
0.14182301 -0.2865404 1.4471736 166 104 82
0.14377464 -0.2875493 1.4522692 168 105 81
0.14471737 -0.2865404 1.4471736 167 103 80
0.14667918 -0.2875493 1.4522692 166 102 79
0.1476117 -0.2865404 1.4471736 166 103 80
0.14958373 -0.2875493 1.4522692 170 106 84
0.151036 -0.2875493 1.4522692 172 109 87
0.15195324 -0.2865404 1.4471736 178 113 91
0.15394054 -0.2875493 1.4522692 179 116 94
0.15484758 -0.2865404 1.4471736 184 119 97
0.15629475 -0.2865404 1.4471736 184 120 99
0.15774193 -0.2865404 1.4471736 176 111 96
0.1591891 -0.2865404 1.4471736 154 92 78
0.16120188 -0.2875493 1.4522692 131 74 57
0.1632289 -0.28856537 1.4574009 138 80 61
0.1646863 -0.28856537 1.4574009 144 85 66
0.1661437 -0.28856537 1.4574009 143 86 67
0.16760111 -0.28856537 1.4574009 145 88 70
0.169658 -0.28958866 1.462569 150 92 75
0.17051591 -0.28856537 1.4574009 150 96 78
0.17258315 -0.28958866 1.462569 150 97 81
0.1746651 -0.29061922 1.4677739 145 96 82
0.18074255 -0.29822522 1.5061879 176 142 117
0.18415415 -0.30134317 1.5219352 204 181 156
0.18775457 -0.30471644 1.5389719 187 167 151
0.1907168 -0.30700755 1.5505431 200 175 159
0.19226733 -0.30700755 1.5505431 196 175 157
0.19381788 -0.30700755 1.5505431 175 152 138
0.19536842 -0.30700755 1.5505431 191 167 146
0.19766207 -0.30816606 1.5563942 180 146 122
0.1969884 -0.30471644 1.5389719 166 112 97
0.19927092 -0.3058577 1.5447358 149 85 77
0.20081566 -0.3058577 1.5447358 149 82 70
0.20312114 -0.30700755 1.5505431 147 84 70
0.20390512 -0.3058577 1.5447358 148 81 63
0.20544986 -0.3058577 1.5447358 144 84 64
0.20777276 -0.30700755 1.5505431 166 107 89
0.21077603 -0.30913818 1.561304 183 144 129
0.218684 -0.31837818 1.6079706 204 174 157
0.22029197 -0.31837818 1.6079706 203 179 162
0.22189994 -0.31837818 1.6079706 207 184 165
0.22350793 -0.31837818 1.6079706 214 191 169
0.22599696 -0.31962427 1.614264 209 189 167
0.22761121 -0.31962427 1.614264 211 190 167
0.2292255 -0.31962427 1.614264 199 176 153
0.23083976 -0.31962427 1.614264 198 169 142
-0.22741036 -0.31426847 1.5792385 194 121 91
-0.22583112 -0.31426847 1.5792385 193 120 91
-0.22425188 -0.31426847 1.5792385 189 113 85
-0.22267264 -0.31426847 1.5792385 192 116 84
-0.2210934 -0.31426847 1.5792385 185 110 80
-0.21951416 -0.31426847 1.5792385 180 108 83
-0.2187726 -0.31547645 1.5853087 185 118 93
-0.21718729 -0.31547645 1.5853087 180 127 106
-0.21560198 -0.31547645 1.5853087 184 144 125
-0.21401668 -0.31547645 1.5853087 188 162 141
-0.21243137 -0.31547645 1.5853087 182 160 138
-0.21084605 -0.31547645 1.5853087 185 163 143
-0.20926075 -0.31547645 1.5853087 186 165 145
-0.20767543 -0.31547645 1.5853087 185 165 144
-0.20609014 -0.31547645 1.5853087 183 161 142
-0.20516197 -0.31649017 1.5904028 187 164 144
-0.20357156 -0.31649017 1.5904028 187 164 145
-0.20198116 -0.31649017 1.5904028 182 159 140
-0.20039076 -0.31649017 1.5904028 184 162 143
-0.19880036 -0.31649017 1.5904028 186 163 144
-0.19657828 -0.31547645 1.5853087 179 158 139
-0.19561955 -0.31649017 1.5904028 174 154 136
-0.19402914 -0.31649017 1.5904028 187 164 146
-0.19243875 -0.31649017 1.5904028 179 159 139
-0.19084834 -0.31649017 1.5904028 184 162 141
-0.18925793 -0.31649017 1.5904028 178 158 137
-0.18766755 -0.31649017 1.5904028 182 160 139
-0.18679743 -0.31771526 1.5965592 178 157 136
-0.18520087 -0.31771526 1.5965592 176 155 135
-0.18289633 -0.31649017 1.5904028 175 155 135
-0.18130593 -0.31649017 1.5904028 177 157 137
-0.17971551 -0.31649017 1.5904028 181 161 140
-0.17812513 -0.31649017 1.5904028 182 162 141
-0.17721806 -0.31771526 1.5965592 183 163 141
-0.17494431 -0.31649017 1.5904028 179 158 138
-0.17402495 -0.31771526 1.5965592 181 159 138
-0.17176351 -0.31649017 1.5904028 177 157 136
-0.17017311 -0.31649017 1.5904028 178 156 136
-0.16858271 -0.31649017 1.5904028 179 157 137
-0.16699229 -0.31649017 1.5904028 171 152 132
-0.1654019 -0.31649017 1.5904028 177 158 137
-0.16381149 -0.31649017 1.5904028 176 156 132
-0.16222109 -0.31649017 1.5904028 185 162 138
-0.16063069 -0.31649017 1.5904028 179 158 136
-0.15904029 -0.31649017 1.5904028 171 151 131
-0.15744987 -0.31649017 1.5904028 179 157 137
-0.1564628 -0.31771526 1.5965592 178 157 137
-0.15426907 -0.31649017 1.5904028 175 155 135
-0.15267868 -0.31649017 1.5904028 177 156 137
-0.15108827 -0.31649017 1.5904028 178 159 137
-0.15007657 -0.31771526 1.5965592 177 160 138
-0.14790747 -0.31649017 1.5904028 180 160 139
-0.14631706 -0.31649017 1.5904028 185 166 143
-0.14472665 -0.31649017 1.5904028 178 158 136
-0.14313626 -0.31649017 1.5904028 173 154 133
-0.14109246 -0.31547645 1.5853087 169 149 128
-0.13950716 -0.31547645 1.5853087 168 147 128
-0.13792185 -0.31547645 1.5853087 157 139 121
-0.13633655 -0.31547645 1.5853087 152 133 116
-0.13475123 -0.31547645 1.5853087 153 134 117
-0.13316593 -0.31547645 1.5853087 157 138 120
-0.1315806 -0.31547645 1.5853087 155 137 118
-0.12999532 -0.31547645 1.5853087 149 129 111
-0.12791832 -0.31426847 1.5792385 132 115 99
-0.12633908 -0.31426847 1.5792385 125 108 93
-0.12428397 -0.31306973 1.5732148 120 104 90
-0.12271076 -0.31306973 1.5732148 111 98 87
-0.12113754 -0.31306973 1.5732148 94 82 72
-0.11910999 -0.31188008 1.5672367 72 60 54
-0.117991105 -0.31306973 1.5732148 68 58 53
-0.11597551 -0.31188008 1.5672367 68 57 53
-0.11440828 -0.31188008 1.5672367 69 59 56
-0.11241389 -0.3106995 1.561304 66 56 52
-0.110852584 -0.3106995 1.561304 68 59 54
-0.10929128 -0.3106995 1.561304 71 63 58
-0.10739121 -0.30972245 1.5563942 75 65 60
-0.10616867 -0.3106995 1.561304 71 62 56
-0.104278415 -0.30972245 1.5563942 76 64 60
-0.10272202 -0.30972245 1.5563942 95 80 78
-0.10116563 -0.30972245 1.5563942 85 71 69
-0.09960923 -0.30972245 1.5563942 79 66 65
-0.09768421 -0.30855808 1.5505431 78 65 59
-0.09649645 -0.30972245 1.5563942 102 88 74
-0.09494005 -0.30972245 1.5563942 90 76 68
-0.09268415 -0.30740243 1.5447358 103 91 87
-0.0904618 -0.30511692 1.5332508 86 72 66
-0.08827224 -0.30286512 1.5219352 121 95 80
-0.08554033 -0.29864082 1.5007075 169 115 83
-0.08343247 -0.29648325 1.4898655 171 113 79
-0.08164767 -0.29541615 1.4845031 171 110 78
-0.07987567 -0.29435664 1.4791791 167 106 75
-0.07839649 -0.29435664 1.4791791 163 101 72
-0.07691731 -0.29435664 1.4791791 160 97 69
-0.07570966 -0.29541615 1.4845031 159 95 67
-0.07365079 -0.29313016 1.4730159 153 90 63
-0.071920924 -0.29208702 1.4677739 149 86 59
-0.070704766 -0.29313016 1.4730159 157 92 68
-0.06898537 -0.29208702 1.4677739 177 116 87
-0.0675176 -0.29208702 1.4677739 191 132 103
-0.06604983 -0.29208702 1.4677739 192 134 103
-0.064353034 -0.29105124 1.462569 189 128 100
-0.06289047 -0.29105124 1.462569 183 119 94
-0.0614279 -0.29105124 1.462569 178 115 90
-0.059965327 -0.29105124 1.462569 173 111 86
-0.058502764 -0.29105124 1.462569 168 107 82
-0.057040192 -0.29105124 1.462569 166 105 79
-0.055381235 -0.2900228 1.4574009 166 104 78
-0.053923834 -0.2900228 1.4574009 161 100 77
-0.052466433 -0.2900228 1.4574009 163 101 75
-0.051009033 -0.2900228 1.4574009 165 102 77
-0.049551632 -0.2900228 1.4574009 162 101 77
-0.04809423 -0.2900228 1.4574009 164 103 78
-0.046309557 -0.28798756 1.4471736 167 105 80
-0.04470552 -0.2869806 1.4421135 170 109 82
-0.043263406 -0.2869806 1.4421135 172 110 83
-0.041968033 -0.28798756 1.4471736 176 114 86
-0.040520858 -0.28798756 1.4471736 181 117 89
-0.039073687 -0.28798756 1.4471736 184 120 90
-0.037494954 -0.2869806 1.4421135 185 120 91
-0.036052838 -0.2869806 1.4421135 185 120 91
-0.034610726 -0.2869806 1.4421135 186 120 92
-0.033284992 -0.28798756 1.4471736 183 120 91
-0.031837817 -0.28798756 1.4471736 180 118 85
-0.030390646 -0.28798756 1.4471736 175 110 79
-0.029045384 -0.28900155 1.4522692 173 106 77
-0.027593115 -0.28900155 1.4522692 166 101 73
-0.026140846 -0.28900155 1.4522692 168 96 74
-0.024688575 -0.28900155 1.4522692 164 92 68
-0.023236306 -0.28900155 1.4522692 162 90 64
-0.02178404 -0.28900155 1.4522692 166 92 65
-0.020260429 -0.28798756 1.4471736 172 99 72
-0.018813258 -0.28798756 1.4471736 178 105 76
-0.017366083 -0.28798756 1.4471736 177 106 76
-0.015918909 -0.28798756 1.4471736 176 106 76
-0.014471736 -0.28798756 1.4471736 183 113 81
-0.013070423 -0.28900155 1.4522692 183 115 82
-0.011659208 -0.2900228 1.4574009 183 116 81
-0.010165884 -0.28900155 1.4522692 184 113 83
-0.008713615 -0.28900155 1.4522692 175 107 78
-0.0072870045 -0.2900228 1.4574009 168 105 76
-0.0058920635 -0.29313016 1.4730159 165 103 75
-0.004453509 -0.29541615 1.4845031 156 102 76
-0.003012376 -0.29973137 1.5061879 148 95 84
-0.0015117085 -0.30082998 1.5117085 136 86 73
0.0 -0.29973137 1.5061879 137 89 73
0.0015172696 -0.30193666 1.5172696 142 94 73
0.0030779438 -0.3062554 1.5389719 156 106 83
0.00470171 -0.31188008 1.5672367 165 122 102
0.006341235 -0.31547645 1.5853087 163 137 116
0.007952014 -0.31649017 1.5904028 162 141 122
0.009579355 -0.31771526 1.5965592 158 138 119
0.011219344 -0.3189499 1.6027634 161 140 120
0.012822107 -0.3189499 1.6027634 161 140 125
0.014471735 -0.31998613 1.6079706 165 144 129
0.016079707 -0.31998613 1.6079706 178 158 141
0.017687676 -0.31998613 1.6079706 180 158 143
0.019233162 -0.3189499 1.6027634 179 160 142
0.020835925 -0.3189499 1.6027634 181 162 145
0.022265641 -0.31649017 1.5904028 185 167 150
0.023948386 -0.31771526 1.5965592 171 155 138
0.025644215 -0.3189499 1.6027634 178 155 139
0.027246978 -0.3189499 1.6027634 181 159 143
0.028849741 -0.3189499 1.6027634 185 164 146
0.030452505 -0.3189499 1.6027634 183 163 146
0.031931184 -0.31771526 1.5965592 189 168 149
0.033527743 -0.31771526 1.5965592 168 149 132
0.035260797 -0.3189499 1.6027634 165 147 131
0.03672086 -0.31771526 1.5965592 183 160 143
0.03831742 -0.31771526 1.5965592 199 173 155
0.040069085 -0.3189499 1.6027634 201 179 158
0.04151054 -0.31771526 1.5965592 198 176 154
0.043107096 -0.31771526 1.5965592 185 164 143
0.044703655 -0.31771526 1.5965592 178 157 136
0.046300218 -0.31771526 1.5965592 192 170 146
0.047896773 -0.31771526 1.5965592 195 171 147
0.049493335 -0.31771526 1.5965592 177 156 136
0.051089894 -0.31771526 1.5965592 172 151 131
0.05268645 -0.31771526 1.5965592 168 148 130
0.05428301 -0.31771526 1.5965592 163 145 127
0.05587957 -0.31771526 1.5965592 158 140 123
0.057476133 -0.31771526 1.5965592 158 137 120
0.05907269 -0.31771526 1.5965592 154 135 118
0.060669247 -0.31771526 1.5965592 157 140 121
0.06226581 -0.31771526 1.5965592 160 140 121
0.06386237 -0.31771526 1.5965592 159 141 123
0.06545892 -0.31771526 1.5965592 160 140 121
0.06679692 -0.31649017 1.5904028 146 127 110
0.06865205 -0.31771526 1.5965592 135 117 102
0.070248604 -0.31771526 1.5965592 132 115 100
0.07184516 -0.31771526 1.5965592 125 109 94
0.07344172 -0.31771526 1.5965592 122 106 88
0.075038284 -0.31771526 1.5965592 114 98 80
0.07663484 -0.31771526 1.5965592 116 98 80
0.07853541 -0.3189499 1.6027634 104 88 69
0.08013817 -0.3189499 1.6027634 106 88 74
0.08174094 -0.3189499 1.6027634 105 89 74
0.08302108 -0.31771526 1.5965592 109 93 79
0.08461764 -0.31771526 1.5965592 109 94 79
0.08621419 -0.31771526 1.5965592 111 95 81
0.087472156 -0.31649017 1.5904028 109 92 77
0.089062564 -0.31649017 1.5904028 111 94 79
0.09100387 -0.31771526 1.5965592 107 93 79
0.091595836 -0.31426847 1.5792385 110 91 74
0.0904618 -0.30511692 1.5332508 114 93 72
0.08971602 -0.2975581 1.4952669 149 104 75
0.09022993 -0.29435664 1.4791791 162 107 74
0.09132699 -0.29313016 1.4730159 166 112 77
0.092800006 -0.29313016 1.4730159 166 112 82
0.094667464 -0.29435664 1.4791791 163 111 80
0.09574603 -0.29313016 1.4730159 164 109 81
0.09762582 -0.29435664 1.4791791 161 106 77
0.099105 -0.29435664 1.4791791 155 103 77
0.10058418 -0.29435664 1.4791791 147 93 77
0.102063365 -0.29435664 1.4791791 128 84 68
0.10429059 -0.29648325 1.4898655 108 74 60
0.10616395 -0.2975581 1.4952669 72 44 39
0.10765922 -0.2975581 1.4952669 91 71 69
0.10955165 -0.29864082 1.5007075 100 84 83
0.11105235 -0.29864082 1.5007075 96 81 80
0.11255306 -0.29864082 1.5007075 97 82 82
0.11405377 -0.29864082 1.5007075 98 83 84
0.11555448 -0.29864082 1.5007075 99 83 82
0.11663082 -0.2975581 1.4952669 98 81 78
0.11727575 -0.29541615 1.4845031 111 88 81
0.11700553 -0.29105124 1.462569 142 102 84
0.117633805 -0.28900155 1.4522692 172 112 88
0.118668236 -0.28798756 1.4471736 176 110 87
0.11969542 -0.2869806 1.4421135 175 109 85
0.120715454 -0.28598064 1.4370887 172 109 84
0.12165799 -0.28482282 1.4312705 172 109 83
0.12308926 -0.28482282 1.4312705 176 111 88
0.12452053 -0.28482282 1.4312705 178 114 92
0.12551624 -0.28383785 1.4263209 179 115 95
0.12694256 -0.28383785 1.4263209 182 118 97
0.12881434 -0.28482282 1.4312705 186 121 98
0.1297952 -0.28383785 1.4263209 187 124 100
0.13167688 -0.28482282 1.4312705 188 126 102
0.13264784 -0.28383785 1.4263209 190 123 101
0.13407417 -0.28383785 1.4263209 175 113 95
0.1359707 -0.28482282 1.4312705 138 84 71
0.1384429 -0.2869806 1.4421135 128 72 62
0.1393976 -0.28598064 1.4370887 151 92 81
0.14132711 -0.2869806 1.4421135 167 104 84
0.14276925 -0.2869806 1.4421135 168 104 81
0.14471737 -0.28798756 1.4471736 166 102 80
0.14616454 -0.28798756 1.4471736 163 100 77
0.14813146 -0.28900155 1.4522692 164 101 76
0.14958373 -0.28900155 1.4522692 166 104 80
0.151036 -0.28900155 1.4522692 169 106 83
0.15195324 -0.28798756 1.4471736 174 111 88
0.1534004 -0.28798756 1.4471736 175 115 91
0.15484758 -0.28798756 1.4471736 182 119 97
0.15629475 -0.28798756 1.4471736 182 119 100
0.15774193 -0.28798756 1.4471736 179 115 98
0.1591891 -0.28798756 1.4471736 159 98 83
0.16120188 -0.28900155 1.4522692 127 74 57
0.1632289 -0.2900228 1.4574009 131 76 57
0.1646863 -0.2900228 1.4574009 141 83 65
0.1661437 -0.2900228 1.4574009 140 85 67
0.16760111 -0.2900228 1.4574009 141 86 67
0.1690585 -0.2900228 1.4574009 144 88 70
0.17051591 -0.2900228 1.4574009 142 89 71
0.17197332 -0.2900228 1.4574009 139 88 72
0.1746651 -0.29208702 1.4677739 132 84 72
0.18074255 -0.29973137 1.5061879 174 136 113
0.18483621 -0.30398685 1.527572 209 189 161
0.18775457 -0.3062554 1.5389719 206 184 166
0.1900025 -0.30740243 1.5447358 205 181 163
0.19154724 -0.30740243 1.5447358 210 190 170
0.19309197 -0.30740243 1.5447358 210 188 169
0.1946367 -0.30740243 1.5447358 203 181 158
0.19691898 -0.30855808 1.5505431 183 151 125
0.1969884 -0.3062554 1.5389719 170 122 103
0.19927092 -0.30740243 1.5447358 148 94 84
0.20006634 -0.3062554 1.5389719 146 80 70
0.20236038 -0.30740243 1.5447358 147 82 70
0.20390512 -0.30740243 1.5447358 149 82 64
0.20544986 -0.30740243 1.5447358 145 85 65
0.2069946 -0.30740243 1.5447358 161 102 83
0.20932332 -0.30855808 1.5505431 176 134 120
0.21713205 -0.31771526 1.5965592 188 155 141
0.21957858 -0.3189499 1.6027634 196 167 150
0.22118135 -0.3189499 1.6027634 211 187 167
0.22278412 -0.3189499 1.6027634 216 191 170
0.2251159 -0.31998613 1.6079706 209 188 167
0.22672385 -0.31998613 1.6079706 209 188 168
0.2292255 -0.32123852 1.614264 208 186 163
0.22993979 -0.31998613 1.6079706 190 168 144
-0.22741036 -0.31584772 1.5792385 184 105 79
-0.22583112 -0.31584772 1.5792385 174 98 74
-0.22425188 -0.31584772 1.5792385 177 99 74
-0.22267264 -0.31584772 1.5792385 178 101 74
-0.2210934 -0.31584772 1.5792385 174 101 72
-0.21951416 -0.31584772 1.5792385 181 107 80
-0.21793492 -0.31584772 1.5792385 174 115 89
-0.21635568 -0.31584772 1.5792385 189 147 121
-0.21477644 -0.31584772 1.5792385 192 160 138
-0.2131972 -0.31584772 1.5792385 189 166 146
-0.21161796 -0.31584772 1.5792385 190 165 146
-0.21084605 -0.31706172 1.5853087 180 159 140
-0.20845948 -0.31584772 1.5792385 179 158 139
-0.20767543 -0.31706172 1.5853087 187 164 144
-0.20609014 -0.31706172 1.5853087 185 163 145
-0.20450482 -0.31706172 1.5853087 188 165 145
-0.20357156 -0.31808057 1.5904028 185 162 144
-0.20198116 -0.31808057 1.5904028 179 159 140
-0.19974889 -0.31706172 1.5853087 175 154 135
-0.19816358 -0.31706172 1.5853087 178 156 139
-0.19657828 -0.31706172 1.5853087 184 162 142
-0.19499296 -0.31706172 1.5853087 182 160 142
-0.19340765 -0.31706172 1.5853087 179 159 140
-0.19182234 -0.31706172 1.5853087 187 164 143
-0.19023705 -0.31706172 1.5853087 180 159 137
-0.18865174 -0.31706172 1.5853087 179 158 136
-0.18706642 -0.31706172 1.5853087 175 154 134
-0.18548112 -0.31706172 1.5853087 177 157 136
-0.18389581 -0.31706172 1.5853087 182 160 140
-0.1823105 -0.31706172 1.5853087 178 157 138
-0.18072519 -0.31706172 1.5853087 182 160 141
-0.17913988 -0.31706172 1.5853087 183 163 142
-0.17755456 -0.31706172 1.5853087 181 161 139
-0.17596927 -0.31706172 1.5853087 183 163 140
-0.17438395 -0.31706172 1.5853087 178 157 136
-0.17279865 -0.31706172 1.5853087 175 154 134
-0.17121333 -0.31706172 1.5853087 180 158 137
-0.16962802 -0.31706172 1.5853087 178 158 138
-0.16804272 -0.31706172 1.5853087 174 154 133
-0.16645741 -0.31706172 1.5853087 174 153 133
-0.1648721 -0.31706172 1.5853087 177 157 136
-0.16328679 -0.31706172 1.5853087 183 163 140
-0.16170147 -0.31706172 1.5853087 180 161 139
-0.16011618 -0.31706172 1.5853087 181 161 139
-0.15853086 -0.31706172 1.5853087 182 161 141
-0.15694556 -0.31706172 1.5853087 177 155 135
-0.15536025 -0.31706172 1.5853087 174 154 134
-0.15377495 -0.31706172 1.5853087 174 154 135
-0.15267868 -0.31808057 1.5904028 175 154 136
-0.15060432 -0.31706172 1.5853087 178 160 139
-0.14901902 -0.31706172 1.5853087 181 161 140
-0.1474337 -0.31706172 1.5853087 182 162 140
-0.14584841 -0.31706172 1.5853087 184 165 142
-0.14426309 -0.31706172 1.5853087 167 149 129
-0.14267778 -0.31706172 1.5853087 169 151 129
-0.14109246 -0.31706172 1.5853087 164 145 124
-0.13950716 -0.31706172 1.5853087 159 139 119
-0.13792185 -0.31706172 1.5853087 162 141 122
-0.13581452 -0.31584772 1.5792385 164 144 124
-0.13423528 -0.31584772 1.5792385 165 146 126
-0.13265604 -0.31584772 1.5792385 170 151 129
-0.1310768 -0.31584772 1.5792385 166 148 126
-0.12900361 -0.31464294 1.5732148 154 136 116
-0.1274304 -0.31464294 1.5732148 136 118 102
-0.12633908 -0.31584772 1.5792385 129 112 98
-0.12428397 -0.31464294 1.5732148 124 107 94
-0.12271076 -0.31464294 1.5732148 115 100 89
-0.12113754 -0.31464294 1.5732148 102 90 80
-0.11910999 -0.31344733 1.5672367 81 68 61
-0.11754275 -0.31344733 1.5672367 68 57 50
-0.11597551 -0.31344733 1.5672367 67 56 51
-0.11397519 -0.3122608 1.561304 69 59 55
-0.11241389 -0.3122608 1.561304 69 60 57
-0.110852584 -0.3122608 1.561304 67 58 56
-0.10929128 -0.3122608 1.561304 68 59 56
-0.10772997 -0.3122608 1.561304 68 58 54
-0.10583481 -0.31127885 1.5563942 69 59 55
-0.104278415 -0.31127885 1.5563942 69 57 54
-0.10272202 -0.31127885 1.5563942 78 65 63
-0.10116563 -0.31127885 1.5563942 77 65 63
-0.09960923 -0.31127885 1.5563942 77 66 64
-0.09805284 -0.31127885 1.5563942 77 66 62
-0.09649645 -0.31127885 1.5563942 100 86 76
-0.09494005 -0.31127885 1.5563942 87 74 67
-0.09268415 -0.30894715 1.5447358 84 69 65
-0.090126745 -0.3055144 1.527572 107 88 78
-0.087679096 -0.3023417 1.5117085 153 109 85
-0.08523022 -0.29905337 1.4952669 172 113 80
-0.08343247 -0.29797313 1.4898655 169 109 76
-0.08164767 -0.29690063 1.4845031 169 108 76
-0.08016317 -0.29690063 1.4845031 165 101 72
-0.07867867 -0.29690063 1.4845031 162 98 69
-0.07719416 -0.29690063 1.4845031 159 94 67
-0.075438134 -0.29583582 1.4791791 155 90 63
-0.07365079 -0.29460317 1.4730159 150 85 58
-0.071920924 -0.29355478 1.4677739 146 86 59
-0.070704766 -0.29460317 1.4730159 169 106 80
-0.06898537 -0.29355478 1.4677739 192 132 102
-0.0675176 -0.29355478 1.4677739 189 133 103
-0.06604983 -0.29355478 1.4677739 190 131 101
-0.064353034 -0.2925138 1.462569 184 124 95
-0.06289047 -0.2925138 1.462569 178 117 90
-0.0614279 -0.2925138 1.462569 175 112 86
-0.059965327 -0.2925138 1.462569 170 107 82
-0.058502764 -0.2925138 1.462569 168 105 80
-0.057040192 -0.2925138 1.462569 164 102 79
-0.055381235 -0.29148018 1.4574009 163 101 79
-0.053923834 -0.29148018 1.4574009 161 100 79
-0.052466433 -0.29148018 1.4574009 160 99 76
-0.051009033 -0.29148018 1.4574009 162 98 75
-0.049551632 -0.29148018 1.4574009 161 99 76
-0.04809423 -0.29148018 1.4574009 163 101 77
-0.046309557 -0.28943473 1.4471736 166 104 77
-0.04470552 -0.2884227 1.4421135 168 106 77
-0.043415207 -0.28943473 1.4471736 169 108 79
-0.041821294 -0.2884227 1.4421135 173 112 85
-0.040520858 -0.28943473 1.4471736 178 117 88
-0.039073687 -0.28943473 1.4471736 182 118 89
-0.037494954 -0.2884227 1.4421135 183 119 89
-0.036052838 -0.2884227 1.4421135 183 119 88
-0.034732167 -0.28943473 1.4471736 181 117 87
-0.033284992 -0.28943473 1.4471736 182 117 86
-0.031949922 -0.29045382 1.4522692 177 113 84
-0.030390646 -0.28943473 1.4471736 172 107 78
-0.029045384 -0.29045382 1.4522692 170 105 77
