ply
format ascii 1.0
element vertex 1078
property float32 x
property float32 y
property float32 z
property uchar red
property uchar green
property uchar blue
element face 0
property list uint8 int32 vertex_indices
end_header
0.02732282 -0.19711462 1.9516299 173 102 88
0.029159468 -0.19634041 1.9439645 185 111 94
0.031103432 -0.19634041 1.9439645 183 106 93
0.032918103 -0.19557226 1.9363589 152 86 75
0.03471863 -0.19481009 1.9288127 148 81 71
0.036505178 -0.19405383 1.9213251 147 78 68
0.038426504 -0.19405383 1.9213251 142 76 65
0.04034783 -0.19405383 1.9213251 152 84 72
0.042105697 -0.19330344 1.9138954 162 91 80
0.04401959 -0.19330344 1.9138954 194 111 95
0.04575655 -0.19255881 1.9065229 211 124 104
0.04766307 -0.19255881 1.9065229 193 118 101
0.049569596 -0.19255881 1.9065229 205 125 109
0.051278587 -0.1918199 1.899207 224 137 121
0.05297452 -0.19108665 1.891947 215 133 120
0.054866463 -0.19108665 1.891947 224 133 123
0.05675841 -0.19108665 1.891947 184 106 97
0.058650356 -0.19108665 1.891947 149 86 80
0.060311757 -0.19035898 1.8847424 113 61 60
0.0621965 -0.19035898 1.8847424 91 48 45
0.06383814 -0.18963683 1.8775923 84 44 40
0.06571573 -0.18963683 1.8775923 80 50 43
0.06759332 -0.18963683 1.8775923 100 81 73
0.069156095 -0.18877745 1.8690836 117 91 84
0.07102518 -0.18877745 1.8690836 158 104 86
0.07289427 -0.18877745 1.8690836 178 110 89
0.07448207 -0.18806723 1.8620517 189 116 93
0.07663243 -0.18877745 1.8690836 196 123 98
0.07820617 -0.18806723 1.8620517 195 126 94
0.07976812 -0.18736231 1.8550725 192 127 94
0.08162319 -0.18736231 1.8550725 183 118 90
0.083478265 -0.18736231 1.8550725 169 113 86
0.08501469 -0.18666269 1.8481455 151 99 77
0.08718841 -0.18736231 1.8550725 109 80 58
0.08904348 -0.18736231 1.8550725 74 49 41
0.090559125 -0.18666269 1.8481455 55 34 29
0.09240727 -0.18666269 1.8481455 47 28 27
0.09425542 -0.18666269 1.8481455 46 30 30
0.096103564 -0.18666269 1.8481455 44 31 31
0.09795171 -0.18666269 1.8481455 42 33 30
0.09979986 -0.18666269 1.8481455 53 41 40
0.101648 -0.18666269 1.8481455 59 45 41
0.10349615 -0.18666269 1.8481455 52 34 21
0.10534429 -0.18666269 1.8481455 91 68 54
0.107192434 -0.18666269 1.8481455 137 95 84
0.10904058 -0.18666269 1.8481455 157 101 87
0.11130435 -0.18736231 1.8550725 168 109 92
0.113159426 -0.18736231 1.8550725 185 124 104
0.11501449 -0.18736231 1.8550725 200 137 115
0.11686957 -0.18736231 1.8550725 213 144 123
0.119171314 -0.18806723 1.8620517 220 149 125
0.12057971 -0.18736231 1.8550725 227 154 128
0.12289542 -0.18806723 1.8620517 231 158 130
0.124289855 -0.18736231 1.8550725 231 158 125
0.12661952 -0.18806723 1.8620517 225 154 120
0.12848157 -0.18806723 1.8620517 213 142 112
0.13083586 -0.18877745 1.8690836 182 117 95
0.13432823 -0.19108665 1.891947 203 133 108
0.13941784 -0.19557226 1.9363589 201 144 122
0.14746994 -0.20403375 2.020136 211 185 159
0.1561171 -0.21307874 2.1096904 212 186 161
0.16209608 -0.2182894 2.161281 214 181 160
0.16497779 -0.21924679 2.1707604 198 174 151
0.16641864 -0.2182894 2.161281 222 192 167
0.16799304 -0.21752945 2.1537569 221 193 168
0.1701468 -0.21752945 2.1537569 222 195 169
0.1729025 -0.2182894 2.161281 215 189 164
0.1744543 -0.21752945 2.1537569 210 184 160
0.17722505 -0.2182894 2.161281 211 188 163
0.17938633 -0.2182894 2.161281 217 193 166
0.18154761 -0.2182894 2.161281 221 196 171
0.18370889 -0.2182894 2.161281 222 195 172
0.18587019 -0.2182894 2.161281 221 196 172
0.18737684 -0.21752945 2.1537569 219 194 171
0.19019273 -0.2182894 2.161281 221 195 173
0.19235402 -0.2182894 2.161281 225 200 177
0.1945153 -0.2182894 2.161281 225 198 175
0.19667658 -0.2182894 2.161281 224 197 175
0.19883786 -0.2182894 2.161281 224 197 174
0.20099914 -0.2182894 2.161281 221 196 172
0.20316043 -0.2182894 2.161281 217 195 171
0.2046069 -0.21752945 2.1537569 221 196 174
0.20676064 -0.21752945 2.1537569 221 196 172
0.20891441 -0.21752945 2.1537569 219 197 172
0.21106818 -0.21752945 2.1537569 221 197 174
0.21322192 -0.21752945 2.1537569 222 195 173
0.21537569 -0.21752945 2.1537569 222 196 173
0.21752945 -0.21752945 2.1537569 226 201 178
0.2196832 -0.21752945 2.1537569 224 196 176
0.22183695 -0.21752945 2.1537569 222 195 175
0.22399071 -0.21752945 2.1537569 218 191 171
0.22614446 -0.21752945 2.1537569 229 201 178
0.22829823 -0.21752945 2.1537569 217 187 166
0.23045199 -0.21752945 2.1537569 210 182 161
0.23260574 -0.21752945 2.1537569 209 182 160
0.2347595 -0.21752945 2.1537569 214 185 163
0.23691325 -0.21752945 2.1537569 212 185 163
0.23906702 -0.21752945 2.1537569 220 191 171
0.24122076 -0.21752945 2.1537569 213 190 168
0.24337453 -0.21752945 2.1537569 217 190 169
0.24552828 -0.21752945 2.1537569 215 189 168
0.24768203 -0.21752945 2.1537569 213 185 166
0.2507086 -0.2182894 2.161281 213 187 166
0.25286987 -0.2182894 2.161281 211 187 166
0.25503117 -0.2182894 2.161281 217 192 170
0.25719243 -0.2182894 2.161281 218 191 169
0.25935373 -0.2182894 2.161281 219 192 171
0.26151502 -0.2182894 2.161281 219 192 171
0.26483276 -0.21924679 2.1707604 214 187 166
0.26583758 -0.2182894 2.161281 214 188 167
0.26799887 -0.2182894 2.161281 212 186 166
0.27016014 -0.2182894 2.161281 218 191 170
0.2723214 -0.2182894 2.161281 217 190 169
0.2756866 -0.21924679 2.1707604 214 191 171
0.27785733 -0.21924679 2.1707604 217 190 172
0.28002807 -0.21924679 2.1707604 217 190 172
0.28219885 -0.21924679 2.1707604 215 189 169
0.2843696 -0.21924679 2.1707604 218 191 173
0.2865404 -0.21924679 2.1707604 219 194 175
0.28972772 -0.22001879 2.1784039 218 197 176
0.29190612 -0.22001879 2.1784039 220 198 178
0.29408452 -0.22001879 2.1784039 222 198 178
0.29626295 -0.22001879 2.1784039 221 197 180
0.29844132 -0.22001879 2.1784039 222 200 181
0.30061972 -0.22001879 2.1784039 224 200 181
0.30279812 -0.22001879 2.1784039 222 200 181
0.30497652 -0.22001879 2.1784039 223 200 182
0.30715492 -0.22001879 2.1784039 224 200 182
0.30933335 -0.22001879 2.1784039 224 200 183
0.31151175 -0.22001879 2.1784039 222 200 181
-0.3037954 -0.21518843 2.1096904 180 142 116
-0.30168572 -0.21518843 2.1096904 195 152 125
-0.29957604 -0.21518843 2.1096904 181 143 119
-0.29746634 -0.21518843 2.1096904 184 143 120
-0.29535666 -0.21518843 2.1096904 180 141 118
-0.29324698 -0.21518843 2.1096904 167 120 98
-0.29113728 -0.21518843 2.1096904 157 102 78
-0.2890276 -0.21518843 2.1096904 163 99 72
-0.2869179 -0.21518843 2.1096904 162 100 72
-0.2848082 -0.21518843 2.1096904 164 103 74
-0.2826985 -0.21518843 2.1096904 160 102 74
-0.28058884 -0.21518843 2.1096904 165 101 80
-0.27847913 -0.21518843 2.1096904 164 101 83
-0.27636945 -0.21518843 2.1096904 156 103 87
-0.27425978 -0.21518843 2.1096904 166 120 100
-0.27215007 -0.21518843 2.1096904 164 128 108
-0.27004036 -0.21518843 2.1096904 158 133 112
-0.2679307 -0.21518843 2.1096904 157 134 114
-0.26582098 -0.21518843 2.1096904 151 133 112
-0.2637113 -0.21518843 2.1096904 146 131 110
-0.26071256 -0.21445711 2.1025207 148 131 111
-0.25861004 -0.21445711 2.1025207 150 132 112
-0.25650755 -0.21445711 2.1025207 134 120 102
-0.254405 -0.21445711 2.1025207 137 122 103
-0.2523025 -0.21445711 2.1025207 144 125 107
-0.25019997 -0.21445711 2.1025207 143 125 108
-0.24809745 -0.21445711 2.1025207 141 123 105
-0.24599493 -0.21445711 2.1025207 140 122 104
-0.2438924 -0.21445711 2.1025207 141 121 103
-0.24178989 -0.21445711 2.1025207 142 122 104
-0.23968737 -0.21445711 2.1025207 147 127 107
-0.23758484 -0.21445711 2.1025207 150 130 108
-0.23548232 -0.21445711 2.1025207 151 128 105
-0.2333798 -0.21445711 2.1025207 151 129 106
-0.23127729 -0.21445711 2.1025207 151 131 107
-0.22917476 -0.21445711 2.1025207 149 129 107
-0.22707224 -0.21445711 2.1025207 147 127 106
-0.22496971 -0.21445711 2.1025207 146 129 107
-0.22286719 -0.21445711 2.1025207 146 127 108
-0.22076468 -0.21445711 2.1025207 150 132 110
-0.21773718 -0.21354993 2.0936267 152 132 112
-0.21655963 -0.21445711 2.1025207 148 128 110
-0.21445711 -0.21445711 2.1025207 147 128 109
-0.21235459 -0.21445711 2.1025207 150 129 110
-0.21025208 -0.21445711 2.1025207 150 130 111
-0.20814955 -0.21445711 2.1025207 153 133 113
-0.20604703 -0.21445711 2.1025207 153 133 111
-0.2039445 -0.21445711 2.1025207 151 133 111
-0.20098816 -0.21354993 2.0936267 152 132 113
-0.19889455 -0.21354993 2.0936267 149 132 113
-0.19680092 -0.21354993 2.0936267 145 128 108
-0.19470729 -0.21354993 2.0936267 146 129 109
-0.19261366 -0.21354993 2.0936267 146 127 106
-0.19052003 -0.21354993 2.0936267 146 126 104
-0.1884264 -0.21354993 2.0936267 150 128 104
-0.18633278 -0.21354993 2.0936267 148 128 106
-0.18423915 -0.21354993 2.0936267 149 128 109
-0.18137826 -0.21265037 2.0848076 141 122 106
-0.17516159 -0.2077498 2.0367627 144 120 100
-0.16523698 -0.19828437 1.9439645 156 116 93
-0.15641233 -0.18992928 1.8620517 166 111 84
-0.15225898 -0.18711343 1.8344454 164 109 81
-0.14986904 -0.18642245 1.8276712 166 107 81
-0.14749669 -0.18573657 1.8209468 164 102 77
-0.14567575 -0.18573657 1.8209468 164 101 77
-0.14322247 -0.18492015 1.8129426 167 102 77
-0.14140953 -0.18492015 1.8129426 173 106 80
-0.13959658 -0.18492015 1.8129426 183 116 86
-0.13778365 -0.18492015 1.8129426 199 129 89
-0.13547446 -0.18424527 1.8063262 201 134 92
-0.13366814 -0.18424527 1.8063262 206 137 101
-0.13186182 -0.18424527 1.8063262 209 141 105
-0.13005549 -0.18424527 1.8063262 208 142 108
-0.12824915 -0.18424527 1.8063262 211 146 113
-0.12690598 -0.18492015 1.8129426 214 149 117
-0.12463651 -0.18424527 1.8063262 212 144 117
-0.122830175 -0.18424527 1.8063262 208 141 116
-0.12058376 -0.18357527 1.7997576 200 136 112
-0.11921753 -0.18424527 1.8063262 190 129 109
-0.1174112 -0.18424527 1.8063262 184 116 102
-0.115184486 -0.18357527 1.7997576 163 103 92
-0.113798544 -0.18424527 1.8063262 121 84 73
-0.11199222 -0.18424527 1.8063262 77 48 36
-0.1101859 -0.18424527 1.8063262 58 31 20
-0.10837957 -0.18424527 1.8063262 54 31 21
-0.10657324 -0.18424527 1.8063262 49 27 18
-0.10438594 -0.18357527 1.7997576 48 29 20
-0.10258618 -0.18357527 1.7997576 50 34 24
-0.10115427 -0.18424527 1.8063262 50 34 21
-0.09934794 -0.18424527 1.8063262 45 27 12
-0.09754161 -0.18424527 1.8063262 61 40 24
-0.09608596 -0.18492015 1.8129426 69 44 27
-0.094273016 -0.18492015 1.8129426 106 77 63
-0.09246007 -0.18492015 1.8129426 136 98 80
-0.09104734 -0.18573657 1.8209468 159 107 84
-0.089226395 -0.18573657 1.8209468 178 117 91
-0.08740545 -0.18573657 1.8209468 175 115 91
-0.085900545 -0.18642245 1.8276712 182 119 93
-0.08376355 -0.18573657 1.8209468 190 124 96
-0.0819426 -0.18573657 1.8209468 206 134 102
-0.080417536 -0.18642245 1.8276712 217 144 108
-0.07858986 -0.18642245 1.8276712 218 145 113
-0.07733334 -0.18780953 1.8412699 212 141 117
-0.07549207 -0.18780953 1.8412699 164 106 95
-0.07392582 -0.18851084 1.8481455 98 52 44
-0.07234783 -0.18921739 1.8550725 118 66 60
-0.07075796 -0.18992928 1.8620517 169 94 88
-0.06947092 -0.19151442 1.8775923 215 129 114
-0.06759332 -0.19151442 1.8775923 223 140 122
-0.06596598 -0.19224373 1.8847424 219 133 119
-0.06408124 -0.19224373 1.8847424 216 133 113
-0.06267383 -0.19371912 1.899207 220 133 111
-0.061008733 -0.19446534 1.9065229 216 129 109
-0.059102207 -0.19446534 1.9065229 210 126 107
-0.057195686 -0.19446534 1.9065229 210 128 108
-0.05528916 -0.19446534 1.9065229 172 111 95
-0.05358907 -0.19521733 1.9138954 209 127 111
-0.051875778 -0.19597515 1.9213251 207 123 108
-0.05014913 -0.19673891 1.9288127 204 127 111
-0.048408974 -0.1975086 1.9363589 181 113 100
-0.048129663 -0.20455106 2.0054026 106 58 46
-0.04612426 -0.20455106 2.0054026 98 48 38
-0.04411886 -0.20455106 2.0054026 87 40 33
-0.042284787 -0.20538324 2.0135612 84 38 31
-0.040271226 -0.20538324 2.0135612 83 37 31
-0.038257662 -0.20538324 2.0135612 83 36 32
-0.03636245 -0.20605388 2.020136 83 38 32
-0.034342315 -0.20605388 2.020136 87 40 34
-0.03232218 -0.20605388 2.020136 90 42 36
-0.030302042 -0.20605388 2.020136 90 42 36
-0.028281907 -0.20605388 2.020136 89 42 35
-0.026261771 -0.20605388 2.020136 89 41 34
-0.024340983 -0.20689838 2.0284154 94 45 38
-0.02231257 -0.20689838 2.0284154 101 50 42
-0.020284155 -0.20689838 2.0284154 104 51 43
-0.018255739 -0.20689838 2.0284154 104 51 44
-0.016227324 -0.20689838 2.0284154 102 50 40
-0.014198908 -0.20689838 2.0284154 100 51 41
-0.012170492 -0.20689838 2.0284154 97 49 43
-0.010142078 -0.20689838 2.0284154 95 45 45
-0.008080545 -0.20605388 2.020136 84 45 43
-0.0060604084 -0.20605388 2.020136 55 22 19
-0.0040402724 -0.20605388 2.020136 83 43 43
-0.0020135613 -0.20538324 2.0135612 108 58 56
0.0 -0.20538324 2.0135612 119 63 52
0.0020054025 -0.20455106 2.0054026 125 67 51
0.004010805 -0.20455106 2.0054026 127 68 53
0.005991929 -0.20372559 1.9973097 128 69 57
0.007957128 -0.20290676 1.9892819 129 70 58
0.00994641 -0.20290676 1.9892819 134 72 59
0.011887911 -0.20209448 1.9813185 136 75 60
0.01381393 -0.20128869 1.9734185 137 76 62
0.015787348 -0.20128869 1.9734185 140 80 64
0.017760767 -0.20128869 1.9734185 142 81 67
0.01965581 -0.20048927 1.9655812 142 82 68
0.021535866 -0.19969621 1.957806 150 87 73
0.023419559 -0.19906625 1.9516299 159 90 79
0.025371188 -0.19906625 1.9516299 156 90 78
0.02732282 -0.19906625 1.9516299 154 90 78
0.029159468 -0.19828437 1.9439645 186 109 93
0.030981744 -0.1975086 1.9363589 155 90 77
0.03278982 -0.19673891 1.9288127 152 84 71
0.03471863 -0.19673891 1.9288127 150 82 70
0.036647443 -0.19673891 1.9288127 150 81 69
0.038426504 -0.19597515 1.9213251 151 84 71
0.040191803 -0.19521733 1.9138954 155 89 75
0.042105697 -0.19521733 1.9138954 198 114 96
0.043850027 -0.19446534 1.9065229 199 119 101
0.04593349 -0.19521733 1.9138954 198 119 103
0.04766307 -0.19446534 1.9065229 221 134 112
0.049379382 -0.19371912 1.899207 210 131 108
0.051278587 -0.19371912 1.899207 204 128 109
0.05297452 -0.19297859 1.891947 211 126 116
0.054866463 -0.19297859 1.891947 164 97 92
0.05654227 -0.19224373 1.8847424 129 78 70
0.058427013 -0.19224373 1.8847424 102 52 48
0.060311757 -0.19224373 1.8847424 92 49 47
0.0621965 -0.19224373 1.8847424 83 45 46
0.06408124 -0.19224373 1.8847424 90 58 60
0.06571573 -0.19151442 1.8775923 107 88 84
0.06759332 -0.19151442 1.8775923 109 93 91
0.069156095 -0.19064653 1.8690836 110 86 80
0.07102518 -0.19064653 1.8690836 164 104 89
0.07289427 -0.19064653 1.8690836 169 104 85
0.07448207 -0.18992928 1.8620517 180 110 90
0.076344125 -0.18992928 1.8620517 188 116 94
0.07820617 -0.18992928 1.8620517 193 121 95
0.08006822 -0.18992928 1.8620517 190 120 94
0.08131841 -0.18851084 1.8481455 181 114 90
0.08316655 -0.18851084 1.8481455 157 102 83
0.08469841 -0.18780953 1.8412699 97 61 41
0.08686284 -0.18851084 1.8481455 72 46 25
0.088710986 -0.18851084 1.8481455 88 67 63
0.090559125 -0.18851084 1.8481455 84 67 67
0.09240727 -0.18851084 1.8481455 61 46 47
0.09425542 -0.18851084 1.8481455 58 44 44
0.09646377 -0.18921739 1.8550725 47 34 33
0.09831884 -0.18921739 1.8550725 47 35 33
0.10017391 -0.18921739 1.8550725 49 37 34
0.101648 -0.18851084 1.8481455 75 62 55
0.10349615 -0.18851084 1.8481455 86 70 62
0.10534429 -0.18851084 1.8481455 64 39 29
0.107192434 -0.18851084 1.8481455 105 74 65
0.10904058 -0.18851084 1.8481455 149 100 88
0.110888734 -0.18851084 1.8481455 160 106 90
0.11273688 -0.18851084 1.8481455 171 115 97
0.11458502 -0.18851084 1.8481455 190 130 109
0.116433166 -0.18851084 1.8481455 206 139 120
0.11872464 -0.18921739 1.8550725 214 146 123
0.12057971 -0.18921739 1.8550725 220 151 126
0.12289542 -0.18992928 1.8620517 226 154 127
0.124289855 -0.18921739 1.8550725 230 156 129
0.12661952 -0.18992928 1.8620517 228 157 128
0.12848157 -0.18992928 1.8620517 224 152 123
0.13083586 -0.19064653 1.8690836 188 122 101
0.13330905 -0.19151442 1.8775923 205 135 110
0.13726965 -0.19446534 1.9065229 204 141 117
0.14348742 -0.20048927 1.9655812 227 188 160
0.15311484 -0.21105018 2.0691195 218 188 166
0.1608319 -0.21873137 2.1444252 211 185 162
0.16425738 -0.22045067 2.161281 217 190 167
0.16641864 -0.22045067 2.161281 215 186 164
0.16726516 -0.21873137 2.1444252 219 192 170
0.16940959 -0.21873137 2.1444252 212 183 162
0.17230055 -0.2196832 2.1537569 211 188 163
0.17369844 -0.21873137 2.1444252 216 192 167
0.17660806 -0.2196832 2.1537569 221 197 170
0.17876182 -0.2196832 2.1537569 215 190 165
0.18091558 -0.2196832 2.1537569 213 188 165
0.18306933 -0.2196832 2.1537569 217 192 169
0.18522309 -0.2196832 2.1537569 221 196 172
0.18737684 -0.2196832 2.1537569 218 193 170
0.18953061 -0.2196832 2.1537569 218 194 170
0.19235402 -0.22045067 2.161281 221 196 173
0.19383812 -0.2196832 2.1537569 219 195 173
0.19599187 -0.2196832 2.1537569 224 199 174
0.19814563 -0.2196832 2.1537569 218 193 170
0.2002994 -0.2196832 2.1537569 217 191 169
0.20245314 -0.2196832 2.1537569 217 191 169
0.2046069 -0.2196832 2.1537569 213 187 165
0.2058648 -0.21873137 2.1444252 219 190 169
0.20800924 -0.21873137 2.1444252 218 197 174
0.21015367 -0.21873137 2.1444252 219 195 172
0.2122981 -0.21873137 2.1444252 220 195 173
0.21444252 -0.21873137 2.1444252 224 193 172
0.21658695 -0.21873137 2.1444252 221 197 174
0.21873137 -0.21873137 2.1444252 221 197 174
0.2208758 -0.21873137 2.1444252 214 191 169
0.22302021 -0.21873137 2.1444252 222 195 175
0.22516464 -0.21873137 2.1444252 216 192 169
0.22730906 -0.21873137 2.1444252 216 192 168
0.22945349 -0.21873137 2.1444252 220 193 169
0.23159792 -0.21873137 2.1444252 219 189 167
0.23374234 -0.21873137 2.1444252 208 179 158
0.23588677 -0.21873137 2.1444252 215 188 165
0.2380312 -0.21873137 2.1444252 218 189 167
0.24122076 -0.2196832 2.1537569 209 183 163
0.24337453 -0.2196832 2.1537569 218 191 170
0.24552828 -0.2196832 2.1537569 211 184 164
0.24768203 -0.2196832 2.1537569 211 185 163
0.2498358 -0.2196832 2.1537569 214 187 166
0.25198954 -0.2196832 2.1537569 213 187 166
0.25304216 -0.21873137 2.1444252 218 192 170
0.25629705 -0.2196832 2.1537569 220 193 171
0.25845084 -0.2196832 2.1537569 219 191 170
0.2606046 -0.2196832 2.1537569 219 192 170
0.26275834 -0.2196832 2.1537569 218 191 170
0.26491207 -0.2196832 2.1537569 217 190 169
0.26706585 -0.2196832 2.1537569 215 188 168
0.2692196 -0.2196832 2.1537569 219 192 170
0.2723214 -0.22045067 2.161281 219 192 170
0.2744827 -0.22045067 2.161281 220 192 173
0.276644 -0.22045067 2.161281 218 191 172
0.27880526 -0.22045067 2.161281 218 191 172
0.28096655 -0.22045067 2.161281 217 190 172
0.28312784 -0.22045067 2.161281 218 190 170
0.2865404 -0.22141756 2.1707604 219 189 170
0.28871113 -0.22141756 2.1707604 217 190 171
0.2908819 -0.22141756 2.1707604 220 193 173
0.29177296 -0.22045067 2.161281 218 189 172
0.2952234 -0.22141756 2.1707604 219 192 174
0.29609552 -0.22045067 2.161281 224 196 178
0.29956493 -0.22141756 2.1707604 226 198 179
0.30041805 -0.22045067 2.161281 225 199 178
0.30257934 -0.22045067 2.161281 222 198 181
0.30474064 -0.22045067 2.161281 222 198 181
0.30583346 -0.2196832 2.1537569 222 200 181
0.30798724 -0.2196832 2.1537569 222 200 181
-0.30276296 -0.21655963 2.1025207 181 161 140
-0.30066046 -0.21655963 2.1025207 178 159 138
-0.29855797 -0.21655963 2.1025207 179 159 139
-0.2964554 -0.21655963 2.1025207 180 160 139
-0.29435292 -0.21655963 2.1025207 180 158 136
-0.29225037 -0.21655963 2.1025207 180 155 134
-0.29014787 -0.21655963 2.1025207 175 145 124
-0.28804535 -0.21655963 2.1025207 169 135 111
-0.28594282 -0.21655963 2.1025207 167 133 110
-0.2838403 -0.21655963 2.1025207 174 137 114
-0.28173777 -0.21655963 2.1025207 166 132 109
-0.27963525 -0.21655963 2.1025207 168 133 109
-0.27753276 -0.21655963 2.1025207 170 137 113
-0.2754302 -0.21655963 2.1025207 169 140 115
-0.2733277 -0.21655963 2.1025207 134 113 95
-0.27122515 -0.21655963 2.1025207 114 95 80
-0.26912266 -0.21655963 2.1025207 110 92 76
-0.26702014 -0.21655963 2.1025207 112 95 80
-0.2649176 -0.21655963 2.1025207 113 96 81
-0.2628151 -0.21655963 2.1025207 115 98 83
-0.26071256 -0.21655963 2.1025207 118 101 86
-0.25861004 -0.21655963 2.1025207 127 108 92
-0.25650755 -0.21655963 2.1025207 127 109 92
-0.254405 -0.21655963 2.1025207 122 105 88
-0.2523025 -0.21655963 2.1025207 125 107 90
-0.25019997 -0.21655963 2.1025207 128 109 91
-0.24809745 -0.21655963 2.1025207 134 112 94
-0.24599493 -0.21655963 2.1025207 126 108 90
-0.2438924 -0.21655963 2.1025207 128 108 91
-0.24178989 -0.21655963 2.1025207 138 117 98
-0.23968737 -0.21655963 2.1025207 143 121 101
-0.23758484 -0.21655963 2.1025207 144 123 102
-0.23548232 -0.21655963 2.1025207 142 120 98
-0.2333798 -0.21655963 2.1025207 141 119 100
-0.23127729 -0.21655963 2.1025207 145 123 102
-0.22820531 -0.21564355 2.0936267 148 126 104
-0.2261117 -0.21564355 2.0936267 148 126 107
-0.22496971 -0.21655963 2.1025207 147 127 108
-0.22286719 -0.21655963 2.1025207 148 128 108
-0.21983081 -0.21564355 2.0936267 149 130 109
-0.21773718 -0.21564355 2.0936267 149 130 110
-0.21564355 -0.21564355 2.0936267 147 128 109
-0.21354993 -0.21564355 2.0936267 150 129 110
-0.2114563 -0.21564355 2.0936267 152 132 112
-0.20936267 -0.21564355 2.0936267 150 130 111
-0.20726904 -0.21564355 2.0936267 152 133 113
-0.20517541 -0.21564355 2.0936267 152 134 112
-0.20308179 -0.21564355 2.0936267 150 134 112
-0.20098816 -0.21564355 2.0936267 151 132 112
-0.19889455 -0.21564355 2.0936267 148 126 107
-0.19680092 -0.21564355 2.0936267 148 128 107
-0.19470729 -0.21564355 2.0936267 146 127 107
-0.19261366 -0.21564355 2.0936267 147 126 106
-0.19052003 -0.21564355 2.0936267 146 125 104
-0.18922687 -0.21655963 2.1025207 140 120 98
-0.18712434 -0.21655963 2.1025207 143 125 102
-0.18502182 -0.21655963 2.1025207 146 126 107
-0.18137826 -0.21473518 2.0848076 148 126 110
-0.17246461 -0.20655645 2.0054026 148 121 98
-0.16205445 -0.19637185 1.9065229 158 113 90
-0.15409341 -0.18894787 1.8344454 165 111 84
-0.1516967 -0.18825014 1.8276712 168 112 87
-0.14931764 -0.18755752 1.8209468 178 116 90
-0.14749669 -0.18755752 1.8209468 175 110 85
-0.14567575 -0.18755752 1.8209468 172 106 82
-0.14322247 -0.1867331 1.8129426 173 106 81
-0.14140953 -0.1867331 1.8129426 176 109 83
-0.13959658 -0.1867331 1.8129426 180 114 86
-0.13778365 -0.1867331 1.8129426 193 127 88
-0.13547446 -0.18605159 1.8063262 207 138 95
-0.13366814 -0.18605159 1.8063262 212 143 105
-0.13186182 -0.18605159 1.8063262 211 145 109
-0.13005549 -0.18605159 1.8063262 215 150 114
-0.12824915 -0.18605159 1.8063262 218 153 120
-0.12690598 -0.1867331 1.8129426 215 150 120
-0.124183275 -0.18537503 1.7997576 210 144 118
-0.12238351 -0.18537503 1.7997576 204 140 114
-0.12058376 -0.18537503 1.7997576 197 134 112
-0.118784 -0.18537503 1.7997576 184 121 105
-0.11698425 -0.18537503 1.7997576 161 102 91
-0.115184486 -0.18537503 1.7997576 134 89 79
-0.113798544 -0.18605159 1.8063262 50 27 18
-0.11199222 -0.18605159 1.8063262 43 27 18
-0.109785214 -0.18537503 1.7997576 58 37 31
-0.10759421 -0.18470338 1.7932367 56 39 34
-0.105800964 -0.18470338 1.7932367 82 72 66
-0.10438594 -0.18537503 1.7997576 86 78 72
-0.10258618 -0.18537503 1.7997576 61 51 44
-0.10115427 -0.18605159 1.8063262 56 44 36
-0.09898667 -0.18537503 1.7997576 82 69 62
-0.09754161 -0.18605159 1.8063262 117 100 91
-0.09573528 -0.18605159 1.8063262 127 108 98
-0.09392896 -0.18605159 1.8063262 92 68 56
-0.09212264 -0.18605159 1.8063262 87 55 37
-0.09104734 -0.18755752 1.8209468 109 78 56
-0.08883419 -0.1867331 1.8129426 150 101 79
-0.08740545 -0.18755752 1.8209468 169 111 87
-0.085900545 -0.18825014 1.8276712 178 116 91
-0.08407287 -0.18825014 1.8276712 188 121 93
-0.0819426 -0.18755752 1.8209468 197 129 98
-0.080417536 -0.18825014 1.8276712 206 135 102
-0.07888115 -0.18894787 1.8344454 209 140 108
-0.07676219 -0.18825014 1.8276712 216 147 119
-0.075212255 -0.18894787 1.8344454 202 140 122
-0.07365079 -0.18965079 1.8412699 105 73 65
-0.07180952 -0.18965079 1.8412699 94 47 40
-0.07049275 -0.19107246 1.8550725 120 66 62
-0.06889591 -0.19179133 1.8620517 128 81 71
-0.06728701 -0.19251561 1.8690836 147 98 87
-0.06541793 -0.19251561 1.8690836 220 136 120
-0.06383814 -0.19339201 1.8775923 213 131 116
-0.062434252 -0.19487055 1.891947 220 132 112
-0.061008733 -0.19637185 1.9065229 217 131 110
-0.059102207 -0.19637185 1.9065229 210 126 106
-0.057416864 -0.19713123 1.9138954 210 128 108
-0.05528916 -0.19637185 1.9065229 113 83 65
-0.05358907 -0.19713123 1.9138954 203 131 111
-0.051875778 -0.19789648 1.9213251 203 125 109
-0.05014913 -0.1986677 1.9288127 190 122 106
-0.048408974 -0.19944498 1.9363589 192 121 107
-0.048129663 -0.20655645 2.0054026 107 60 49
-0.04612426 -0.20655645 2.0054026 97 48 38
-0.04411886 -0.20655645 2.0054026 89 41 32
-0.042284787 -0.2073968 2.0135612 87 40 33
-0.040271226 -0.2073968 2.0135612 84 38 31
-0.038257662 -0.2073968 2.0135612 85 38 33
-0.0362441 -0.2073968 2.0135612 85 40 33
-0.034342315 -0.20807402 2.020136 88 42 36
-0.03232218 -0.20807402 2.020136 90 43 37
-0.030302042 -0.20807402 2.020136 92 43 38
-0.028281907 -0.20807402 2.020136 90 43 37
-0.026261771 -0.20807402 2.020136 89 41 34
-0.024340983 -0.20892678 2.0284154 88 41 33
-0.02231257 -0.20892678 2.0284154 96 47 39
-0.020284155 -0.20892678 2.0284154 101 50 43
-0.018255739 -0.20892678 2.0284154 101 50 43
-0.016227324 -0.20892678 2.0284154 97 48 38
-0.014198908 -0.20892678 2.0284154 95 47 36
-0.012170492 -0.20892678 2.0284154 94 47 40
-0.010142078 -0.20892678 2.0284154 92 45 43
-0.008080545 -0.20807402 2.020136 82 41 41
-0.0060604084 -0.20807402 2.020136 55 21 19
-0.0040402724 -0.20807402 2.020136 81 43 42
-0.0020201362 -0.20807402 2.020136 110 62 60
0.0 -0.20807402 2.020136 115 61 51
0.0020054025 -0.20655645 2.0054026 121 65 52
0.0039946195 -0.2057229 1.9973097 126 69 56
0.005967846 -0.20489605 1.9892819 124 69 56
0.007957128 -0.20489605 1.9892819 128 71 59
0.009906593 -0.2040758 1.9813185 133 71 58
0.011887911 -0.2040758 1.9813185 133 74 59
0.01381393 -0.2032621 1.9734185 137 77 64
0.015787348 -0.2032621 1.9734185 138 78 63
0.017760767 -0.2032621 1.9734185 140 79 65
0.01965581 -0.20245486 1.9655812 146 84 70
0.021535866 -0.20165402 1.957806 147 85 71
0.023419559 -0.20101789 1.9516299 146 86 72
0.025371188 -0.20101789 1.9516299 154 89 77
0.027215503 -0.20022835 1.9439645 186 106 92
0.029159468 -0.20022835 1.9439645 153 90 76
0.030981744 -0.19944498 1.9363589 152 84 71
0.03278982 -0.1986677 1.9288127 149 83 69
0.03458385 -0.19789648 1.9213251 152 85 70
0.036647443 -0.1986677 1.9288127 147 83 67
0.038426504 -0.19789648 1.9213251 161 91 76
0.040191803 -0.19713123 1.9138954 191 111 93
0.041943505 -0.19637185 1.9065229 186 111 93
0.043850027 -0.19637185 1.9065229 187 112 97
0.04575655 -0.19637185 1.9065229 213 128 113
0.047480173 -0.19561832 1.899207 205 127 108
0.049379382 -0.19561832 1.899207 198 125 106
0.051278587 -0.19561832 1.899207 202 127 113
0.053177796 -0.19561832 1.899207 139 95 90
0.054866463 -0.19487055 1.891947 91 56 49
0.05632777 -0.19339201 1.8775923 81 41 30
0.058427013 -0.19412847 1.8847424 90 47 43
0.060082953 -0.19339201 1.8775923 87 50 50
0.06196055 -0.19339201 1.8775923 95 71 70
0.06354884 -0.19251561 1.8690836 103 87 84
0.06571573 -0.19339201 1.8775923 106 91 89
0.06728701 -0.19251561 1.8690836 108 94 95
0.06889591 -0.19179133 1.8620517 120 92 86
0.07102518 -0.19251561 1.8690836 164 103 88
0.07262002 -0.19179133 1.8620517 183 111 93
0.07448207 -0.19179133 1.8620517 182 111 93
0.07605798 -0.19107246 1.8550725 184 111 91
0.07820617 -0.19179133 1.8620517 196 120 96
0.07976812 -0.19107246 1.8550725 191 117 96
0.08131841 -0.19035898 1.8481455 176 110 90
0.08316655 -0.19035898 1.8481455 143 93 79
0.08469841 -0.18965079 1.8412699 72 40 22
0.08653968 -0.18965079 1.8412699 73 50 36
0.08838095 -0.18965079 1.8412699 134 110 107
0.090559125 -0.19035898 1.8481455 130 109 111
0.09240727 -0.19035898 1.8481455 136 122 121
0.09425542 -0.19035898 1.8481455 136 121 117
0.096103564 -0.19035898 1.8481455 93 83 79
0.09795171 -0.19035898 1.8481455 89 78 75
0.09979986 -0.19035898 1.8481455 107 98 94
0.101648 -0.19035898 1.8481455 95 84 80
0.10349615 -0.19035898 1.8481455 86 74 68
0.10534429 -0.19035898 1.8481455 69 51 43
0.10679365 -0.18965079 1.8412699 64 41 31
0.10863492 -0.18965079 1.8412699 129 94 84
0.110888734 -0.19035898 1.8481455 147 100 86
0.11273688 -0.19035898 1.8481455 164 108 92
0.11501449 -0.19107246 1.8550725 178 121 100
0.11686957 -0.19107246 1.8550725 195 132 112
0.11872464 -0.19107246 1.8550725 208 143 119
0.12057971 -0.19107246 1.8550725 216 148 122
0.12289542 -0.19179133 1.8620517 222 151 125
0.124289855 -0.19107246 1.8550725 227 153 127
0.12661952 -0.19179133 1.8620517 228 156 129
0.12896676 -0.19251561 1.8690836 226 156 128
0.13083586 -0.19251561 1.8690836 219 145 120
0.13270494 -0.19251561 1.8690836 207 138 114
0.13622019 -0.19487055 1.891947 215 143 121
0.1413542 -0.19944498 1.9363589 214 161 138
0.15010273 -0.20892678 2.0284154 221 191 164
0.15890412 -0.21822831 2.1187215 214 187 161
0.16368552 -0.22183695 2.1537569 213 185 162
0.16583928 -0.22183695 2.1537569 211 184 161
0.16799304 -0.22183695 2.1537569 213 186 162
0.16940959 -0.2208758 2.1444252 212 185 161
0.17155401 -0.2208758 2.1444252 214 188 163
0.17369844 -0.2208758 2.1444252 219 192 168
0.17508428 -0.21992293 2.135174 219 192 167
0.17798729 -0.2208758 2.1444252 212 186 163
0.18013172 -0.2208758 2.1444252 210 187 164
0.18306933 -0.22183695 2.1537569 216 192 169
0.18522309 -0.22183695 2.1537569 222 197 174
0.18656498 -0.2208758 2.1444252 224 197 174
0.18870941 -0.2208758 2.1444252 213 189 167
0.19085383 -0.2208758 2.1444252 221 196 173
0.19383812 -0.22183695 2.1537569 225 199 175
0.19599187 -0.22183695 2.1537569 222 196 173
0.19728711 -0.2208758 2.1444252 217 192 170
0.19943154 -0.2208758 2.1444252 213 186 164
0.20157596 -0.2208758 2.1444252 211 185 163
0.20372038 -0.2208758 2.1444252 208 179 159
0.2058648 -0.2208758 2.1444252 215 187 166
0.20800924 -0.2208758 2.1444252 223 198 176
0.21015367 -0.2208758 2.1444252 225 200 177
0.2122981 -0.2208758 2.1444252 220 191 170
0.21444252 -0.2208758 2.1444252 211 186 165
0.21658695 -0.2208758 2.1444252 213 188 167
0.21873137 -0.2208758 2.1444252 215 191 168
0.2208758 -0.2208758 2.1444252 222 195 174
0.22302021 -0.2208758 2.1444252 221 197 174
0.22516464 -0.2208758 2.1444252 213 189 168
0.22730906 -0.2208758 2.1444252 218 194 172
0.22945349 -0.2208758 2.1444252 218 193 171
0.23159792 -0.2208758 2.1444252 217 192 170
0.23374234 -0.2208758 2.1444252 213 188 167
0.23588677 -0.2208758 2.1444252 211 185 162
0.2380312 -0.2208758 2.1444252 214 187 166
0.24017562 -0.2208758 2.1444252 219 192 170
0.24232003 -0.2208758 2.1444252 220 193 171
0.24446446 -0.2208758 2.1444252 213 187 165
0.24660888 -0.2208758 2.1444252 211 185 163
0.24875331 -0.2208758 2.1444252 212 186 165
0.25198954 -0.22183695 2.1537569 218 192 169
0.25304216 -0.2208758 2.1444252 219 193 171
0.2551866 -0.2208758 2.1444252 215 188 169
0.257331 -0.2208758 2.1444252 219 192 171
0.25947544 -0.2208758 2.1444252 218 191 171
0.26161987 -0.2208758 2.1444252 217 190 170
0.2637643 -0.2208758 2.1444252 219 192 171
0.26590872 -0.2208758 2.1444252 219 192 172
0.26805314 -0.2208758 2.1444252 217 190 170
0.27137336 -0.22183695 2.1537569 218 191 171
0.27234197 -0.2208758 2.1444252 219 192 172
0.27568087 -0.22183695 2.1537569 220 193 174
0.27783462 -0.22183695 2.1537569 218 191 172
0.2799884 -0.22183695 2.1537569 218 191 172
0.28214216 -0.22183695 2.1537569 219 190 173
0.28306413 -0.2208758 2.1444252 217 188 166
0.28520855 -0.2208758 2.1444252 216 189 165
0.28735298 -0.2208758 2.1444252 217 190 167
0.29075718 -0.22183695 2.1537569 220 194 168
0.2916418 -0.2208758 2.1444252 222 196 169
0.29378626 -0.2208758 2.1444252 220 193 171
0.29593065 -0.2208758 2.1444252 220 192 176
0.2980751 -0.2208758 2.1444252 223 194 181
0.3002195 -0.2208758 2.1444252 224 197 182
0.30105954 -0.21992293 2.135174 224 196 182
0.30450836 -0.2208758 2.1444252 223 197 180
0.3053299 -0.21992293 2.135174 223 197 178
-0.30276296 -0.21866216 2.1025207 180 161 140
-0.30066046 -0.21866216 2.1025207 179 159 139
-0.29855797 -0.21866216 2.1025207 176 160 139
-0.2964554 -0.21866216 2.1025207 179 162 141
-0.29435292 -0.21866216 2.1025207 179 160 138
-0.29225037 -0.21866216 2.1025207 175 153 133
-0.29014787 -0.21866216 2.1025207 167 148 127
-0.28804535 -0.21866216 2.1025207 165 144 125
-0.28594282 -0.21866216 2.1025207 167 146 126
-0.2838403 -0.21866216 2.1025207 167 145 126
-0.28173777 -0.21866216 2.1025207 164 144 124
-0.27963525 -0.21866216 2.1025207 163 144 121
-0.27753276 -0.21866216 2.1025207 161 140 115
-0.2754302 -0.21866216 2.1025207 151 132 105
-0.2733277 -0.21866216 2.1025207 135 114 92
-0.27122515 -0.21866216 2.1025207 111 90 73
-0.26912266 -0.21866216 2.1025207 95 73 57
-0.26702014 -0.21866216 2.1025207 93 72 55
-0.2649176 -0.21866216 2.1025207 90 69 52
-0.2628151 -0.21866216 2.1025207 90 69 52
-0.2596097 -0.21773718 2.0936267 93 73 56
-0.2575161 -0.21773718 2.0936267 96 76 59
-0.25542244 -0.21773718 2.0936267 96 76 59
-0.25332883 -0.21773718 2.0936267 98 78 61
-0.2501769 -0.21681999 2.0848076 96 75 58
-0.2480921 -0.21681999 2.0848076 92 71 54
-0.2460073 -0.21681999 2.0848076 86 65 47
-0.2439225 -0.21681999 2.0848076 93 73 56
-0.2418377 -0.21681999 2.0848076 100 79 62
-0.23975289 -0.21681999 2.0848076 101 80 63
-0.23766808 -0.21681999 2.0848076 102 82 65
-0.23558326 -0.21681999 2.0848076 103 83 66
-0.23448619 -0.21773718 2.0936267 103 85 67
-0.23239256 -0.21773718 2.0936267 103 84 68
-0.23029894 -0.21773718 2.0936267 103 84 68
-0.22820531 -0.21773718 2.0936267 102 83 67
-0.2261117 -0.21773718 2.0936267 105 87 72
-0.22401807 -0.21773718 2.0936267 119 100 87
-0.22192444 -0.21773718 2.0936267 135 115 99
-0.2189048 -0.21681999 2.0848076 146 128 108
-0.21681999 -0.21681999 2.0848076 147 128 109
-0.21473518 -0.21681999 2.0848076 151 131 111
-0.21265037 -0.21681999 2.0848076 150 128 110
-0.21056557 -0.21681999 2.0848076 151 130 111
-0.20848076 -0.21681999 2.0848076 149 130 111
-0.20639595 -0.21681999 2.0848076 148 128 110
-0.20431115 -0.21681999 2.0848076 153 135 113
-0.20222634 -0.21681999 2.0848076 153 134 112
-0.19946936 -0.2160918 2.0778058 146 127 109
-0.19739154 -0.2160918 2.0778058 146 123 105
-0.19531374 -0.2160918 2.0778058 148 126 106
-0.19323593 -0.2160918 2.0778058 145 126 106
-0.19115813 -0.2160918 2.0778058 148 126 106
-0.18908033 -0.2160918 2.0778058 144 124 103
-0.18700252 -0.2160918 2.0778058 142 123 100
-0.1849247 -0.2160918 2.0778058 143 124 102
-0.18346307 -0.21681999 2.0848076 145 127 107
-0.1800134 -0.21518841 2.0691195 146 126 109
-0.17107825 -0.20688531 1.9892819 150 120 99
-0.16020311 -0.19601321 1.8847424 164 115 92
-0.15409341 -0.19078232 1.8344454 167 113 86
-0.1516967 -0.19007781 1.8276712 175 116 91
-0.14931764 -0.18937847 1.8209468 184 123 94
-0.14749669 -0.18937847 1.8209468 179 115 88
-0.14567575 -0.18937847 1.8209468 172 110 83
-0.14322247 -0.18854603 1.8129426 176 110 83
-0.14089343 -0.18785793 1.8063262 169 108 81
-0.13959658 -0.18854603 1.8129426 191 124 92
-0.13728079 -0.18785793 1.8063262 203 135 95
-0.13547446 -0.18785793 1.8063262 208 141 101
-0.13366814 -0.18785793 1.8063262 211 145 107
-0.13186182 -0.18785793 1.8063262 215 150 114
-0.13005549 -0.18785793 1.8063262 218 155 119
-0.12824915 -0.18785793 1.8063262 221 157 123
-0.12598303 -0.18717478 1.7997576 211 151 121
-0.124183275 -0.18717478 1.7997576 207 142 116
-0.12238351 -0.18717478 1.7997576 199 136 113
-0.12058376 -0.18717478 1.7997576 187 125 106
-0.11835362 -0.18649662 1.7932367 163 105 93
-0.116560385 -0.18649662 1.7932367 133 88 77
-0.11427032 -0.18568927 1.7854738 70 37 29
-0.11297391 -0.18649662 1.7932367 44 29 22
-0.11158497 -0.18717478 1.7997576 66 52 47
-0.10938744 -0.18649662 1.7932367 88 76 72
-0.10759421 -0.18649662 1.7932367 123 112 106
-0.1061857 -0.18717478 1.7997576 139 130 120
-0.10438594 -0.18717478 1.7997576 138 127 119
-0.10258618 -0.18717478 1.7997576 146 130 123
-0.100786425 -0.18717478 1.7997576 152 135 127
-0.09862802 -0.18649662 1.7932367 164 147 137
-0.096834786 -0.18649662 1.7932367 154 133 125
-0.09538715 -0.18717478 1.7997576 114 99 95
-0.09358739 -0.18717478 1.7997576 62 46 42
-0.09178764 -0.18717478 1.7997576 66 39 26
-0.09031631 -0.18785793 1.8063262 77 45 26
-0.08850998 -0.18785793 1.8063262 131 95 76
-0.08740545 -0.18937847 1.8209468 158 105 83
-0.08558451 -0.18937847 1.8209468 171 112 89
-0.08376355 -0.18937847 1.8209468 181 118 91
-0.0819426 -0.18937847 1.8209468 195 127 97
-0.08012166 -0.18937847 1.8209468 208 135 107
-0.078300714 -0.18937847 1.8209468 211 141 114
-0.07676219 -0.19007781 1.8276712 227 158 129
-0.075212255 -0.19078232 1.8344454 222 160 138
-0.07337782 -0.19078232 1.8344454 163 125 111
-0.07180952 -0.19149207 1.8412699 112 86 79
-0.06996825 -0.19149207 1.8412699 94 52 45
-0.06863768 -0.19292754 1.8550725 109 60 53
-0.06678261 -0.19292754 1.8550725 111 69 58
-0.065171815 -0.19365337 1.8620517 150 98 88
-0.06354884 -0.19438471 1.8690836 223 138 121
-0.062434252 -0.1967625 1.891947 217 134 115
-0.060774624 -0.19751753 1.899207 216 131 111
-0.059102207 -0.19827838 1.9065229 216 129 110
-0.057195686 -0.19827838 1.9065229 201 123 105
-0.055502962 -0.19904512 1.9138954 170 114 96
-0.05358907 -0.19904512 1.9138954 197 126 109
-0.051875778 -0.1998178 1.9213251 193 122 107
-0.04995445 -0.1998178 1.9213251 156 104 92
-0.048599113 -0.20217231 1.9439645 196 124 110
-0.047551643 -0.20605713 1.9813185 108 64 54
-0.045938123 -0.20772022 1.9973097 92 45 35
-0.04411886 -0.20856185 2.0054026 87 40 32
-0.042284787 -0.20941037 2.0135612 88 40 34
-0.04040272 -0.21009417 2.020136 86 39 33
-0.038257662 -0.20941037 2.0135612 86 38 34
-0.0362441 -0.20941037 2.0135612 85 38 31
-0.034342315 -0.21009417 2.020136 88 40 34
-0.03232218 -0.21009417 2.020136 90 42 36
-0.030302042 -0.21009417 2.020136 91 43 37
-0.028281907 -0.21009417 2.020136 90 43 36
-0.026261771 -0.21009417 2.020136 90 43 36
-0.024340983 -0.2109552 2.0284154 88 41 32
-0.02231257 -0.2109552 2.0284154 91 44 35
-0.020284155 -0.2109552 2.0284154 96 47 40
-0.018255739 -0.2109552 2.0284154 96 47 41
-0.016227324 -0.2109552 2.0284154 95 47 38
-0.014198908 -0.2109552 2.0284154 94 47 37
-0.012170492 -0.2109552 2.0284154 92 46 40
-0.010142078 -0.2109552 2.0284154 89 43 41
-0.008080545 -0.21009417 2.020136 80 39 38
-0.0060604084 -0.21009417 2.020136 56 23 20
-0.0040402724 -0.21009417 2.020136 74 39 37
-0.0020201362 -0.21009417 2.020136 105 57 54
0.0 -0.21009417 2.020136 115 63 52
0.0020054025 -0.20856185 2.0054026 118 64 51
0.0039946195 -0.20772022 1.9973097 122 69 56
0.005991929 -0.20772022 1.9973097 103 60 46
0.007957128 -0.20688531 1.9892819 104 54 44
0.009906593 -0.20605713 1.9813185 131 71 61
0.011887911 -0.20605713 1.9813185 131 74 59
0.01381393 -0.20523553 1.9734185 133 76 61
0.015787348 -0.20523553 1.9734185 139 78 64
0.017690232 -0.20442045 1.9655812 140 80 66
0.01965581 -0.20442045 1.9655812 143 81 67
0.021535866 -0.20361182 1.957806 140 83 68
0.023419559 -0.2029695 1.9516299 107 59 41
0.025371188 -0.2029695 1.9516299 156 90 78
0.027215503 -0.20217231 1.9439645 164 96 83
0.029159468 -0.20217231 1.9439645 153 86 72
0.030981744 -0.20138133 1.9363589 149 83 68
0.03278982 -0.20059653 1.9288127 151 84 69
0.03458385 -0.1998178 1.9213251 146 84 67
0.036505178 -0.1998178 1.9213251 160 91 74
0.038426504 -0.1998178 1.9213251 176 100 85
0.040191803 -0.19904512 1.9138954 178 107 89
0.042105697 -0.19904512 1.9138954 195 118 99
0.043850027 -0.19827838 1.9065229 207 125 108
0.04575655 -0.19827838 1.9065229 186 114 102
0.047480173 -0.19751753 1.899207 195 124 106
0.049379382 -0.19751753 1.899207 197 124 108
0.051476117 -0.19827838 1.9065229 144 95 89
0.05297452 -0.1967625 1.891947 87 56 51
0.054657526 -0.19601321 1.8847424 67 39 33
0.05632777 -0.19526961 1.8775923 79 47 39
0.05820536 -0.19526961 1.8775923 92 59 56
0.060082953 -0.19526961 1.8775923 107 84 84
0.061679758 -0.19438471 1.8690836 109 93 93
0.06354884 -0.19438471 1.8690836 110 95 95
0.06541793 -0.19438471 1.8690836 111 97 97
0.06728701 -0.19438471 1.8690836 97 84 84
0.069156095 -0.19438471 1.8690836 126 97 91
0.07102518 -0.19438471 1.8690836 180 116 101
0.07262002 -0.19365337 1.8620517 209 132 114
0.074202895 -0.19292754 1.8550725 208 132 113
0.076344125 -0.19365337 1.8620517 190 114 101
0.077913046 -0.19292754 1.8550725 208 128 104
0.07976812 -0.19292754 1.8550725 192 118 95
0.08131841 -0.19220713 1.8481455 170 101 83
0.08285714 -0.19149207 1.8412699 119 77 64
0.084384486 -0.19078232 1.8344454 88 63 50
0.08653968 -0.19149207 1.8412699 120 99 92
0.08838095 -0.19149207 1.8412699 105 88 86
0.08988783 -0.19078232 1.8344454 107 93 95
0.091722265 -0.19078232 1.8344454 203 183 184
0.09355672 -0.19078232 1.8344454 200 189 185
0.09539116 -0.19078232 1.8344454 180 166 163
0.0972256 -0.19078232 1.8344454 109 98 97
0.09906005 -0.19078232 1.8344454 108 96 94
0.10126984 -0.19149207 1.8412699 134 121 115
0.10311112 -0.19149207 1.8412699 121 107 102
0.10495239 -0.19149207 1.8412699 87 73 67
0.107192434 -0.19220713 1.8481455 89 71 62
0.10863492 -0.19149207 1.8412699 91 67 55
0.110888734 -0.19220713 1.8481455 128 92 81
0.11273688 -0.19220713 1.8481455 142 98 84
0.11458502 -0.19220713 1.8481455 167 111 93
0.116433166 -0.19220713 1.8481455 180 124 104
0.11828131 -0.19220713 1.8481455 196 135 113
0.12057971 -0.19292754 1.8550725 209 142 118
0.12243479 -0.19292754 1.8550725 216 147 122
0.124289855 -0.19292754 1.8550725 219 148 124
0.12661952 -0.19365337 1.8620517 224 153 127
0.12896676 -0.19438471 1.8690836 224 154 127
0.13083586 -0.19438471 1.8690836 221 150 124
0.13270494 -0.19438471 1.8690836 219 146 120
0.13570145 -0.19601321 1.8847424 220 146 122
0.13917616 -0.19827838 1.9065229 214 148 127
0.14661756 -0.20605713 1.9813185 221 183 156
0.15583543 -0.2160918 2.0778058 218 189 164
0.16227323 -0.2220581 2.135174 213 186 162
0.16583928 -0.22399071 2.1537569 214 187 164
0.16726516 -0.22302021 2.1444252 214 187 164
0.16867875 -0.2220581 2.135174 209 182 159
0.17155401 -0.22302021 2.1444252 207 181 157
0.17369844 -0.22302021 2.1444252 221 193 169
0.17584287 -0.22302021 2.1444252 214 188 165
0.17721945 -0.2220581 2.135174 217 191 168
0.17935461 -0.2220581 2.135174 222 195 171
0.1814898 -0.2220581 2.135174 221 195 172
0.18442056 -0.22302021 2.1444252 222 195 172
0.18656498 -0.22302021 2.1444252 222 195 173
0.18870941 -0.22302021 2.1444252 221 196 173
0.19003049 -0.2220581 2.135174 216 191 168
0.19216566 -0.2220581 2.135174 218 192 169
0.19514269 -0.22302021 2.1444252 228 202 177
0.19728711 -0.22302021 2.1444252 218 193 170
0.19943154 -0.22302021 2.1444252 208 183 162
0.20070636 -0.2220581 2.135174 207 183 161
0.20284154 -0.2220581 2.135174 214 185 164
0.20497671 -0.2220581 2.135174 215 191 168
0.20711188 -0.2220581 2.135174 221 195 173
0.20924705 -0.2220581 2.135174 223 196 174
0.21138224 -0.2220581 2.135174 210 183 164
0.21351741 -0.2220581 2.135174 211 182 163
0.21565257 -0.2220581 2.135174 219 191 170
0.21778776 -0.2220581 2.135174 218 191 170
0.21992293 -0.2220581 2.135174 220 194 173
0.2220581 -0.2220581 2.135174 223 198 175
0.22419327 -0.2220581 2.135174 219 192 171
0.22632845 -0.2220581 2.135174 211 184 164
0.22846362 -0.2220581 2.135174 216 188 168
0.2305988 -0.2220581 2.135174 219 192 171
0.23273396 -0.2220581 2.135174 215 191 170
0.23486914 -0.2220581 2.135174 213 187 166
0.23700432 -0.2220581 2.135174 208 182 161
0.24017562 -0.22302021 2.1444252 210 185 164
0.24232003 -0.22302021 2.1444252 219 192 170
0.24446446 -0.22302021 2.1444252 215 188 167
0.24660888 -0.22302021 2.1444252 215 189 167
0.24875331 -0.22302021 2.1444252 219 192 170
0.25089774 -0.22302021 2.1444252 220 193 170
0.25304216 -0.22302021 2.1444252 216 191 169
0.2551866 -0.22302021 2.1444252 214 189 169
0.257331 -0.22302021 2.1444252 218 193 172
0.25947544 -0.22302021 2.1444252 210 184 165
0.26161987 -0.22302021 2.1444252 214 188 168
0.2626264 -0.2220581 2.135174 223 196 176
0.26476157 -0.2220581 2.135174 218 191 172
0.26689675 -0.2220581 2.135174 216 192 172
0.2690319 -0.2220581 2.135174 215 189 169
0.2711671 -0.2220581 2.135174 217 190 172
0.2733023 -0.2220581 2.135174 218 191 172
0.27449015 -0.22129437 2.1278305 217 190 172
0.27757263 -0.2220581 2.135174 217 190 172
0.2787458 -0.22129437 2.1278305 217 190 174
0.28087363 -0.22129437 2.1278305 218 191 170
0.28300145 -0.22129437 2.1278305 215 190 169
0.28512928 -0.22129437 2.1278305 217 190 168
0.2872571 -0.22129437 2.1278305 219 191 171
0.2881461 -0.22034703 2.1187215 220 194 179
0.29026484 -0.22034703 2.1187215 221 196 180
0.29238358 -0.22034703 2.1187215 223 196 178
0.2945023 -0.22034703 2.1187215 220 197 176
0.29535666 -0.21940781 2.1096904 221 196 179
0.29746634 -0.21940781 2.1096904 221 195 178
0.29957604 -0.21940781 2.1096904 222 192 174
0.30168572 -0.21940781 2.1096904 224 190 173
-0.30148223 -0.21983081 2.0936267 180 161 140
-0.29938862 -0.21983081 2.0936267 180 160 140
-0.29729497 -0.21983081 2.0936267 175 160 138
-0.29520136 -0.21983081 2.0936267 180 160 140
-0.29310775 -0.21983081 2.0936267 178 156 137
-0.29101413 -0.21983081 2.0936267 171 148 130
-0.2889205 -0.21983081 2.0936267 166 146 126
-0.28682688 -0.21983081 2.0936267 170 147 128
-0.28473324 -0.21983081 2.0936267 167 147 127
-0.28263962 -0.21983081 2.0936267 166 147 129
-0.28054598 -0.21983081 2.0936267 164 146 128
-0.27845237 -0.21983081 2.0936267 158 143 125
-0.27635872 -0.21983081 2.0936267 159 138 115
-0.2742651 -0.21983081 2.0936267 146 126 99
-0.27217147 -0.21983081 2.0936267 120 104 80
-0.27007785 -0.21983081 2.0936267 103 82 63
-0.2679842 -0.21983081 2.0936267 94 72 56
-0.2658906 -0.21983081 2.0936267 95 73 57
-0.26379696 -0.21983081 2.0936267 94 72 56
-0.26170334 -0.21983081 2.0936267 94 72 55
-0.25851613 -0.2189048 2.0848076 93 71 54
-0.25643134 -0.2189048 2.0848076 91 70 51
-0.25434652 -0.2189048 2.0848076 90 68 50
-0.25226173 -0.2189048 2.0848076 90 69 51
-0.2501769 -0.2189048 2.0848076 95 75 57
-0.2480921 -0.2189048 2.0848076 94 75 57
-0.2460073 -0.2189048 2.0848076 95 75 57
-0.2439225 -0.2189048 2.0848076 94 74 57
-0.2418377 -0.2189048 2.0848076 98 76 58
-0.23975289 -0.2189048 2.0848076 93 70 53
-0.23766808 -0.2189048 2.0848076 98 75 58
-0.23558326 -0.2189048 2.0848076 101 78 61
-0.23349845 -0.2189048 2.0848076 100 79 62
-0.23141365 -0.2189048 2.0848076 96 74 58
-0.22932884 -0.2189048 2.0848076 98 76 61
-0.22724403 -0.2189048 2.0848076 99 78 62
-0.22515923 -0.2189048 2.0848076 104 80 66
-0.22307442 -0.2189048 2.0848076 109 92 79
-0.22098961 -0.2189048 2.0848076 143 128 108
-0.2181696 -0.2181696 2.0778058 147 128 108
-0.2160918 -0.2181696 2.0778058 145 126 108
-0.214014 -0.2181696 2.0778058 146 127 108
-0.21193619 -0.2181696 2.0778058 150 130 111
-0.20985839 -0.2181696 2.0778058 150 130 111
-0.20778058 -0.2181696 2.0778058 150 131 111
-0.20570277 -0.2181696 2.0778058 152 131 113
-0.20362496 -0.2181696 2.0778058 152 132 112
-0.20154716 -0.2181696 2.0778058 151 131 111
-0.19863547 -0.21725754 2.0691195 150 130 110
-0.19739154 -0.2181696 2.0778058 142 120 101
-0.19449723 -0.21725754 2.0691195 144 125 104
-0.19162698 -0.21635304 2.0605052 144 124 104
-0.18956646 -0.21635304 2.0605052 146 124 104
-0.18828987 -0.21725754 2.0691195 142 121 101
-0.18700252 -0.2181696 2.0778058 141 121 100
-0.18415162 -0.21725754 2.0691195 145 126 104
-0.18208252 -0.21725754 2.0691195 149 128 108
-0.1779306 -0.21474381 2.0451791 149 127 108
-0.16837132 -0.20556962 1.957806 155 119 99
-0.15959536 -0.1971472 1.8775923 166 114 89
-0.15409341 -0.19261676 1.8344454 167 113 86
-0.1516967 -0.19190547 1.8276712 179 118 91
-0.14986904 -0.19190547 1.8276712 181 120 93
-0.14749669 -0.19119942 1.8209468 178 115 89
-0.14503542 -0.19035898 1.8129426 173 112 85
-0.14269976 -0.18966424 1.8063262 172 111 84
-0.14089343 -0.18966424 1.8063262 178 117 90
-0.13959658 -0.19035898 1.8129426 203 135 105
-0.13728079 -0.18966424 1.8063262 202 134 103
-0.13498183 -0.18897454 1.7997576 210 142 105
-0.13366814 -0.18966424 1.8063262 217 150 111
-0.13186182 -0.18966424 1.8063262 221 153 118
-0.13053188 -0.19035898 1.8129426 225 157 123
-0.12871893 -0.19035898 1.8129426 218 153 121
-0.12644283 -0.18966424 1.8063262 208 149 119
-0.124183275 -0.18897454 1.7997576 202 139 114
-0.122830175 -0.18966424 1.8063262 191 129 110
-0.120146856 -0.18828985 1.7932367 166 109 96
-0.11835362 -0.18828985 1.7932367 144 95 86
-0.116560385 -0.18828985 1.7932367 93 57 49
-0.11427032 -0.18747474 1.7854738 50 30 24
-0.11248485 -0.18747474 1.7854738 83 70 66
-0.11118068 -0.18828985 1.7932367 112 100 97
-0.109785214 -0.18897454 1.7997576 179 164 157
