ply
format ascii 1.0
element vertex 1068
property float32 x
property float32 y
property float32 z
property uchar red
property uchar green
property uchar blue
element face 0
property list uint8 int32 vertex_indices
end_header
0.0 -0.3053702 1.6686896 211 191 169
0.0016754683 -0.3066107 1.6754683 207 185 167
0.0033509366 -0.3066107 1.6754683 177 154 138
0.0050264047 -0.3066107 1.6754683 151 128 113
0.006701873 -0.3066107 1.6754683 137 116 102
0.008377342 -0.3066107 1.6754683 186 157 136
0.0100528095 -0.3066107 1.6754683 207 181 155
0.0116808275 -0.3053702 1.6686896 202 180 155
0.013349517 -0.3053702 1.6686896 205 183 163
0.015018207 -0.3053702 1.6686896 218 194 174
0.016686896 -0.3053702 1.6686896 215 194 172
0.018355586 -0.3053702 1.6686896 212 190 169
0.020024275 -0.3053702 1.6686896 209 188 168
0.021692965 -0.3053702 1.6686896 209 188 167
0.023361655 -0.3053702 1.6686896 207 185 165
0.025030345 -0.3053702 1.6686896 204 182 161
0.026699034 -0.3053702 1.6686896 218 195 169
0.028367724 -0.3053702 1.6686896 216 195 169
0.030036414 -0.3053702 1.6686896 204 185 159
0.031705104 -0.3053702 1.6686896 199 177 153
0.03337379 -0.3053702 1.6686896 206 182 157
0.03504248 -0.3053702 1.6686896 214 190 164
0.036587816 -0.3043441 1.6630825 212 191 164
0.03837986 -0.3053702 1.6686896 206 184 159
0.03991398 -0.3043441 1.6630825 200 177 154
0.04157706 -0.3043441 1.6630825 189 169 149
0.04324014 -0.3043441 1.6630825 197 176 155
0.044722892 -0.30312183 1.6564034 208 185 163
0.046379294 -0.30312183 1.6564034 203 183 161
0.048229393 -0.3043441 1.6630825 205 184 162
0.049892474 -0.3043441 1.6630825 208 188 165
0.05155556 -0.3043441 1.6630825 213 192 168
0.05321864 -0.3043441 1.6630825 200 181 158
0.05488172 -0.3043441 1.6630825 210 187 166
0.056544803 -0.3043441 1.6630825 209 187 167
0.058207884 -0.3043441 1.6630825 215 194 173
0.05987097 -0.3043441 1.6630825 212 190 169
0.06153405 -0.3043441 1.6630825 200 183 162
0.063197136 -0.3043441 1.6630825 214 195 173
0.0650789 -0.3053702 1.6686896 212 193 172
0.06674758 -0.3053702 1.6686896 210 192 170
0.068416275 -0.3053702 1.6686896 213 195 172
0.07008496 -0.3053702 1.6686896 208 189 170
0.07175365 -0.3053702 1.6686896 214 193 173
0.073720604 -0.3066107 1.6754683 208 190 168
0.075091034 -0.3053702 1.6686896 196 178 157
0.07675972 -0.3053702 1.6686896 210 191 169
0.07874701 -0.3066107 1.6754683 206 188 166
0.08069566 -0.3076522 1.6811595 195 177 157
0.08271396 -0.30891132 1.68804 181 163 145
0.084402 -0.30891132 1.68804 173 157 138
0.08609004 -0.30891132 1.68804 154 138 122
0.087778084 -0.30891132 1.68804 152 138 119
0.0897723 -0.3099685 1.693817 132 118 103
0.0918433 -0.31124672 1.7008018 122 107 95
0.09315994 -0.3099685 1.693817 124 108 97
0.09485375 -0.3099685 1.693817 121 107 96
0.09654757 -0.3099685 1.693817 115 101 94
0.096458785 -0.3043441 1.6630825 105 93 91
0.096309595 -0.29872295 1.632366 103 90 87
0.0961658 -0.2933057 1.6027634 105 92 91
0.09560143 -0.28680432 1.5672367 104 93 93
0.09470946 -0.2795457 1.527572 110 97 96
0.09420181 -0.27363384 1.4952669 117 103 101
0.094667464 -0.2706898 1.4791791 131 115 114
0.09574603 -0.26956192 1.4730159 137 124 124
0.096873075 -0.26860264 1.4677739 139 125 126
0.098340854 -0.26860264 1.4677739 139 124 126
0.099808626 -0.26860264 1.4677739 139 125 126
0.1012764 -0.26860264 1.4677739 138 124 125
0.10274417 -0.26860264 1.4677739 137 123 125
0.10421194 -0.26860264 1.4677739 140 124 126
0.10567972 -0.26860264 1.4677739 140 123 125
0.1071475 -0.26860264 1.4677739 141 125 128
0.10861527 -0.26860264 1.4677739 141 124 127
0.11008304 -0.26860264 1.4677739 141 125 128
0.11115524 -0.26765013 1.462569 143 127 130
0.11261781 -0.26765013 1.462569 144 127 131
0.114080384 -0.26765013 1.462569 142 126 129
0.115542956 -0.26765013 1.462569 142 129 132
0.11742191 -0.26860264 1.4677739 143 128 131
0.11888969 -0.26860264 1.4677739 138 125 128
0.12035746 -0.26860264 1.4677739 135 122 125
0.12182523 -0.26860264 1.4677739 138 122 127
0.123293005 -0.26860264 1.4677739 142 126 130
0.12476078 -0.26860264 1.4677739 142 126 130
0.12622856 -0.26860264 1.4677739 140 124 127
0.12769632 -0.26860264 1.4677739 138 124 124
0.1296254 -0.26956192 1.4730159 137 122 121
0.13109842 -0.26956192 1.4730159 138 121 122
0.13257143 -0.26956192 1.4730159 137 120 120
0.13404445 -0.26956192 1.4730159 138 123 122
0.13608448 -0.2706898 1.4791791 138 124 125
0.13756366 -0.2706898 1.4791791 137 122 123
0.13904284 -0.2706898 1.4791791 133 118 119
0.14102781 -0.27166405 1.4845031 136 121 121
0.14251229 -0.27166405 1.4845031 134 119 120
0.1439968 -0.27166405 1.4845031 132 118 119
0.1454813 -0.27166405 1.4845031 133 117 117
0.1469658 -0.27166405 1.4845031 130 114 114
0.14845031 -0.27166405 1.4845031 126 110 108
0.14993481 -0.27166405 1.4845031 122 105 103
0.15141933 -0.27166405 1.4845031 124 108 105
0.15290383 -0.27166405 1.4845031 123 105 102
0.15494601 -0.27264538 1.4898655 105 85 83
0.15700302 -0.27363384 1.4952669 103 83 78
0.16132513 -0.27851415 1.5219352 114 91 87
0.16897851 -0.28900063 1.5792385 109 74 67
0.17560054 -0.29754534 1.6259309 110 57 49
0.17792788 -0.29872295 1.632366 122 66 52
0.18027373 -0.29990995 1.6388521 134 69 54
0.18251695 -0.30090633 1.6442969 143 79 62
0.18416126 -0.30090633 1.6442969 148 94 80
0.18654926 -0.30211076 1.6508784 192 150 131
0.18820013 -0.30211076 1.6508784 213 187 167
0.19048639 -0.30312183 1.6564034 213 187 167
0.19150189 -0.30211076 1.6508784 210 184 163
0.19315277 -0.30211076 1.6508784 205 177 158
0.19480366 -0.30211076 1.6508784 205 177 158
0.19711201 -0.30312183 1.6564034 195 168 150
0.19876842 -0.30312183 1.6564034 204 178 158
0.20042482 -0.30312183 1.6564034 203 175 157
0.20289606 -0.3043441 1.6630825 204 179 159
0.20373763 -0.30312183 1.6564034 218 191 170
0.20622224 -0.3043441 1.6630825 210 187 166
0.20788531 -0.3043441 1.6630825 207 184 164
0.20954838 -0.3043441 1.6630825 209 186 165
0.21121147 -0.3043441 1.6630825 209 189 168
0.21287456 -0.3043441 1.6630825 214 193 172
0.21453765 -0.3043441 1.6630825 219 195 174
0.21620072 -0.3043441 1.6630825 221 197 176
0.21859834 -0.3053702 1.6686896 220 194 174
0.22026703 -0.3053702 1.6686896 211 188 169
0.22193572 -0.3053702 1.6686896 208 185 164
0.2236044 -0.3053702 1.6686896 215 189 168
0.2252731 -0.3053702 1.6686896 212 188 167
0.2269418 -0.3053702 1.6686896 213 191 170
0.22861047 -0.3053702 1.6686896 217 193 173
0.23027916 -0.3053702 1.6686896 209 189 167
0.23194785 -0.3053702 1.6686896 208 186 166
0.23361655 -0.3053702 1.6686896 216 194 172
0.23528524 -0.3053702 1.6686896 212 188 169
0.23695391 -0.3053702 1.6686896 205 184 163
0.23862262 -0.3053702 1.6686896 202 180 161
-0.23677875 -0.3025506 1.6442969 173 154 137
-0.23513447 -0.3025506 1.6442969 173 155 137
-0.23349015 -0.3025506 1.6442969 174 153 136
-0.23184586 -0.3025506 1.6442969 155 137 121
-0.23020157 -0.3025506 1.6442969 157 138 123
-0.22855726 -0.3025506 1.6442969 162 143 127
-0.22691296 -0.3025506 1.6442969 173 153 134
-0.22526868 -0.3025506 1.6442969 172 152 132
-0.22362438 -0.3025506 1.6442969 169 150 130
-0.22286859 -0.30376163 1.6508784 166 147 128
-0.2212177 -0.30376163 1.6508784 168 148 129
-0.21956684 -0.30376163 1.6508784 166 146 127
-0.21791595 -0.30376163 1.6508784 173 151 132
-0.21626508 -0.30376163 1.6508784 172 150 131
-0.2146142 -0.30376163 1.6508784 174 153 133
-0.21296331 -0.30376163 1.6508784 174 154 136
-0.21131244 -0.30376163 1.6508784 173 152 133
-0.20966156 -0.30376163 1.6508784 179 158 137
-0.20801069 -0.30376163 1.6508784 171 152 134
-0.2063598 -0.30376163 1.6508784 177 156 135
-0.20470892 -0.30376163 1.6508784 180 161 134
-0.20305805 -0.30376163 1.6508784 181 162 139
-0.20140716 -0.30376163 1.6508784 186 165 147
-0.19975628 -0.30376163 1.6508784 191 169 152
-0.19810541 -0.30376163 1.6508784 191 169 149
-0.19645452 -0.30376163 1.6508784 194 171 149
-0.19480366 -0.30376163 1.6508784 188 165 142
-0.19315277 -0.30376163 1.6508784 183 160 136
-0.19150189 -0.30376163 1.6508784 185 162 142
-0.18985102 -0.30376163 1.6508784 182 158 136
-0.18820013 -0.30376163 1.6508784 177 154 133
-0.18654926 -0.30376163 1.6508784 175 152 131
-0.18489838 -0.30376163 1.6508784 166 143 122
-0.1832475 -0.30376163 1.6508784 177 154 136
-0.18159664 -0.30376163 1.6508784 186 162 137
-0.18054797 -0.30477822 1.6564034 188 164 141
-0.17889157 -0.30477822 1.6564034 186 162 136
-0.17723517 -0.30477822 1.6564034 179 158 133
-0.17557877 -0.30477822 1.6564034 179 157 136
-0.17392236 -0.30477822 1.6564034 184 163 142
-0.17226596 -0.30477822 1.6564034 188 166 144
-0.17060956 -0.30477822 1.6564034 188 165 144
-0.16895315 -0.30477822 1.6564034 190 169 147
-0.16729675 -0.30477822 1.6564034 190 171 147
-0.16564034 -0.30477822 1.6564034 191 171 148
-0.16398393 -0.30477822 1.6564034 196 176 153
-0.16232753 -0.30477822 1.6564034 197 176 154
-0.161319 -0.30600718 1.6630825 191 171 151
-0.15901473 -0.30477822 1.6564034 188 168 145
-0.15683345 -0.30376163 1.6508784 188 168 145
-0.15518257 -0.30376163 1.6508784 188 169 146
-0.15353169 -0.30376163 1.6508784 187 167 144
-0.15188082 -0.30376163 1.6508784 184 164 143
-0.15022993 -0.30376163 1.6508784 183 164 142
-0.14857906 -0.30376163 1.6508784 185 166 145
-0.14692818 -0.30376163 1.6508784 177 159 137
-0.14469811 -0.3025506 1.6442969 168 150 128
-0.14362642 -0.30376163 1.6508784 167 150 126
-0.14140953 -0.3025506 1.6442969 162 142 120
-0.14032467 -0.30376163 1.6508784 156 135 112
-0.13867378 -0.30376163 1.6508784 150 128 105
-0.13647664 -0.3025506 1.6442969 145 119 95
-0.13537203 -0.30376163 1.6508784 148 116 92
-0.13372114 -0.30376163 1.6508784 153 114 90
-0.13110816 -0.3015488 1.6388521 153 106 88
-0.12802795 -0.29819167 1.6206069 144 98 85
-0.12405142 -0.29263413 1.5904028 120 87 89
-0.12113754 -0.28947154 1.5732148 102 75 73
-0.1186591 -0.28727993 1.561304 88 68 63
-0.11629073 -0.28529993 1.5505431 80 68 61
-0.11431045 -0.2842314 1.5447358 78 66 59
-0.11234495 -0.28317085 1.5389719 78 65 59
-0.11080597 -0.28317085 1.5389719 77 64 57
-0.109267004 -0.28317085 1.5389719 79 66 58
-0.107728034 -0.28317085 1.5389719 85 72 67
-0.106189065 -0.28317085 1.5389719 85 73 70
-0.104261056 -0.28211817 1.5332508 80 68 66
-0.10272781 -0.28211817 1.5332508 80 68 66
-0.10081976 -0.28107324 1.527572 82 68 66
-0.09929218 -0.28107324 1.527572 82 70 66
-0.097403854 -0.28003606 1.5219352 82 68 63
-0.09588192 -0.28003606 1.5219352 79 66 61
-0.09435999 -0.28003606 1.5219352 82 69 63
-0.092553444 -0.2791776 1.5172696 84 71 66
-0.09103618 -0.2791776 1.5172696 84 71 67
-0.089518905 -0.2791776 1.5172696 85 71 68
-0.087679096 -0.27815434 1.5117085 88 74 71
-0.08616738 -0.27815434 1.5117085 88 76 71
-0.084346525 -0.2771386 1.5061879 86 74 70
-0.08253891 -0.2761302 1.5007075 85 72 66
-0.081334144 -0.2771386 1.5061879 87 74 69
-0.079537496 -0.2761302 1.5007075 88 75 70
-0.07803679 -0.2761302 1.5007075 90 77 72
-0.07653608 -0.2761302 1.5007075 88 74 70
-0.07503538 -0.2761302 1.5007075 87 73 70
-0.07326808 -0.2751291 1.4952669 88 75 71
-0.07203396 -0.2761302 1.5007075 89 76 72
-0.07053325 -0.2761302 1.5007075 91 77 74
-0.06903255 -0.2761302 1.5007075 92 80 75
-0.06728701 -0.2751291 1.4952669 93 81 77
-0.06579175 -0.2751291 1.4952669 93 82 78
-0.06429648 -0.2751291 1.4952669 93 82 79
-0.06257435 -0.27413526 1.4898655 92 80 79
-0.061084487 -0.27413526 1.4898655 93 82 81
-0.05959462 -0.27413526 1.4898655 96 83 83
-0.057895623 -0.2731486 1.4845031 98 86 83
-0.05661489 -0.27413526 1.4898655 102 90 87
-0.054926615 -0.2731486 1.4845031 115 103 101
-0.053442113 -0.2731486 1.4845031 127 115 108
-0.051771272 -0.27216896 1.4791791 127 114 110
-0.05029209 -0.27216896 1.4791791 131 117 115
-0.04881291 -0.27216896 1.4791791 140 124 124
-0.046802208 -0.2691127 1.462569 149 132 132
-0.045339637 -0.2691127 1.462569 152 136 136
-0.043877073 -0.2691127 1.462569 154 139 139
-0.0424145 -0.2691127 1.462569 155 139 139
-0.04095193 -0.2691127 1.462569 155 141 140
-0.039629895 -0.2700704 1.4677739 155 139 140
-0.03816212 -0.2700704 1.4677739 156 140 141
-0.036694348 -0.2700704 1.4677739 159 139 141
-0.035226572 -0.2700704 1.4677739 155 136 138
-0.0337588 -0.2700704 1.4677739 152 134 135
-0.03229103 -0.2700704 1.4677739 151 134 135
-0.030933334 -0.27103493 1.4730159 151 134 135
-0.029460318 -0.27103493 1.4730159 152 133 135
-0.028104404 -0.27216896 1.4791791 150 132 133
-0.026625225 -0.27216896 1.4791791 148 131 133
-0.025146045 -0.27216896 1.4791791 150 132 134
-0.02383785 -0.27413526 1.4898655 152 133 135
-0.022429004 -0.2751291 1.4952669 152 134 136
-0.020933736 -0.2751291 1.4952669 152 134 137
-0.01943847 -0.2751291 1.4952669 153 135 137
-0.017943203 -0.2751291 1.4952669 153 135 138
-0.016447937 -0.2751291 1.4952669 153 136 138
-0.014952669 -0.2751291 1.4952669 154 135 139
-0.013408789 -0.27413526 1.4898655 151 133 140
-0.011962135 -0.2751291 1.4952669 151 130 136
-0.010504953 -0.2761302 1.5007075 141 123 125
-0.009004245 -0.2761302 1.5007075 141 125 123
-0.0076378603 -0.28107324 1.527572 161 139 138
-0.006361611 -0.29263413 1.5904028 182 160 147
-0.004932891 -0.3025506 1.6442969 207 181 163
-0.003326165 -0.30600718 1.6630825 208 184 162
-0.0016630825 -0.30600718 1.6630825 208 188 167
0.0 -0.30828616 1.6754683 215 194 172
0.0016754683 -0.30828616 1.6754683 215 197 177
0.0033373793 -0.30703887 1.6686896 210 188 168
0.005006069 -0.30703887 1.6686896 196 172 150
0.0066747586 -0.30703887 1.6686896 195 169 146
0.008343448 -0.30703887 1.6686896 189 165 143
0.010012138 -0.30703887 1.6686896 182 160 137
0.0116808275 -0.30703887 1.6686896 178 158 137
0.01330466 -0.30600718 1.6630825 193 172 154
0.014967742 -0.30600718 1.6630825 206 183 164
0.016630825 -0.30600718 1.6630825 217 195 173
0.018293908 -0.30600718 1.6630825 202 182 162
0.01995699 -0.30600718 1.6630825 217 195 174
0.02162007 -0.30600718 1.6630825 212 191 169
0.023283156 -0.30600718 1.6630825 201 179 159
0.024946237 -0.30600718 1.6630825 188 169 150
0.02660932 -0.30600718 1.6630825 188 167 146
0.028272402 -0.30600718 1.6630825 186 163 144
0.029935485 -0.30600718 1.6630825 200 176 154
0.031471666 -0.30477822 1.6564034 202 177 156
0.03326165 -0.30600718 1.6630825 197 173 151
0.03492473 -0.30600718 1.6630825 199 177 154
0.036587816 -0.30600718 1.6630825 196 176 153
0.038250897 -0.30600718 1.6630825 194 173 151
0.03991398 -0.30600718 1.6630825 204 181 158
0.04157706 -0.30600718 1.6630825 213 192 169
0.04324014 -0.30600718 1.6630825 213 192 168
0.044722892 -0.30477822 1.6564034 212 192 168
0.046379294 -0.30477822 1.6564034 210 191 167
0.048035696 -0.30477822 1.6564034 212 194 170
0.049892474 -0.30600718 1.6630825 213 193 169
0.05155556 -0.30600718 1.6630825 209 189 165
0.05321864 -0.30600718 1.6630825 214 193 169
0.05488172 -0.30600718 1.6630825 211 187 166
0.056317713 -0.30477822 1.6564034 210 187 166
0.058207884 -0.30600718 1.6630825 212 190 169
0.05987097 -0.30600718 1.6630825 212 192 170
0.06153405 -0.30600718 1.6630825 210 190 169
0.063197136 -0.30600718 1.6630825 215 195 174
0.06486022 -0.30600718 1.6630825 217 198 175
0.0665233 -0.30600718 1.6630825 218 198 175
0.06818638 -0.30600718 1.6630825 209 189 168
0.06984946 -0.30600718 1.6630825 206 184 166
0.07175365 -0.30703887 1.6686896 205 187 166
0.07342234 -0.30703887 1.6686896 207 188 168
0.07483871 -0.30600718 1.6630825 196 179 157
0.076501794 -0.30600718 1.6630825 201 183 162
0.07842841 -0.30703887 1.6686896 200 179 160
0.08069566 -0.30933335 1.6811595 197 176 156
0.082376815 -0.30933335 1.6811595 183 165 147
0.08405798 -0.30933335 1.6811595 170 154 135
0.085739136 -0.30933335 1.6811595 161 144 127
0.087778084 -0.31059936 1.68804 152 136 119
0.089101456 -0.30933335 1.6811595 139 124 109
0.09146612 -0.31166232 1.693817 122 107 96
0.09315994 -0.31166232 1.693817 119 104 95
0.09453024 -0.31059936 1.68804 121 106 98
0.09621829 -0.31059936 1.68804 112 98 92
0.09607139 -0.30477822 1.6564034 105 92 89
0.09524158 -0.29702458 1.614264 106 94 91
0.09439288 -0.28947154 1.5732148 109 95 94
0.09283805 -0.28003606 1.5219352 113 100 100
0.09203919 -0.2731486 1.4845031 124 109 107
0.092800006 -0.27103493 1.4730159 130 117 115
0.093604416 -0.2691127 1.462569 136 122 121
0.0954053 -0.2700704 1.4677739 138 123 124
0.096873075 -0.2700704 1.4677739 137 123 124
0.098340854 -0.2700704 1.4677739 139 124 125
0.099808626 -0.2700704 1.4677739 137 123 124
0.1012764 -0.2700704 1.4677739 137 123 124
0.10274417 -0.2700704 1.4677739 138 123 125
0.10421194 -0.2700704 1.4677739 136 121 123
0.10567972 -0.2700704 1.4677739 140 123 125
0.1071475 -0.2700704 1.4677739 141 125 128
0.10861527 -0.2700704 1.4677739 140 125 128
0.11008304 -0.2700704 1.4677739 141 124 127
0.11115524 -0.2691127 1.462569 143 128 131
0.11261781 -0.2691127 1.462569 141 127 130
0.114080384 -0.2691127 1.462569 139 123 126
0.115542956 -0.2691127 1.462569 137 123 125
0.11742191 -0.2700704 1.4677739 140 125 128
0.11888969 -0.2700704 1.4677739 140 125 128
0.12035746 -0.2700704 1.4677739 137 123 125
0.12182523 -0.2700704 1.4677739 139 125 128
0.123293005 -0.2700704 1.4677739 139 124 127
0.12476078 -0.2700704 1.4677739 137 120 124
0.12622856 -0.2700704 1.4677739 134 118 121
0.12815239 -0.27103493 1.4730159 131 118 118
0.1296254 -0.27103493 1.4730159 134 119 118
0.13109842 -0.27103493 1.4730159 132 117 117
0.13257143 -0.27103493 1.4730159 132 117 118
0.1346053 -0.27216896 1.4791791 132 116 114
0.13608448 -0.27216896 1.4791791 130 114 114
0.13756366 -0.27216896 1.4791791 126 111 112
0.13904284 -0.27216896 1.4791791 127 111 112
0.14102781 -0.2731486 1.4845031 127 112 113
0.14251229 -0.2731486 1.4845031 129 114 115
0.1439968 -0.2731486 1.4845031 129 114 115
0.1454813 -0.2731486 1.4845031 125 110 110
0.1469658 -0.2731486 1.4845031 121 106 107
0.14845031 -0.2731486 1.4845031 122 106 105
0.14993481 -0.2731486 1.4845031 115 99 97
0.15141933 -0.2731486 1.4845031 120 104 101
0.15345615 -0.27413526 1.4898655 121 103 100
0.15607359 -0.2761302 1.5007075 101 82 79
0.15814973 -0.2771386 1.5061879 100 80 75
0.16252458 -0.28211817 1.5332508 115 91 87
0.16962802 -0.29169682 1.5853087 110 74 68
0.17502554 -0.29819167 1.6206069 111 57 50
0.17792788 -0.30035535 1.632366 122 64 52
0.18027373 -0.3015488 1.6388521 133 69 55
0.18251695 -0.3025506 1.6442969 140 76 60
0.18489838 -0.30376163 1.6508784 147 92 80
0.18654926 -0.30376163 1.6508784 198 153 138
0.18820013 -0.30376163 1.6508784 215 188 171
0.18985102 -0.30376163 1.6508784 215 189 169
0.19073844 -0.3025506 1.6442969 216 190 169
0.19315277 -0.30376163 1.6508784 200 175 157
0.19480366 -0.30376163 1.6508784 195 169 152
0.19711201 -0.30477822 1.6564034 206 179 160
0.19876842 -0.30477822 1.6564034 209 181 161
0.20042482 -0.30477822 1.6564034 211 182 164
0.20208122 -0.30477822 1.6564034 198 175 156
0.20373763 -0.30477822 1.6564034 202 179 159
0.20539403 -0.30477822 1.6564034 212 188 167
0.20705043 -0.30477822 1.6564034 204 183 162
0.20870683 -0.30477822 1.6564034 210 189 167
0.21036324 -0.30477822 1.6564034 217 195 173
0.21201964 -0.30477822 1.6564034 214 193 172
0.21367604 -0.30477822 1.6564034 218 196 175
0.21620072 -0.30600718 1.6630825 216 192 171
0.2178638 -0.30600718 1.6630825 217 192 171
0.21952689 -0.30600718 1.6630825 211 189 168
0.22118998 -0.30600718 1.6630825 217 193 171
0.22285306 -0.30600718 1.6630825 212 191 169
0.22451612 -0.30600718 1.6630825 208 183 163
0.22617921 -0.30600718 1.6630825 212 189 168
0.2278423 -0.30600718 1.6630825 220 196 174
0.22950539 -0.30600718 1.6630825 215 191 170
0.23116848 -0.30600718 1.6630825 208 187 166
0.23283154 -0.30600718 1.6630825 214 190 169
0.23449463 -0.30600718 1.6630825 217 194 173
0.23615772 -0.30600718 1.6630825 210 189 168
0.2378208 -0.30600718 1.6630825 209 186 165
-0.23599471 -0.30318764 1.6388521 176 155 139
-0.23435585 -0.30318764 1.6388521 172 153 136
-0.23271699 -0.30318764 1.6388521 166 146 130
-0.23107816 -0.30318764 1.6388521 172 151 134
-0.2294393 -0.30318764 1.6388521 168 148 132
-0.22780044 -0.30318764 1.6388521 171 150 133
-0.22616158 -0.30318764 1.6388521 172 153 134
-0.22452274 -0.30318764 1.6388521 175 153 134
-0.22288388 -0.30318764 1.6388521 171 151 131
-0.22124504 -0.30318764 1.6388521 162 142 124
-0.22033578 -0.30419493 1.6442969 168 148 129
-0.21869148 -0.30419493 1.6442969 173 152 132
-0.2170472 -0.30419493 1.6442969 173 151 132
-0.21540289 -0.30419493 1.6442969 176 152 133
-0.21375859 -0.30419493 1.6442969 176 154 133
-0.2121143 -0.30419493 1.6442969 182 159 138
-0.21047 -0.30419493 1.6442969 180 160 139
-0.20882569 -0.30419493 1.6442969 177 155 135
-0.20718141 -0.30419493 1.6442969 178 156 135
-0.20553711 -0.30419493 1.6442969 182 159 143
-0.20389281 -0.30419493 1.6442969 186 165 144
-0.20157881 -0.30318764 1.6388521 185 165 145
-0.19993995 -0.30318764 1.6388521 185 164 145
-0.19895993 -0.30419493 1.6442969 184 164 146
-0.19731563 -0.30419493 1.6442969 185 162 143
-0.19567132 -0.30419493 1.6442969 188 167 145
-0.19402704 -0.30419493 1.6442969 185 163 141
-0.19238274 -0.30419493 1.6442969 182 159 136
-0.19073844 -0.30419493 1.6442969 183 162 143
-0.18909414 -0.30419493 1.6442969 180 156 135
-0.18744984 -0.30419493 1.6442969 180 158 137
-0.18580554 -0.30419493 1.6442969 182 158 138
-0.18416126 -0.30419493 1.6442969 183 158 136
-0.18251695 -0.30419493 1.6442969 177 155 130
-0.18087265 -0.30419493 1.6442969 180 154 133
-0.17994575 -0.3054125 1.6508784 160 139 120
-0.17758407 -0.30419493 1.6442969 167 145 124
-0.17593977 -0.30419493 1.6442969 178 154 133
-0.17499311 -0.3054125 1.6508784 171 150 131
-0.17334224 -0.3054125 1.6508784 182 162 140
-0.17169136 -0.3054125 1.6508784 184 164 142
-0.17004049 -0.3054125 1.6508784 187 166 145
-0.1683896 -0.3054125 1.6508784 189 168 146
-0.16673872 -0.3054125 1.6508784 193 172 150
-0.16508785 -0.3054125 1.6508784 196 175 152
-0.16343696 -0.3054125 1.6508784 195 173 151
-0.1617861 -0.3054125 1.6508784 198 176 154
-0.1594968 -0.30419493 1.6442969 196 175 153
-0.15848432 -0.3054125 1.6508784 193 172 149
-0.1562082 -0.30419493 1.6442969 190 169 146
-0.1545639 -0.30419493 1.6442969 185 167 144
-0.15291962 -0.30419493 1.6442969 186 166 144
-0.1512753 -0.30419493 1.6442969 183 163 142
-0.14963101 -0.30419493 1.6442969 183 163 142
-0.14749669 -0.30318764 1.6388521 181 163 141
-0.14634243 -0.30419493 1.6442969 179 160 137
-0.144219 -0.30318764 1.6388521 170 151 128
-0.14305383 -0.30419493 1.6442969 161 143 120
-0.14094128 -0.30318764 1.6388521 155 136 114
-0.13976523 -0.30419493 1.6442969 150 131 106
-0.13867378 -0.3054125 1.6508784 140 121 98
-0.1370229 -0.3054125 1.6508784 136 115 93
-0.13537203 -0.3054125 1.6508784 135 110 89
-0.13318805 -0.30419493 1.6442969 136 109 88
-0.13058928 -0.3019877 1.632366 132 103 86
-0.12752685 -0.29863885 1.614264 124 95 82
-0.123654075 -0.2932821 1.5853087 104 78 77
-0.120677225 -0.28993878 1.5672367 94 72 70
-0.118285954 -0.28793293 1.5563942 107 92 85
-0.11629073 -0.28685045 1.5505431 90 78 69
-0.11431045 -0.2857761 1.5447358 77 65 57
-0.11276571 -0.2857761 1.5447358 79 66 59
-0.11080597 -0.2847098 1.5389719 81 68 62
-0.10967624 -0.2857761 1.5447358 79 65 59
-0.107728034 -0.2847098 1.5389719 79 67 62
-0.106189065 -0.2847098 1.5389719 82 70 68
-0.104261056 -0.2836514 1.5332508 82 70 66
-0.10272781 -0.2836514 1.5332508 78 64 63
-0.10081976 -0.28260082 1.527572 84 70 68
-0.09929218 -0.28260082 1.527572 84 71 67
-0.09776461 -0.28260082 1.527572 80 67 63
-0.09588192 -0.281558 1.5219352 79 66 61
-0.09407072 -0.28069487 1.5172696 76 64 59
-0.092553444 -0.28069487 1.5172696 78 66 60
-0.09103618 -0.28069487 1.5172696 83 70 65
-0.089518905 -0.28069487 1.5172696 82 69 65
-0.087679096 -0.27966607 1.5117085 88 75 71
-0.08616738 -0.27966607 1.5117085 91 80 76
-0.084346525 -0.27864477 1.5061879 89 77 73
-0.08284033 -0.27864477 1.5061879 84 71 66
-0.081334144 -0.27864477 1.5061879 85 72 66
-0.079537496 -0.2776309 1.5007075 86 74 69
-0.07803679 -0.2776309 1.5007075 86 72 68
-0.07653608 -0.2776309 1.5007075 85 72 67
-0.07503538 -0.2776309 1.5007075 84 71 66
-0.07353467 -0.2776309 1.5007075 87 73 68
-0.071772814 -0.27662438 1.4952669 89 75 70
-0.07027754 -0.27662438 1.4952669 89 75 71
-0.06878228 -0.27662438 1.4952669 90 77 72
-0.06728701 -0.27662438 1.4952669 92 79 76
-0.06579175 -0.27662438 1.4952669 92 79 76
-0.06429648 -0.27662438 1.4952669 92 79 76
-0.06257435 -0.2756251 1.4898655 92 80 76
-0.060864627 -0.27463308 1.4845031 93 81 79
-0.059380125 -0.27463308 1.4845031 93 82 81
-0.057895623 -0.27463308 1.4845031 98 86 84
-0.05641112 -0.27463308 1.4845031 108 95 95
-0.05472963 -0.27364814 1.4791791 121 107 106
-0.05325045 -0.27364814 1.4791791 128 119 116
-0.051771272 -0.27364814 1.4791791 133 122 116
-0.050082542 -0.27250794 1.4730159 133 118 115
-0.048609525 -0.27250794 1.4730159 137 120 119
-0.046968766 -0.27153817 1.4677739 146 128 127
-0.04550099 -0.27153817 1.4677739 144 130 129
-0.043877073 -0.27057526 1.462569 149 133 133
-0.0424145 -0.27057526 1.462569 151 134 135
-0.04095193 -0.27057526 1.462569 152 136 138
-0.039489366 -0.27057526 1.462569 154 136 138
-0.038026795 -0.27057526 1.462569 150 133 134
-0.036564223 -0.27057526 1.462569 156 137 140
-0.035226572 -0.27153817 1.4677739 151 133 136
-0.0337588 -0.27153817 1.4677739 148 131 134
-0.03229103 -0.27153817 1.4677739 149 132 134
-0.030823251 -0.27153817 1.4677739 149 132 133
-0.029460318 -0.27250794 1.4730159 148 131 132
-0.027887706 -0.27153817 1.4677739 147 130 131
-0.026514286 -0.27250794 1.4730159 147 130 131
-0.025041271 -0.27250794 1.4730159 147 130 133
-0.02375205 -0.27463308 1.4845031 149 132 134
-0.022267548 -0.27463308 1.4845031 149 132 135
-0.020858118 -0.2756251 1.4898655 149 132 135
-0.01943847 -0.27662438 1.4952669 151 133 134
-0.017943203 -0.27662438 1.4952669 152 134 137
-0.016447937 -0.27662438 1.4952669 154 136 139
-0.014952669 -0.27662438 1.4952669 157 137 142
-0.013408789 -0.2756251 1.4898655 156 137 145
-0.011918925 -0.2756251 1.4898655 157 137 144
-0.010466868 -0.27662438 1.4952669 153 134 136
-0.008971602 -0.27662438 1.4952669 148 130 130
-0.0075035375 -0.2776309 1.5007075 152 131 133
-0.0061558876 -0.2847098 1.5389719 163 142 136
-0.0048239115 -0.29747456 1.6079706 194 170 153
-0.0032885938 -0.30419493 1.6442969 208 184 162
-0.0016508785 -0.3054125 1.6508784 205 185 164
0.0 -0.3087076 1.6686896 211 191 171
0.0016686897 -0.3087076 1.6686896 212 195 176
0.003326165 -0.30767027 1.6630825 209 192 172
0.0049892473 -0.30767027 1.6630825 205 185 163
0.00665233 -0.30767027 1.6630825 202 184 159
0.008315412 -0.30767027 1.6630825 211 194 168
0.009978495 -0.30767027 1.6630825 213 192 165
0.011641578 -0.30767027 1.6630825 216 194 168
0.01330466 -0.30767027 1.6630825 214 190 170
0.014967742 -0.30767027 1.6630825 212 189 169
0.016630825 -0.30767027 1.6630825 218 196 174
0.018293908 -0.30767027 1.6630825 205 185 165
0.01995699 -0.30767027 1.6630825 206 186 165
0.02162007 -0.30767027 1.6630825 216 193 172
0.023283156 -0.30767027 1.6630825 212 189 169
0.024946237 -0.30767027 1.6630825 218 194 172
0.02660932 -0.30767027 1.6630825 210 189 166
0.028158857 -0.30643463 1.6564034 193 175 152
0.029815262 -0.30643463 1.6564034 177 157 138
0.031471666 -0.30643463 1.6564034 183 161 141
0.033128068 -0.30643463 1.6564034 199 176 154
0.034784473 -0.30643463 1.6564034 198 176 154
0.036440875 -0.30643463 1.6564034 193 168 148
0.038097277 -0.30643463 1.6564034 194 170 150
0.039753683 -0.30643463 1.6564034 184 161 142
0.041410085 -0.30643463 1.6564034 187 167 147
0.04292284 -0.3054125 1.6508784 206 183 161
0.04457372 -0.3054125 1.6508784 206 186 162
0.046224594 -0.3054125 1.6508784 208 188 165
0.04787547 -0.3054125 1.6508784 208 190 167
0.049692106 -0.30643463 1.6564034 219 197 173
0.05117723 -0.3054125 1.6508784 212 193 169
0.05282811 -0.3054125 1.6508784 214 193 169
0.05466131 -0.30643463 1.6564034 204 182 161
0.05612987 -0.3054125 1.6508784 209 186 167
0.057780746 -0.3054125 1.6508784 207 185 165
0.059630524 -0.30643463 1.6564034 212 189 169
0.061286926 -0.30643463 1.6564034 216 195 172
0.06294333 -0.30643463 1.6564034 210 189 168
0.06459973 -0.30643463 1.6564034 207 188 166
0.0665233 -0.30767027 1.6630825 218 198 175
0.06818638 -0.30767027 1.6630825 206 186 165
0.06984946 -0.30767027 1.6630825 208 188 170
0.07175365 -0.3087076 1.6686896 215 195 174
0.07317563 -0.30767027 1.6630825 213 194 170
0.07483871 -0.30767027 1.6630825 207 189 165
0.076501794 -0.30767027 1.6630825 182 165 145
0.07842841 -0.3087076 1.6686896 182 164 145
0.080422476 -0.30996165 1.6754683 183 164 146
0.08209795 -0.30996165 1.6754683 170 154 136
0.08377341 -0.30996165 1.6754683 163 147 129
0.08544888 -0.30996165 1.6754683 164 149 131
0.08742029 -0.3110145 1.6811595 148 133 117
0.08946612 -0.31228742 1.68804 142 127 111
0.09146612 -0.31335613 1.693817 126 110 99
0.09315994 -0.31335613 1.693817 118 103 94
0.09453024 -0.31228742 1.68804 122 107 98
0.09582609 -0.3110145 1.6811595 114 102 94
0.09505342 -0.30318764 1.6388521 109 95 92
0.09281967 -0.29104474 1.5732148 111 97 94
0.09103618 -0.28069487 1.5172696 120 105 104
0.09022993 -0.27364814 1.4791791 131 116 116
0.09035885 -0.26961917 1.4574009 139 123 123
0.09246976 -0.27153817 1.4677739 140 126 126
0.09393753 -0.27153817 1.4677739 137 125 126
0.0954053 -0.27153817 1.4677739 138 124 125
0.096873075 -0.27153817 1.4677739 136 121 122
0.098340854 -0.27153817 1.4677739 133 120 120
0.099808626 -0.27153817 1.4677739 134 120 121
0.1012764 -0.27153817 1.4677739 137 122 124
0.10274417 -0.27153817 1.4677739 136 122 123
0.10421194 -0.27153817 1.4677739 136 120 122
0.10567972 -0.27153817 1.4677739 138 123 124
0.1071475 -0.27153817 1.4677739 140 123 126
0.10861527 -0.27153817 1.4677739 137 123 125
0.11008304 -0.27153817 1.4677739 142 127 129
0.11155082 -0.27153817 1.4677739 143 128 130
0.11261781 -0.27057526 1.462569 140 125 128
0.114080384 -0.27057526 1.462569 140 123 126
0.115542956 -0.27057526 1.462569 139 124 127
0.11742191 -0.27153817 1.4677739 137 123 125
0.11888969 -0.27153817 1.4677739 137 122 125
0.12035746 -0.27153817 1.4677739 138 124 127
0.12182523 -0.27153817 1.4677739 138 123 123
0.123293005 -0.27153817 1.4677739 135 120 121
0.12476078 -0.27153817 1.4677739 132 116 118
0.12622856 -0.27153817 1.4677739 130 114 116
0.12815239 -0.27250794 1.4730159 125 113 113
0.1296254 -0.27250794 1.4730159 127 113 113
0.13109842 -0.27250794 1.4730159 122 108 109
0.13257143 -0.27250794 1.4730159 124 108 109
0.1346053 -0.27364814 1.4791791 123 108 106
0.13608448 -0.27364814 1.4791791 121 106 104
0.13756366 -0.27364814 1.4791791 121 106 106
0.13904284 -0.27364814 1.4791791 120 105 106
0.14102781 -0.27463308 1.4845031 120 105 106
0.14251229 -0.27463308 1.4845031 126 109 111
0.1439968 -0.27463308 1.4845031 125 107 110
0.1454813 -0.27463308 1.4845031 119 104 105
0.1469658 -0.27463308 1.4845031 115 100 101
0.14845031 -0.27463308 1.4845031 114 98 99
0.14993481 -0.27463308 1.4845031 109 95 93
0.15196627 -0.2756251 1.4898655 115 99 98
0.1540125 -0.27662438 1.4952669 115 99 96
0.15607359 -0.2776309 1.5007075 98 78 76
0.15872939 -0.27966607 1.5117085 99 80 74
0.16252458 -0.2836514 1.5332508 117 92 88
0.17017311 -0.29422453 1.5904028 109 72 66
0.17560054 -0.30079722 1.6259309 112 57 50
0.17792788 -0.3019877 1.632366 124 64 53
0.18027373 -0.30318764 1.6388521 136 71 57
0.18251695 -0.30419493 1.6442969 139 75 60
0.18416126 -0.30419493 1.6442969 146 92 80
0.18580554 -0.30419493 1.6442969 202 156 140
0.18744984 -0.30419493 1.6442969 215 188 171
0.18909414 -0.30419493 1.6442969 214 189 169
0.19073844 -0.30419493 1.6442969 213 190 169
0.19238274 -0.30419493 1.6442969 215 189 169
0.19480366 -0.3054125 1.6508784 214 190 169
0.19645452 -0.3054125 1.6508784 208 181 161
0.19810541 -0.3054125 1.6508784 203 178 158
0.19975628 -0.3054125 1.6508784 212 186 165
0.20208122 -0.30643463 1.6564034 215 188 167
0.20373763 -0.30643463 1.6564034 207 182 162
0.20539403 -0.30643463 1.6564034 216 190 169
0.20705043 -0.30643463 1.6564034 212 189 168
0.20801069 -0.3054125 1.6508784 209 183 164
0.20966156 -0.3054125 1.6508784 211 187 168
0.21201964 -0.30643463 1.6564034 212 188 169
0.21367604 -0.30643463 1.6564034 214 190 171
0.21533245 -0.30643463 1.6564034 210 186 167
0.21698885 -0.30643463 1.6564034 198 174 156
0.21864524 -0.30643463 1.6564034 212 189 169
0.22030166 -0.30643463 1.6564034 205 185 165
0.22195806 -0.30643463 1.6564034 210 189 168
0.22361445 -0.30643463 1.6564034 206 183 164
0.22527085 -0.30643463 1.6564034 204 180 162
0.22692727 -0.30643463 1.6564034 214 190 169
0.22858368 -0.30643463 1.6564034 214 190 169
0.23024008 -0.30643463 1.6564034 210 188 168
0.23189649 -0.30643463 1.6564034 208 185 166
0.23355289 -0.30643463 1.6564034 216 192 172
0.23520929 -0.30643463 1.6564034 215 192 170
0.2368657 -0.30643463 1.6564034 207 182 163
-0.2350607 -0.30362007 1.632366 178 159 141
-0.23342833 -0.30362007 1.632366 175 154 137
-0.23179597 -0.30362007 1.632366 175 153 136
-0.2301636 -0.30362007 1.632366 179 158 140
-0.22853124 -0.30362007 1.632366 176 155 138
-0.22780044 -0.3048265 1.6388521 179 157 140
-0.22616158 -0.3048265 1.6388521 174 153 135
-0.22452274 -0.3048265 1.6388521 175 155 135
-0.22288388 -0.3048265 1.6388521 173 152 132
-0.2203694 -0.30362007 1.632366 163 143 125
-0.21873704 -0.30362007 1.632366 163 141 124
-0.21796733 -0.3048265 1.6388521 169 148 130
-0.21632847 -0.3048265 1.6388521 168 147 129
-0.21468963 -0.3048265 1.6388521 177 155 135
-0.21305078 -0.3048265 1.6388521 181 159 137
-0.21141192 -0.3048265 1.6388521 181 157 138
-0.20977308 -0.3048265 1.6388521 182 162 140
-0.20813422 -0.3048265 1.6388521 183 162 142
-0.20649536 -0.3048265 1.6388521 180 160 138
-0.20485651 -0.3048265 1.6388521 185 164 142
-0.20321767 -0.3048265 1.6388521 189 171 149
-0.20157881 -0.3048265 1.6388521 198 174 156
-0.19993995 -0.3048265 1.6388521 185 163 145
-0.1983011 -0.3048265 1.6388521 186 165 145
-0.19666226 -0.3048265 1.6388521 186 162 139
-0.1950234 -0.3048265 1.6388521 190 167 142
-0.19338456 -0.3048265 1.6388521 187 166 141
-0.1917457 -0.3048265 1.6388521 184 161 136
-0.19010684 -0.3048265 1.6388521 183 161 140
-0.188468 -0.3048265 1.6388521 181 156 135
-0.18682915 -0.3048265 1.6388521 181 159 137
-0.18519029 -0.3048265 1.6388521 184 161 138
-0.18355143 -0.3048265 1.6388521 182 160 140
-0.18191259 -0.3048265 1.6388521 180 157 132
-0.18087265 -0.30583924 1.6442969 181 157 142
-0.17922837 -0.30583924 1.6442969 175 155 132
-0.17758407 -0.30583924 1.6442969 184 161 136
-0.17593977 -0.30583924 1.6442969 182 160 138
-0.17429547 -0.30583924 1.6442969 165 146 125
-0.17265117 -0.30583924 1.6442969 185 162 139
-0.17100689 -0.30583924 1.6442969 185 166 144
-0.16936257 -0.30583924 1.6442969 185 162 140
-0.16771828 -0.30583924 1.6442969 177 157 136
-0.166074 -0.30583924 1.6442969 192 168 146
-0.1644297 -0.30583924 1.6442969 194 173 149
-0.16278538 -0.30583924 1.6442969 194 175 152
-0.1611411 -0.30583924 1.6442969 195 173 152
-0.15896866 -0.3048265 1.6388521 192 168 150
-0.1573298 -0.3048265 1.6388521 190 168 148
-0.1562082 -0.30583924 1.6442969 188 170 146
-0.1545639 -0.30583924 1.6442969 187 167 147
-0.15241325 -0.3048265 1.6388521 186 164 144
-0.1507744 -0.3048265 1.6388521 183 161 142
-0.14913554 -0.3048265 1.6388521 186 165 145
-0.14749669 -0.3048265 1.6388521 186 165 141
-0.14585784 -0.3048265 1.6388521 184 163 142
-0.144219 -0.3048265 1.6388521 170 152 131
-0.14258014 -0.3048265 1.6388521 155 136 116
-0.14094128 -0.3048265 1.6388521 150 132 107
-0.13976523 -0.30583924 1.6442969 141 123 99
-0.13812093 -0.30583924 1.6442969 135 116 93
-0.13647664 -0.30583924 1.6442969 130 111 89
-0.13483235 -0.30583924 1.6442969 131 110 89
-0.13318805 -0.30583924 1.6442969 129 108 87
-0.13007447 -0.30242315 1.6259309 120 102 86
-0.12702967 -0.29908252 1.6079706 112 93 82
-0.123654075 -0.2948674 1.5853087 93 74 71
-0.12022041 -0.29040253 1.561304 87 70 65
-0.118285954 -0.28948933 1.5563942 94 81 73
-0.11629073 -0.288401 1.5505431 98 86 78
-0.11431045 -0.28732085 1.5447358 78 64 58
-0.11276571 -0.28732085 1.5447358 85 75 69
-0.11122098 -0.28732085 1.5447358 97 85 79
-0.10967624 -0.28732085 1.5447358 81 67 61
-0.107728034 -0.28624877 1.5389719 78 66 61
-0.1057943 -0.28518465 1.5332508 77 65 60
-0.104261056 -0.28518465 1.5332508 79 66 62
-0.10272781 -0.28518465 1.5332508 76 63 60
-0.10081976 -0.2841284 1.527572 78 65 62
-0.09892579 -0.28307995 1.5219352 82 69 65
-0.097403854 -0.28307995 1.5219352 79 66 62
-0.095587984 -0.28221217 1.5172696 79 66 62
-0.09435999 -0.28307995 1.5219352 80 67 61
-0.092553444 -0.28221217 1.5172696 87 74 68
-0.090702504 -0.2811778 1.5117085 82 69 62
-0.0891908 -0.2811778 1.5117085 79 66 60
-0.087679096 -0.2811778 1.5117085 83 70 65
-0.08616738 -0.2811778 1.5117085 86 75 70
-0.084346525 -0.28015095 1.5061879 89 78 73
-0.08284033 -0.28015095 1.5061879 85 72 67
-0.081334144 -0.28015095 1.5061879 84 73 67
-0.079537496 -0.2791316 1.5007075 86 72 67
-0.07803679 -0.2791316 1.5007075 83 70 64
-0.07653608 -0.2791316 1.5007075 85 70 65
-0.07476334 -0.27811965 1.4952669 86 72 67
-0.07326808 -0.27811965 1.4952669 87 74 69
-0.071772814 -0.27811965 1.4952669 86 73 67
-0.07027754 -0.27811965 1.4952669 89 75 70
-0.068533815 -0.277115 1.4898655 89 76 71
-0.06728701 -0.27811965 1.4952669 91 78 75
-0.06579175 -0.27811965 1.4952669 91 79 76
-0.06429648 -0.27811965 1.4952669 90 78 75
-0.06257435 -0.277115 1.4898655 89 76 73
-0.060864627 -0.2761176 1.4845031 91 79 77
-0.05916717 -0.27512732 1.4791791 91 80 78
-0.057687987 -0.27512732 1.4791791 99 84 83
-0.056208808 -0.27512732 1.4791791 111 97 96
-0.054501586 -0.27398095 1.4730159 125 109 108
-0.05283986 -0.27300596 1.4677739 128 117 115
-0.051372085 -0.27300596 1.4677739 132 119 116
-0.049904313 -0.27300596 1.4677739 133 118 116
-0.04826478 -0.27203783 1.462569 130 115 115
-0.046802208 -0.27203783 1.462569 135 120 120
-0.045339637 -0.27203783 1.462569 142 127 128
-0.043877073 -0.27203783 1.462569 143 127 129
-0.0424145 -0.27203783 1.462569 145 130 131
-0.040807225 -0.27107656 1.4574009 146 131 132
-0.039489366 -0.27203783 1.462569 151 133 136
-0.03816212 -0.27300596 1.4677739 147 131 133
-0.036564223 -0.27203783 1.462569 147 132 133
-0.035101656 -0.27203783 1.462569 149 132 134
-0.0337588 -0.27300596 1.4677739 145 129 131
-0.03229103 -0.27300596 1.4677739 148 132 132
-0.030823251 -0.27300596 1.4677739 146 130 131
-0.029355478 -0.27300596 1.4677739 143 127 127
-0.027887706 -0.27300596 1.4677739 143 127 128
-0.02641993 -0.27300596 1.4677739 145 129 128
-0.025041271 -0.27398095 1.4730159 146 130 129
-0.02375205 -0.2761176 1.4845031 147 130 132
-0.022347983 -0.277115 1.4898655 147 130 133
-0.020783044 -0.2761176 1.4845031 147 130 133
-0.019368252 -0.277115 1.4898655 147 130 133
-0.017878387 -0.277115 1.4898655 149 131 133
-0.01638852 -0.277115 1.4898655 151 132 135
-0.014952669 -0.27811965 1.4952669 153 134 138
-0.013457403 -0.27811965 1.4952669 154 136 143
-0.011918925 -0.277115 1.4898655 157 139 146
-0.010429059 -0.277115 1.4898655 155 136 141
-0.008939194 -0.277115 1.4898655 154 134 137
-0.0074493275 -0.277115 1.4898655 153 133 134
-0.006024752 -0.28015095 1.5061879 154 134 132
-0.004634207 -0.28732085 1.5447358 171 150 138
-0.0031808056 -0.29581493 1.5904028 204 178 158
-0.0016388522 -0.3048265 1.6388521 206 186 165
0.0 -0.3103763 1.6686896 211 190 168
0.0016630825 -0.30933335 1.6630825 207 187 170
0.003326165 -0.30933335 1.6630825 198 177 160
0.0049892473 -0.30933335 1.6630825 196 177 156
0.00665233 -0.30933335 1.6630825 210 190 165
0.008315412 -0.30933335 1.6630825 204 187 161
0.009978495 -0.30933335 1.6630825 205 185 162
0.011594824 -0.30809104 1.6564034 211 190 166
0.013251227 -0.30809104 1.6564034 206 186 166
0.014907631 -0.30809104 1.6564034 208 188 167
0.016564034 -0.30809104 1.6564034 211 191 169
0.018220438 -0.30809104 1.6564034 215 194 172
0.019876841 -0.30809104 1.6564034 212 191 171
0.021533245 -0.30809104 1.6564034 212 189 169
0.023189647 -0.30809104 1.6564034 220 198 175
0.024846053 -0.30809104 1.6564034 216 194 172
0.026502455 -0.30809104 1.6564034 217 193 171
0.028158857 -0.30809104 1.6564034 214 193 169
0.029815262 -0.30809104 1.6564034 214 190 169
0.031471666 -0.30809104 1.6564034 194 174 153
0.033128068 -0.30809104 1.6564034 210 189 166
0.034668446 -0.30706337 1.6508784 207 187 164
0.036319323 -0.30706337 1.6508784 205 182 160
0.037970204 -0.30706337 1.6508784 195 174 153
0.03962108 -0.30706337 1.6508784 206 182 160
0.041271962 -0.30706337 1.6508784 208 185 162
0.04292284 -0.30706337 1.6508784 199 179 156
0.044396017 -0.30583924 1.6442969 209 188 164
0.046224594 -0.30706337 1.6508784 202 179 157
0.04768461 -0.30583924 1.6442969 205 185 161
0.049526352 -0.30706337 1.6508784 217 196 171
0.05117723 -0.30706337 1.6508784 210 187 165
0.05282811 -0.30706337 1.6508784 206 186 164
0.054478988 -0.30706337 1.6508784 204 181 161
0.05612987 -0.30706337 1.6508784 177 158 142
0.057780746 -0.30706337 1.6508784 211 187 168
0.059431624 -0.30706337 1.6508784 204 184 163
0.0610825 -0.30706337 1.6508784 207 185 165
0.06273338 -0.30706337 1.6508784 215 194 172
0.06459973 -0.30809104 1.6564034 217 198 175
0.066256136 -0.30809104 1.6564034 209 190 169
0.067912534 -0.30809104 1.6564034 210 192 170
0.06956895 -0.30809104 1.6564034 211 191 172
0.07122535 -0.30809104 1.6564034 213 193 171
0.07288175 -0.30809104 1.6564034 202 180 159
0.07453816 -0.30809104 1.6564034 191 172 150
0.076194555 -0.30809104 1.6564034 178 158 139
0.07785096 -0.30809104 1.6564034 176 157 138
0.07982796 -0.30933335 1.6630825 171 151 131
0.08176579 -0.3103763 1.6686896 167 149 130
0.08377341 -0.3116371 1.6754683 152 136 121
0.08510317 -0.3103763 1.6686896 151 133 118
0.087124355 -0.3116371 1.6754683 139 125 110
0.089101456 -0.31269568 1.6811595 133 118 104
0.09115416 -0.31397542 1.68804 120 104 94
0.0928422 -0.31397542 1.68804 119 105 94
0.09453024 -0.31397542 1.68804 122 106 97
0.0947957 -0.30933335 1.6630825 113 99 94
0.092600435 -0.29696 1.5965592 112 99 96
0.08979418 -0.28307995 1.5219352 121 108 104
0.08907019 -0.2761176 1.4845031 140 126 124
0.08953421 -0.27300596 1.4677739 144 129 130
0.09067927 -0.27203783 1.462569 146 131 131
0.09246976 -0.27300596 1.4677739 144 130 131
0.09393753 -0.27300596 1.4677739 141 126 128
0.0954053 -0.27300596 1.4677739 138 123 125
0.096873075 -0.27300596 1.4677739 133 118 120
0.098340854 -0.27300596 1.4677739 132 118 120
0.099808626 -0.27300596 1.4677739 132 119 120
0.1012764 -0.27300596 1.4677739 138 124 125
0.10274417 -0.27300596 1.4677739 137 120 122
0.10421194 -0.27300596 1.4677739 139 121 124
0.10567972 -0.27300596 1.4677739 136 121 123
0.1071475 -0.27300596 1.4677739 140 124 126
0.10861527 -0.27300596 1.4677739 139 122 125
0.11008304 -0.27300596 1.4677739 141 125 128
0.11115524 -0.27203783 1.462569 142 126 130
0.11261781 -0.27203783 1.462569 140 123 126
0.114080384 -0.27203783 1.462569 138 122 126
0.115542956 -0.27203783 1.462569 138 121 126
0.11742191 -0.27300596 1.4677739 134 119 123
0.11888969 -0.27300596 1.4677739 135 120 124
0.12035746 -0.27300596 1.4677739 136 122 126
0.12182523 -0.27300596 1.4677739 134 120 117
0.123293005 -0.27300596 1.4677739 131 116 114
0.12476078 -0.27300596 1.4677739 129 113 113
0.12622856 -0.27300596 1.4677739 125 112 112
0.12815239 -0.27398095 1.4730159 123 110 111
0.1296254 -0.27398095 1.4730159 119 105 107
0.13109842 -0.27398095 1.4730159 114 102 103
0.13257143 -0.27398095 1.4730159 115 102 103
0.1346053 -0.27512732 1.4791791 117 103 102
0.13608448 -0.27512732 1.4791791 115 102 100
0.13756366 -0.27512732 1.4791791 119 104 104
0.13904284 -0.27512732 1.4791791 114 101 102
0.14102781 -0.2761176 1.4845031 114 100 102
0.14251229 -0.2761176 1.4845031 118 102 104
0.1439968 -0.2761176 1.4845031 117 102 104
0.1454813 -0.2761176 1.4845031 114 100 101
0.1469658 -0.2761176 1.4845031 115 99 100
0.14845031 -0.2761176 1.4845031 111 97 97
0.14993481 -0.2761176 1.4845031 109 94 93
0.15251723 -0.27811965 1.4952669 111 97 95
0.15457287 -0.2791316 1.5007075 108 93 91
0.15607359 -0.2791316 1.5007075 94 75 72
0.15872939 -0.2811778 1.5117085 101 81 75
0.16374199 -0.28732085 1.5447358 118 92 89
0.17083183 -0.29696 1.5965592 104 65 59
0.17560054 -0.30242315 1.6259309 111 53 46
0.17792788 -0.30362007 1.632366 125 63 51
0.18027373 -0.3048265 1.6388521 136 70 57
0.18251695 -0.30583924 1.6442969 142 77 62
0.18355143 -0.3048265 1.6388521 148 93 81
0.18519029 -0.3048265 1.6388521 202 156 141
0.18682915 -0.3048265 1.6388521 213 187 171
0.18909414 -0.30583924 1.6442969 204 181 162
0.19010684 -0.3048265 1.6388521 212 188 169
0.1917457 -0.3048265 1.6388521 214 187 166
0.19338456 -0.3048265 1.6388521 214 190 169
0.19567132 -0.30583924 1.6442969 200 176 157
0.19731563 -0.30583924 1.6442969 198 173 154
0.19895993 -0.30583924 1.6442969 205 180 160
0.20140716 -0.30706337 1.6508784 209 185 165
0.20305805 -0.30706337 1.6508784 215 193 171
0.20470892 -0.30706337 1.6508784 216 194 172
0.2063598 -0.30706337 1.6508784 214 190 169
0.20801069 -0.30706337 1.6508784 218 194 172
0.20966156 -0.30706337 1.6508784 216 190 172
0.21131244 -0.30706337 1.6508784 220 196 177
0.21296331 -0.30706337 1.6508784 221 197 178
0.2146142 -0.30706337 1.6508784 214 187 170
0.21626508 -0.30706337 1.6508784 196 172 156
0.21791595 -0.30706337 1.6508784 216 191 173
0.21956684 -0.30706337 1.6508784 213 195 173
0.22195806 -0.30809104 1.6564034 215 192 172
0.22361445 -0.30809104 1.6564034 217 193 173
0.22527085 -0.30809104 1.6564034 196 173 155
0.22617035 -0.30706337 1.6508784 210 184 165
0.22858368 -0.30809104 1.6564034 208 184 165
0.23024008 -0.30809104 1.6564034 215 191 170
0.23189649 -0.30809104 1.6564034 215 193 172
0.23355289 -0.30809104 1.6564034 217 193 173
0.23520929 -0.30809104 1.6564034 193 172 154
0.2368657 -0.30809104 1.6564034 208 182 163
-0.2350607 -0.30525243 1.632366 182 160 141
-0.23342833 -0.30525243 1.632366 180 159 141
-0.23179597 -0.30525243 1.632366 181 161 141
-0.2301636 -0.30525243 1.632366 180 159 140
-0.22853124 -0.30525243 1.632366 182 161 143
-0.22689886 -0.30525243 1.632366 183 162 143
-0.2252665 -0.30525243 1.632366 182 160 138
-0.22363414 -0.30525243 1.632366 181 160 138
-0.22200178 -0.30525243 1.632366 172 151 131
-0.2203694 -0.30525243 1.632366 170 149 130
-0.21873704 -0.30525243 1.632366 179 155 133
-0.21710467 -0.30525243 1.632366 184 161 141
-0.21547231 -0.30525243 1.632366 186 163 142
-0.21383993 -0.30525243 1.632366 188 166 142
-0.21220757 -0.30525243 1.632366 185 164 140
-0.21057521 -0.30525243 1.632366 175 154 138
-0.20894285 -0.30525243 1.632366 182 163 139
-0.20731047 -0.30525243 1.632366 184 163 140
-0.20567812 -0.30525243 1.632366 185 164 145
-0.20404574 -0.30525243 1.632366 190 168 141
-0.20241338 -0.30525243 1.632366 186 166 141
-0.200781 -0.30525243 1.632366 191 170 146
-0.19914865 -0.30525243 1.632366 187 165 142
-0.19751628 -0.30525243 1.632366 189 168 146
-0.19588391 -0.30525243 1.632366 187 167 140
-0.19425154 -0.30525243 1.632366 186 166 140
-0.19261919 -0.30525243 1.632366 188 167 142
-0.19098681 -0.30525243 1.632366 185 162 137
-0.19010684 -0.30646533 1.6388521 171 149 130
-0.188468 -0.30646533 1.6388521 164 142 123
-0.18682915 -0.30646533 1.6388521 154 135 116
-0.18519029 -0.30646533 1.6388521 168 146 126
-0.18282498 -0.30525243 1.632366 185 163 142
-0.18191259 -0.30646533 1.6388521 183 161 138
-0.18027373 -0.30646533 1.6388521 185 163 144
-0.17863488 -0.30646533 1.6388521 183 164 141
-0.17699604 -0.30646533 1.6388521 186 166 143
-0.17535718 -0.30646533 1.6388521 196 173 151
-0.17429547 -0.30748352 1.6442969 190 169 146
-0.17265117 -0.30748352 1.6442969 188 167 143
-0.17044061 -0.30646533 1.6388521 186 164 140
-0.16936257 -0.30748352 1.6442969 189 168 143
-0.16716293 -0.30646533 1.6388521 182 160 137
-0.16552407 -0.30646533 1.6388521 189 167 143
-0.1638852 -0.30646533 1.6388521 195 174 149
-0.16278538 -0.30748352 1.6442969 191 173 149
-0.1611411 -0.30748352 1.6442969 194 174 153
-0.15896866 -0.30646533 1.6388521 195 175 154
-0.1573298 -0.30646533 1.6388521 191 170 148
-0.15569095 -0.30646533 1.6388521 187 166 145
-0.1540521 -0.30646533 1.6388521 192 170 149
-0.15241325 -0.30646533 1.6388521 191 168 148
-0.1507744 -0.30646533 1.6388521 188 167 147
-0.14913554 -0.30646533 1.6388521 185 164 144
-0.14749669 -0.30646533 1.6388521 185 163 143
-0.14528057 -0.30525243 1.632366 181 160 139
-0.1436482 -0.30525243 1.632366 171 153 132
-0.14201584 -0.30525243 1.632366 160 139 117
-0.14038347 -0.30525243 1.632366 146 125 102
-0.1387511 -0.30525243 1.632366 138 117 96
