ply
format ascii 1.0
element vertex 1083
property float32 x
property float32 y
property float32 z
property uchar red
property uchar green
property uchar blue
element face 0
property list uint8 int32 vertex_indices
end_header
0.24536356 -0.2926837 1.7525969 211 189 170
0.24711615 -0.2926837 1.7525969 216 193 174
0.24886876 -0.2926837 1.7525969 213 190 172
0.25062135 -0.2926837 1.7525969 195 175 158
-0.24763866 -0.28891176 1.7197129 69 74 85
-0.24591894 -0.28891176 1.7197129 72 76 87
-0.24419922 -0.28891176 1.7197129 69 72 83
-0.2424795 -0.28891176 1.7197129 67 70 81
-0.24075979 -0.28891176 1.7197129 66 70 81
-0.23904009 -0.28891176 1.7197129 68 72 83
-0.23732038 -0.28891176 1.7197129 70 74 84
-0.23560067 -0.28891176 1.7197129 63 68 79
-0.23388095 -0.28891176 1.7197129 58 62 73
-0.23216124 -0.28891176 1.7197129 57 62 73
-0.23044153 -0.28891176 1.7197129 57 63 74
-0.22872181 -0.28891176 1.7197129 62 65 78
-0.22700208 -0.28891176 1.7197129 74 77 89
-0.22528239 -0.28891176 1.7197129 61 65 76
-0.22356267 -0.28891176 1.7197129 71 74 84
-0.22184296 -0.28891176 1.7197129 87 84 91
-0.22012325 -0.28891176 1.7197129 100 95 98
-0.21931799 -0.29012144 1.7269133 134 126 120
-0.21759108 -0.29012144 1.7269133 153 140 127
-0.21586417 -0.29012144 1.7269133 161 144 127
-0.21413726 -0.29012144 1.7269133 164 146 129
-0.21241035 -0.29012144 1.7269133 164 143 127
-0.21068342 -0.29012144 1.7269133 166 147 129
-0.20895651 -0.29012144 1.7269133 168 150 129
-0.2072296 -0.29012144 1.7269133 165 147 126
-0.20550269 -0.29012144 1.7269133 169 150 130
-0.20377578 -0.29012144 1.7269133 168 148 128
-0.20204885 -0.29012144 1.7269133 169 149 128
-0.20032194 -0.29012144 1.7269133 165 147 125
-0.19859503 -0.29012144 1.7269133 166 146 126
-0.19755742 -0.29113728 1.7329599 163 143 122
-0.19582446 -0.29113728 1.7329599 163 144 122
-0.19341429 -0.29012144 1.7269133 156 137 115
-0.19235855 -0.29113728 1.7329599 148 130 111
-0.19062558 -0.29113728 1.7329599 150 130 109
-0.18889262 -0.29113728 1.7329599 137 121 102
-0.18715967 -0.29113728 1.7329599 137 119 99
-0.18542671 -0.29113728 1.7329599 134 117 96
-0.18369374 -0.29113728 1.7329599 137 118 97
-0.18196079 -0.29113728 1.7329599 135 117 96
-0.18086109 -0.2921602 1.739049 139 121 99
-0.17912205 -0.2921602 1.739049 139 121 103
-0.17738299 -0.2921602 1.739049 138 121 102
-0.17564395 -0.2921602 1.739049 145 127 106
-0.1739049 -0.2921602 1.739049 143 125 105
-0.17216584 -0.2921602 1.739049 143 125 105
-0.16983007 -0.29113728 1.7329599 146 128 107
-0.16868775 -0.2921602 1.739049 145 126 106
-0.1669487 -0.2921602 1.739049 136 120 101
-0.16520965 -0.2921602 1.739049 139 121 102
-0.1634706 -0.2921602 1.739049 142 124 105
-0.16241638 -0.2933973 1.7464126 141 122 104
-0.1599925 -0.2921602 1.739049 137 120 102
-0.15825345 -0.2921602 1.739049 140 123 104
-0.15717714 -0.2933973 1.7464126 138 122 102
-0.15543072 -0.2933973 1.7464126 143 125 106
-0.15368432 -0.2933973 1.7464126 146 126 107
-0.15129726 -0.2921602 1.739049 142 124 105
-0.14955822 -0.2921602 1.739049 140 124 106
-0.14781916 -0.2921602 1.739049 140 124 105
-0.1460801 -0.2921602 1.739049 136 120 102
-0.14434107 -0.2921602 1.739049 139 123 103
-0.14260203 -0.2921602 1.739049 143 125 105
-0.14086296 -0.2921602 1.739049 134 117 99
-0.13912392 -0.2921602 1.739049 134 118 99
-0.13690382 -0.29113728 1.7329599 132 117 98
-0.1356458 -0.2921602 1.739049 130 113 95
-0.13447377 -0.2933973 1.7464126 127 111 94
-0.13272735 -0.2933973 1.7464126 128 112 95
-0.13098094 -0.2933973 1.7464126 126 111 94
-0.12868962 -0.2921602 1.739049 126 112 95
-0.12553903 -0.28891176 1.7197129 124 109 94
-0.120145656 -0.28033984 1.6686896 104 91 82
-0.11544109 -0.2731564 1.6259309 84 73 67
-0.11299848 -0.27119634 1.614264 82 70 67
-0.11094997 -0.27013907 1.6079706 73 63 62
-0.109342 -0.27013907 1.6079706 74 65 64
-0.10773403 -0.27013907 1.6079706 67 59 57
-0.10578239 -0.26926425 1.6027634 66 57 56
-0.10417962 -0.26926425 1.6027634 73 62 61
-0.10257686 -0.26926425 1.6027634 69 59 57
-0.1009741 -0.26926425 1.6027634 69 60 58
-0.09937133 -0.26926425 1.6027634 68 59 57
-0.09776857 -0.26926425 1.6027634 66 55 55
-0.0961658 -0.26926425 1.6027634 66 56 56
-0.094563045 -0.26926425 1.6027634 66 58 58
-0.09296028 -0.26926425 1.6027634 64 56 56
-0.09100387 -0.26822194 1.5965592 64 55 55
-0.08940731 -0.26822194 1.5965592 64 56 56
-0.087472156 -0.26718768 1.5904028 64 55 55
-0.08621419 -0.26822194 1.5965592 61 53 53
-0.084291354 -0.26718768 1.5904028 62 54 54
-0.08270095 -0.26718768 1.5904028 65 59 59
-0.081110545 -0.26718768 1.5904028 64 56 56
-0.07952014 -0.26718768 1.5904028 58 51 50
-0.077680126 -0.26633185 1.5853087 60 53 52
-0.07609482 -0.26633185 1.5853087 62 54 53
-0.07422421 -0.26531208 1.5792385 58 51 50
-0.072924204 -0.26633185 1.5853087 61 55 54
-0.07133889 -0.26633185 1.5853087 61 54 52
-0.06975358 -0.26633185 1.5853087 61 52 52
-0.06790726 -0.26531208 1.5792385 61 53 53
-0.06607502 -0.26430008 1.5732148 61 52 52
-0.064256705 -0.26329574 1.5672367 58 50 50
-0.06202172 -0.26049125 1.5505431 64 52 46
-0.05935547 -0.25568512 1.5219352 138 109 93
-0.05661489 -0.2502974 1.4898655 191 134 102
-0.054501586 -0.24746667 1.4730159 202 144 111
-0.05325045 -0.24850209 1.4791791 208 148 114
-0.051771272 -0.24850209 1.4791791 216 153 116
-0.05029209 -0.24850209 1.4791791 217 153 117
-0.048609525 -0.24746667 1.4730159 215 151 115
-0.047333732 -0.24850209 1.4791791 212 148 113
-0.045854554 -0.24850209 1.4791791 210 146 113
-0.044375375 -0.24850209 1.4791791 208 145 111
-0.04271746 -0.24746667 1.4730159 207 143 109
-0.041244447 -0.24746667 1.4730159 207 142 109
-0.03977143 -0.24746667 1.4730159 210 144 110
-0.038298413 -0.24746667 1.4730159 212 145 111
-0.036825396 -0.24746667 1.4730159 212 145 111
-0.035352383 -0.24746667 1.4730159 211 146 111
-0.033879366 -0.24746667 1.4730159 212 145 111
-0.03240635 -0.24746667 1.4730159 210 143 110
-0.030933334 -0.24746667 1.4730159 207 142 108
-0.029460318 -0.24746667 1.4730159 207 140 109
-0.027987303 -0.24746667 1.4730159 206 139 109
-0.026514286 -0.24746667 1.4730159 207 140 110
-0.025146045 -0.24850209 1.4791791 208 137 110
-0.023666866 -0.24850209 1.4791791 207 137 110
-0.022187687 -0.24850209 1.4791791 204 136 109
-0.020708507 -0.24850209 1.4791791 201 134 106
-0.019229328 -0.24850209 1.4791791 200 133 105
-0.01775015 -0.24850209 1.4791791 201 133 105
-0.01627097 -0.24850209 1.4791791 200 132 104
-0.014791792 -0.24850209 1.4791791 199 132 105
-0.013312613 -0.24850209 1.4791791 197 130 105
-0.011833433 -0.24850209 1.4791791 196 129 104
-0.010354253 -0.24850209 1.4791791 195 130 104
-0.008875075 -0.24850209 1.4791791 196 128 102
-0.007395896 -0.24850209 1.4791791 194 127 100
-0.0059167165 -0.24850209 1.4791791 194 127 101
-0.0044375374 -0.24850209 1.4791791 193 126 103
-0.0030438704 -0.25568512 1.5219352 186 126 102
-0.0016206069 -0.27226198 1.6206069 125 99 84
0.0 -0.28456125 1.693817 103 87 71
0.0017197129 -0.28891176 1.7197129 108 90 76
0.0034538268 -0.29012144 1.7269133 109 89 75
0.00518074 -0.29012144 1.7269133 104 87 74
0.0069076535 -0.29012144 1.7269133 96 79 66
0.008598564 -0.28891176 1.7197129 89 72 59
0.010318277 -0.28891176 1.7197129 88 71 58
0.01203799 -0.28891176 1.7197129 94 77 65
0.013757703 -0.28891176 1.7197129 98 82 70
0.015477416 -0.28891176 1.7197129 98 81 70
0.017197128 -0.28891176 1.7197129 98 82 69
0.018916842 -0.28891176 1.7197129 100 84 72
0.020636555 -0.28891176 1.7197129 100 84 71
0.022356268 -0.28891176 1.7197129 100 84 72
0.02407598 -0.28891176 1.7197129 101 85 72
0.025795693 -0.28891176 1.7197129 99 83 70
0.02742013 -0.2879114 1.7137581 97 81 70
0.029133888 -0.2879114 1.7137581 95 80 68
0.030847646 -0.2879114 1.7137581 97 81 70
0.032561406 -0.2879114 1.7137581 98 83 71
0.034275163 -0.2879114 1.7137581 95 80 68
0.035988923 -0.2879114 1.7137581 94 79 67
0.03770268 -0.2879114 1.7137581 92 76 65
0.039416436 -0.2879114 1.7137581 91 76 64
0.041130196 -0.2879114 1.7137581 89 75 63
0.042843953 -0.2879114 1.7137581 89 74 63
0.044557713 -0.2879114 1.7137581 87 72 61
0.04627147 -0.2879114 1.7137581 86 71 61
0.04815196 -0.28891176 1.7197129 88 73 62
0.049871672 -0.28891176 1.7197129 87 73 62
0.051591385 -0.28891176 1.7197129 86 71 61
0.053126503 -0.2879114 1.7137581 85 71 61
0.05503081 -0.28891176 1.7197129 87 72 62
0.05675052 -0.28891176 1.7197129 84 72 61
0.058470238 -0.28891176 1.7197129 84 72 61
0.060189947 -0.28891176 1.7197129 82 70 59
0.061909664 -0.28891176 1.7197129 80 69 58
0.063629374 -0.28891176 1.7197129 79 68 57
0.06534909 -0.28891176 1.7197129 78 66 55
0.0670688 -0.28891176 1.7197129 78 66 56
0.06907653 -0.29012144 1.7269133 78 66 55
0.07080344 -0.29012144 1.7269133 77 65 54
0.07253036 -0.29012144 1.7269133 78 66 54
0.07425727 -0.29012144 1.7269133 78 66 55
0.07566737 -0.28891176 1.7197129 75 64 52
0.07738708 -0.28891176 1.7197129 75 63 51
0.079106785 -0.28891176 1.7197129 76 62 53
0.080826506 -0.28891176 1.7197129 75 62 52
0.08254622 -0.28891176 1.7197129 74 60 52
0.083974145 -0.2879114 1.7137581 70 55 47
0.085687906 -0.2879114 1.7137581 68 55 46
0.087401666 -0.2879114 1.7137581 65 52 43
0.089115426 -0.2879114 1.7137581 68 55 46
0.09082918 -0.2879114 1.7137581 68 56 47
0.09216 -0.28672 1.7066667 70 57 49
0.09386667 -0.28672 1.7066667 71 57 49
0.09313262 -0.27939785 1.6630825 72 55 47
0.088994324 -0.26229906 1.561304 127 92 81
0.08672548 -0.25120485 1.4952669 163 109 92
0.08758569 -0.24939653 1.4845031 172 115 97
0.08907019 -0.24939653 1.4845031 179 120 98
0.09022993 -0.24850209 1.4791791 182 123 101
0.09170911 -0.24850209 1.4791791 182 123 102
0.093188286 -0.24850209 1.4791791 188 126 106
0.094273016 -0.24746667 1.4730159 194 130 108
0.09574603 -0.24746667 1.4730159 197 132 110
0.09762582 -0.24850209 1.4791791 199 135 110
0.09869206 -0.24746667 1.4730159 206 137 111
0.100165084 -0.24746667 1.4730159 209 140 112
0.1012764 -0.24658601 1.4677739 210 143 114
0.10311112 -0.24746667 1.4730159 212 143 117
0.10458413 -0.24746667 1.4730159 213 143 119
0.106057145 -0.24746667 1.4730159 213 145 119
0.1071475 -0.24658601 1.4677739 217 147 120
0.10861527 -0.24658601 1.4677739 220 149 122
0.11008304 -0.24658601 1.4677739 220 150 123
0.11115524 -0.2457116 1.462569 222 152 125
0.11261781 -0.2457116 1.462569 221 153 125
0.11448637 -0.24658601 1.4677739 221 153 125
0.11595414 -0.24658601 1.4677739 220 153 125
0.11784127 -0.24746667 1.4730159 222 152 127
0.11931428 -0.24746667 1.4730159 220 152 127
0.12078731 -0.24746667 1.4730159 220 153 127
0.122260325 -0.24746667 1.4730159 222 152 127
0.123733334 -0.24746667 1.4730159 223 151 125
0.12520635 -0.24746667 1.4730159 223 153 127
0.12667936 -0.24746667 1.4730159 223 154 129
0.12815239 -0.24746667 1.4730159 223 154 129
0.1296254 -0.24746667 1.4730159 223 154 129
0.13109842 -0.24746667 1.4730159 223 153 129
0.13312612 -0.24850209 1.4791791 224 153 129
0.1346053 -0.24850209 1.4791791 224 155 130
0.13608448 -0.24850209 1.4791791 227 156 131
0.13756366 -0.24850209 1.4791791 225 156 130
0.13904284 -0.24850209 1.4791791 226 157 132
0.14052202 -0.24850209 1.4791791 226 157 133
0.14140953 -0.24746667 1.4730159 225 156 133
0.14348038 -0.24850209 1.4791791 226 156 132
0.14495955 -0.24850209 1.4791791 226 157 132
0.14749669 -0.2502974 1.4898655 226 156 134
0.14952669 -0.25120485 1.4952669 210 147 132
0.15157145 -0.25211886 1.5007075 151 113 106
0.15363117 -0.25303957 1.5061879 116 92 92
0.15513736 -0.25303957 1.5061879 112 92 95
0.1588675 -0.25663212 1.527572 114 93 97
0.16582005 -0.26531208 1.5792385 117 98 96
0.17499311 -0.27734756 1.6508784 176 157 141
0.18400928 -0.28891176 1.7197129 206 182 162
0.18995309 -0.2954826 1.758825 206 181 162
0.19171192 -0.2954826 1.758825 208 182 163
0.1921054 -0.2933973 1.7464126 206 180 162
0.19385181 -0.2933973 1.7464126 216 193 173
0.19783203 -0.29674804 1.7663574 219 195 175
0.19959839 -0.29674804 1.7663574 211 187 168
0.20050605 -0.2954826 1.758825 212 194 172
0.20154865 -0.29443628 1.7525969 222 198 179
0.20330124 -0.29443628 1.7525969 200 175 156
0.20505384 -0.29443628 1.7525969 203 179 160
0.20680642 -0.29443628 1.7525969 205 185 164
0.20855902 -0.29443628 1.7525969 206 181 160
0.21031162 -0.29443628 1.7525969 197 173 152
0.21206422 -0.29443628 1.7525969 203 179 158
0.21381682 -0.29443628 1.7525969 205 180 158
0.2155694 -0.29443628 1.7525969 199 177 155
0.217322 -0.29443628 1.7525969 207 184 161
0.2190746 -0.29443628 1.7525969 207 184 161
0.2208272 -0.29443628 1.7525969 207 182 161
0.2225798 -0.29443628 1.7525969 205 183 162
0.22354081 -0.2933973 1.7464126 209 187 166
0.22528723 -0.2933973 1.7464126 209 186 165
0.22703364 -0.2933973 1.7464126 207 181 161
0.22878006 -0.2933973 1.7464126 210 185 163
0.23052648 -0.2933973 1.7464126 194 168 149
0.23227288 -0.2933973 1.7464126 210 185 165
0.2340193 -0.2933973 1.7464126 206 183 163
0.2357657 -0.2933973 1.7464126 211 187 167
0.23751211 -0.2933973 1.7464126 210 186 166
0.23925853 -0.2933973 1.7464126 216 191 170
0.24100494 -0.2933973 1.7464126 208 184 164
0.24275136 -0.2933973 1.7464126 194 173 155
0.24449778 -0.2933973 1.7464126 213 189 170
0.24624419 -0.2933973 1.7464126 209 186 167
0.2479906 -0.2933973 1.7464126 214 194 173
0.249737 -0.2933973 1.7464126 207 184 166
-0.24763866 -0.29063147 1.7197129 68 72 84
-0.24591894 -0.29063147 1.7197129 72 76 87
-0.24419922 -0.29063147 1.7197129 69 72 84
-0.2424795 -0.29063147 1.7197129 72 74 87
-0.24075979 -0.29063147 1.7197129 63 67 80
-0.23904009 -0.29063147 1.7197129 68 71 84
-0.23732038 -0.29063147 1.7197129 70 73 85
-0.23560067 -0.29063147 1.7197129 70 75 86
-0.23388095 -0.29063147 1.7197129 66 69 80
-0.23216124 -0.29063147 1.7197129 62 67 77
-0.23044153 -0.29063147 1.7197129 58 63 74
-0.22872181 -0.29063147 1.7197129 61 66 78
-0.22700208 -0.29063147 1.7197129 67 71 83
-0.22528239 -0.29063147 1.7197129 68 71 82
-0.22356267 -0.29063147 1.7197129 74 76 86
-0.22184296 -0.29063147 1.7197129 102 98 103
-0.22012325 -0.29063147 1.7197129 111 105 106
-0.21931799 -0.29184836 1.7269133 123 115 109
-0.21759108 -0.29184836 1.7269133 150 138 125
-0.21586417 -0.29184836 1.7269133 146 131 116
-0.21413726 -0.29184836 1.7269133 160 142 126
-0.21241035 -0.29184836 1.7269133 166 146 127
-0.21068342 -0.29184836 1.7269133 173 152 133
-0.20895651 -0.29184836 1.7269133 167 149 129
-0.2072296 -0.29184836 1.7269133 169 151 129
-0.20550269 -0.29184836 1.7269133 171 152 130
-0.20377578 -0.29184836 1.7269133 171 150 131
-0.20204885 -0.29184836 1.7269133 169 149 129
-0.20032194 -0.29184836 1.7269133 165 146 125
-0.19859503 -0.29184836 1.7269133 156 137 118
-0.19686812 -0.29184836 1.7269133 151 135 115
-0.19514121 -0.29184836 1.7269133 143 127 108
-0.19409151 -0.29287022 1.7329599 149 131 110
-0.19235855 -0.29287022 1.7329599 152 132 112
-0.19062558 -0.29287022 1.7329599 147 128 107
-0.18823355 -0.29184836 1.7269133 139 121 102
-0.18650664 -0.29184836 1.7269133 134 117 97
-0.18477972 -0.29184836 1.7269133 135 118 96
-0.18369374 -0.29287022 1.7329599 137 119 99
-0.18196079 -0.29287022 1.7329599 141 124 103
-0.18022783 -0.29287022 1.7329599 136 120 100
-0.17849487 -0.29287022 1.7329599 139 121 103
-0.17614515 -0.29184836 1.7269133 137 121 101
-0.17441824 -0.29184836 1.7269133 140 123 103
-0.17269133 -0.29184836 1.7269133 140 123 103
-0.17156303 -0.29287022 1.7329599 143 126 105
-0.16983007 -0.29287022 1.7329599 142 125 105
-0.16809711 -0.29287022 1.7329599 141 123 103
-0.16636415 -0.29287022 1.7329599 136 120 101
-0.16463117 -0.29287022 1.7329599 141 124 104
-0.16289823 -0.29287022 1.7329599 139 122 103
-0.16173156 -0.29389927 1.739049 141 124 105
-0.1594323 -0.29287022 1.7329599 136 119 101
-0.15769935 -0.29287022 1.7329599 137 119 101
-0.15596639 -0.29287022 1.7329599 140 122 104
-0.15477537 -0.29389927 1.739049 142 125 105
-0.15303631 -0.29389927 1.739049 142 124 104
-0.15129726 -0.29389927 1.739049 142 125 106
-0.14955822 -0.29389927 1.739049 142 127 108
-0.14781916 -0.29389927 1.739049 141 124 106
-0.14556864 -0.29287022 1.7329599 138 121 103
-0.14383566 -0.29287022 1.7329599 133 116 99
-0.14260203 -0.29389927 1.739049 138 120 102
-0.14086296 -0.29389927 1.739049 132 115 97
-0.1386368 -0.29287022 1.7329599 130 114 96
-0.13690382 -0.29287022 1.7329599 134 120 100
-0.13517086 -0.29287022 1.7329599 130 113 96
-0.13447377 -0.29514372 1.7464126 129 113 96
-0.13272735 -0.29514372 1.7464126 133 116 98
-0.13042867 -0.29389927 1.739049 127 112 95
-0.12779158 -0.29184836 1.7269133 127 112 96
-0.12364864 -0.28625506 1.693817 126 111 96
-0.117997356 -0.276966 1.6388521 97 84 74
-0.115063086 -0.27388257 1.6206069 79 67 62
-0.11299848 -0.2728106 1.614264 80 69 66
-0.11094997 -0.27174705 1.6079706 73 63 63
-0.109342 -0.27174705 1.6079706 68 59 59
-0.10773403 -0.27174705 1.6079706 62 53 53
-0.10578239 -0.270867 1.6027634 71 62 62
-0.10417962 -0.270867 1.6027634 68 58 57
-0.10257686 -0.270867 1.6027634 66 55 54
-0.1009741 -0.270867 1.6027634 69 59 57
-0.09937133 -0.270867 1.6027634 68 58 57
-0.09739011 -0.2698185 1.5965592 68 59 58
-0.095793545 -0.2698185 1.5965592 66 57 57
-0.09419699 -0.2698185 1.5965592 72 63 62
-0.092600435 -0.2698185 1.5965592 64 56 56
-0.09100387 -0.2698185 1.5965592 65 57 57
-0.089062564 -0.2687781 1.5904028 63 55 55
-0.087810755 -0.2698185 1.5965592 64 57 57
-0.085881755 -0.2687781 1.5904028 62 55 54
-0.084291354 -0.2687781 1.5904028 61 53 54
-0.08243605 -0.2679172 1.5853087 63 57 57
-0.080850735 -0.2679172 1.5853087 60 52 51
-0.07952014 -0.2687781 1.5904028 59 52 50
-0.07792974 -0.2687781 1.5904028 60 53 51
-0.07609482 -0.2679172 1.5853087 59 52 51
-0.07422421 -0.26689133 1.5792385 61 55 54
-0.07264497 -0.26689133 1.5792385 60 53 52
-0.07133889 -0.2679172 1.5853087 58 52 50
-0.06975358 -0.2679172 1.5853087 61 52 51
-0.06790726 -0.26689133 1.5792385 62 52 53
-0.065823935 -0.264863 1.5672367 62 53 53
-0.06381217 -0.26303062 1.5563942 60 50 48
-0.061558876 -0.26008624 1.5389719 95 78 65
-0.058527593 -0.25361958 1.5007075 187 136 102
-0.055974606 -0.24893968 1.4730159 205 145 112
-0.054501586 -0.24893968 1.4730159 208 147 114
-0.053028572 -0.24893968 1.4730159 209 147 114
-0.05155556 -0.24893968 1.4730159 212 150 116
-0.050082542 -0.24893968 1.4730159 212 151 115
-0.048609525 -0.24893968 1.4730159 212 149 115
-0.047333732 -0.24998128 1.4791791 210 148 115
-0.045854554 -0.24998128 1.4791791 211 148 115
-0.044190474 -0.24893968 1.4730159 211 147 113
-0.04271746 -0.24893968 1.4730159 209 145 111
-0.041244447 -0.24893968 1.4730159 208 144 110
-0.03977143 -0.24893968 1.4730159 208 144 111
-0.038298413 -0.24893968 1.4730159 211 145 111
-0.036825396 -0.24893968 1.4730159 209 146 112
-0.035352383 -0.24893968 1.4730159 211 146 112
-0.033879366 -0.24893968 1.4730159 213 146 113
-0.03240635 -0.24893968 1.4730159 213 146 112
-0.030933334 -0.24893968 1.4730159 212 145 110
-0.029460318 -0.24893968 1.4730159 211 143 111
-0.027987303 -0.24893968 1.4730159 211 140 110
-0.026514286 -0.24893968 1.4730159 204 138 109
-0.025146045 -0.24998128 1.4791791 205 136 109
-0.023666866 -0.24998128 1.4791791 204 136 109
-0.022187687 -0.24998128 1.4791791 206 137 111
-0.020708507 -0.24998128 1.4791791 203 134 107
-0.019229328 -0.24998128 1.4791791 199 132 104
-0.01775015 -0.24998128 1.4791791 199 130 104
-0.01627097 -0.24998128 1.4791791 199 131 103
-0.014791792 -0.24998128 1.4791791 198 132 105
-0.013312613 -0.24998128 1.4791791 197 131 104
-0.011833433 -0.24998128 1.4791791 197 129 104
-0.010354253 -0.24998128 1.4791791 196 129 104
-0.008875075 -0.24998128 1.4791791 194 128 101
-0.007395896 -0.24998128 1.4791791 193 127 100
-0.0059167165 -0.24998128 1.4791791 193 126 100
-0.0044375374 -0.24998128 1.4791791 193 125 103
-0.003012376 -0.25454575 1.5061879 189 124 102
-0.0015904028 -0.2687781 1.5904028 145 111 91
0.0 -0.28315413 1.6754683 102 87 70
0.0017008019 -0.2874355 1.7008018 108 91 77
0.0034275162 -0.2896251 1.7137581 112 93 79
0.0051412745 -0.2896251 1.7137581 110 92 80
0.0068788514 -0.29063147 1.7197129 104 86 74
0.008568791 -0.2896251 1.7137581 101 83 71
0.010318277 -0.29063147 1.7197129 92 75 62
0.0119963065 -0.2896251 1.7137581 93 76 63
0.013653333 -0.28842667 1.7066667 97 80 68
0.015360001 -0.28842667 1.7066667 98 81 69
0.017066667 -0.28842667 1.7066667 99 83 71
0.018773334 -0.28842667 1.7066667 100 83 72
0.02048 -0.28842667 1.7066667 101 85 72
0.022186667 -0.28842667 1.7066667 101 85 72
0.023893334 -0.28842667 1.7066667 105 89 76
0.025600001 -0.28842667 1.7066667 105 89 77
0.027306667 -0.28842667 1.7066667 100 84 73
0.029013334 -0.28842667 1.7066667 102 87 75
0.030720001 -0.28842667 1.7066667 101 84 72
0.032426666 -0.28842667 1.7066667 102 87 74
0.034133334 -0.28842667 1.7066667 99 84 73
0.03584 -0.28842667 1.7066667 95 81 69
0.03754667 -0.28842667 1.7066667 93 79 67
0.039253335 -0.28842667 1.7066667 92 78 65
0.04096 -0.28842667 1.7066667 90 77 63
0.042666666 -0.28842667 1.7066667 87 71 60
0.044373333 -0.28842667 1.7066667 89 75 64
0.04608 -0.28842667 1.7066667 88 74 63
0.047786668 -0.28842667 1.7066667 90 75 65
0.049493335 -0.28842667 1.7066667 90 75 65
0.051200002 -0.28842667 1.7066667 89 75 65
0.052724857 -0.2874355 1.7008018 92 77 68
0.05484026 -0.2896251 1.7137581 91 76 66
0.056554016 -0.2896251 1.7137581 87 74 64
0.058267776 -0.2896251 1.7137581 85 72 62
0.059981532 -0.2896251 1.7137581 84 71 61
0.061695293 -0.2896251 1.7137581 82 70 60
0.06340905 -0.2896251 1.7137581 80 70 58
0.06512281 -0.2896251 1.7137581 78 66 54
0.0670688 -0.29063147 1.7197129 77 66 54
0.068550326 -0.2896251 1.7137581 76 65 54
0.070264086 -0.2896251 1.7137581 74 63 52
0.07197785 -0.2896251 1.7137581 76 64 51
0.0736916 -0.2896251 1.7137581 78 66 54
0.07598419 -0.29184836 1.7269133 79 67 55
0.07738708 -0.29063147 1.7197129 78 67 56
0.079106785 -0.29063147 1.7197129 79 66 56
0.080826506 -0.29063147 1.7197129 77 64 55
0.08254622 -0.29063147 1.7197129 74 61 52
0.083974145 -0.2896251 1.7137581 71 56 48
0.085687906 -0.2896251 1.7137581 70 57 48
0.087401666 -0.2896251 1.7137581 66 54 44
0.089115426 -0.2896251 1.7137581 69 57 47
0.09082918 -0.2896251 1.7137581 70 59 49
0.09216 -0.28842667 1.7066667 72 60 51
0.09315994 -0.28625506 1.693817 70 56 48
0.09208063 -0.27788618 1.6442969 74 59 50
0.0877214 -0.26008624 1.5389719 135 96 85
0.0864122 -0.25178728 1.4898655 163 108 92
0.08758569 -0.25088102 1.4845031 168 112 94
0.08907019 -0.25088102 1.4845031 174 116 95
0.09022993 -0.24998128 1.4791791 178 118 99
0.09132699 -0.24893968 1.4730159 182 121 101
0.093188286 -0.24998128 1.4791791 186 126 105
0.094667464 -0.24998128 1.4791791 193 130 107
0.09614664 -0.24998128 1.4791791 195 132 108
0.09721905 -0.24893968 1.4730159 199 135 108
0.098340854 -0.24805379 1.4677739 204 137 108
0.100165084 -0.24893968 1.4730159 209 140 112
0.1016381 -0.24893968 1.4730159 208 142 113
0.10274417 -0.24805379 1.4677739 210 142 114
0.10421194 -0.24805379 1.4677739 212 143 118
0.10567972 -0.24805379 1.4677739 214 146 118
0.1071475 -0.24805379 1.4677739 216 148 121
0.1082301 -0.24717416 1.462569 220 150 122
0.11008304 -0.24805379 1.4677739 221 150 124
0.11155082 -0.24805379 1.4677739 221 152 125
0.113018595 -0.24805379 1.4677739 222 151 125
0.11448637 -0.24805379 1.4677739 221 152 125
0.115542956 -0.24717416 1.462569 221 152 125
0.11742191 -0.24805379 1.4677739 222 152 125
0.11931428 -0.24893968 1.4730159 219 152 127
0.12078731 -0.24893968 1.4730159 221 153 128
0.122260325 -0.24893968 1.4730159 223 153 128
0.123733334 -0.24893968 1.4730159 222 152 125
0.12520635 -0.24893968 1.4730159 221 153 127
0.12667936 -0.24893968 1.4730159 223 153 129
0.12815239 -0.24893968 1.4730159 223 153 129
0.1296254 -0.24893968 1.4730159 222 153 129
0.13109842 -0.24893968 1.4730159 223 153 128
0.13257143 -0.24893968 1.4730159 223 153 129
0.13404445 -0.24893968 1.4730159 225 154 130
0.13551746 -0.24893968 1.4730159 224 156 130
0.13699047 -0.24893968 1.4730159 226 157 131
0.1384635 -0.24893968 1.4730159 225 156 131
0.1399365 -0.24893968 1.4730159 226 157 130
0.1420012 -0.24998128 1.4791791 226 157 131
0.14348038 -0.24998128 1.4791791 225 156 131
0.1454813 -0.25088102 1.4845031 225 156 132
0.1469658 -0.25088102 1.4845031 228 157 133
0.14898656 -0.25178728 1.4898655 228 158 135
0.15047643 -0.25178728 1.4898655 215 151 133
0.15251723 -0.2527001 1.4952669 169 125 119
0.15345615 -0.25178728 1.4898655 119 95 97
0.15664354 -0.25454575 1.5061879 114 93 95
0.16099133 -0.2591194 1.5332508 113 94 93
0.16923527 -0.2698185 1.5965592 118 102 95
0.1785498 -0.28200856 1.6686896 206 180 161
0.18650664 -0.29184836 1.7269133 206 181 162
0.19035898 -0.29514372 1.7464126 194 170 152
0.1921054 -0.29514372 1.7464126 197 175 157
0.19385181 -0.29514372 1.7464126 214 193 173
0.19698839 -0.29724142 1.758825 214 193 172
0.19874722 -0.29724142 1.758825 200 175 157
0.19979604 -0.29618886 1.7525969 212 180 155
0.20154865 -0.29618886 1.7525969 213 194 170
0.20330124 -0.29618886 1.7525969 209 188 170
0.20505384 -0.29618886 1.7525969 213 189 169
0.20680642 -0.29618886 1.7525969 211 185 164
0.20855902 -0.29618886 1.7525969 197 172 153
0.21031162 -0.29618886 1.7525969 208 184 163
0.21206422 -0.29618886 1.7525969 204 181 160
0.21381682 -0.29618886 1.7525969 208 185 162
0.2155694 -0.29618886 1.7525969 206 184 160
0.217322 -0.29618886 1.7525969 210 184 162
0.2190746 -0.29618886 1.7525969 207 181 157
0.2208272 -0.29618886 1.7525969 205 180 157
0.2225798 -0.29618886 1.7525969 203 183 161
0.22354081 -0.29514372 1.7464126 207 187 166
0.22528723 -0.29514372 1.7464126 212 189 167
0.22703364 -0.29514372 1.7464126 205 182 160
0.22878006 -0.29514372 1.7464126 187 164 146
0.23052648 -0.29514372 1.7464126 206 181 160
0.23227288 -0.29514372 1.7464126 203 179 159
0.2340193 -0.29514372 1.7464126 210 184 165
0.2357657 -0.29514372 1.7464126 200 177 159
0.23751211 -0.29514372 1.7464126 193 172 153
0.23925853 -0.29514372 1.7464126 210 188 168
0.24100494 -0.29514372 1.7464126 203 178 160
0.24275136 -0.29514372 1.7464126 196 172 154
0.24449778 -0.29514372 1.7464126 203 183 164
0.24624419 -0.29514372 1.7464126 215 194 173
0.2479906 -0.29514372 1.7464126 215 194 174
0.249737 -0.29514372 1.7464126 201 179 161
-0.24678117 -0.29133886 1.7137581 66 70 82
-0.24506742 -0.29133886 1.7137581 68 72 84
-0.24335365 -0.29133886 1.7137581 63 67 80
-0.2416399 -0.29133886 1.7137581 64 68 81
-0.23992613 -0.29133886 1.7137581 64 67 80
-0.23821238 -0.29133886 1.7137581 70 74 87
-0.23649862 -0.29133886 1.7137581 68 72 84
-0.23478487 -0.29133886 1.7137581 68 72 83
-0.2330711 -0.29133886 1.7137581 62 66 77
-0.23135735 -0.29133886 1.7137581 63 66 77
-0.22964358 -0.29133886 1.7137581 65 69 80
-0.22792983 -0.29133886 1.7137581 61 65 76
-0.22621606 -0.29133886 1.7137581 53 56 67
-0.22450233 -0.29133886 1.7137581 79 79 91
-0.22278856 -0.29133886 1.7137581 83 82 92
-0.2210748 -0.29133886 1.7137581 111 105 109
-0.21936104 -0.29133886 1.7137581 140 130 127
-0.21764728 -0.29133886 1.7137581 167 152 139
-0.21593352 -0.29133886 1.7137581 167 150 133
-0.2149641 -0.2923512 1.7197129 164 147 129
-0.2132444 -0.2923512 1.7197129 171 150 132
-0.21152468 -0.2923512 1.7197129 164 144 127
-0.20980497 -0.2923512 1.7197129 169 150 131
-0.20808525 -0.2923512 1.7197129 170 152 132
-0.20636554 -0.2923512 1.7197129 169 151 130
-0.20464583 -0.2923512 1.7197129 170 152 130
-0.20292611 -0.2923512 1.7197129 163 145 125
-0.2012064 -0.2923512 1.7197129 161 143 124
-0.19948669 -0.2923512 1.7197129 162 143 124
-0.19776699 -0.2923512 1.7197129 158 139 121
-0.19604728 -0.2923512 1.7197129 159 140 121
-0.19432755 -0.2923512 1.7197129 155 138 117
-0.19260783 -0.2923512 1.7197129 156 137 117
-0.19088812 -0.2923512 1.7197129 152 132 113
-0.18916841 -0.2923512 1.7197129 145 126 107
-0.18823355 -0.29357526 1.7269133 143 124 104
-0.18650664 -0.29357526 1.7269133 136 118 99
-0.18477972 -0.29357526 1.7269133 136 119 97
-0.18305281 -0.29357526 1.7269133 137 119 99
-0.1813259 -0.29357526 1.7269133 144 125 106
-0.17959899 -0.29357526 1.7269133 143 125 105
-0.17787208 -0.29357526 1.7269133 140 122 103
-0.17614515 -0.29357526 1.7269133 143 124 104
-0.17441824 -0.29357526 1.7269133 140 123 103
-0.17269133 -0.29357526 1.7269133 142 125 104
-0.17096442 -0.29357526 1.7269133 143 126 104
-0.16923751 -0.29357526 1.7269133 140 122 102
-0.16751058 -0.29357526 1.7269133 135 119 99
-0.16578367 -0.29357526 1.7269133 139 123 102
-0.16463117 -0.29460317 1.7329599 140 123 103
-0.16289823 -0.29460317 1.7329599 140 122 103
-0.16116527 -0.29460317 1.7329599 141 122 103
-0.15887602 -0.29357526 1.7269133 140 122 103
-0.1571491 -0.29357526 1.7269133 140 122 102
-0.1554222 -0.29357526 1.7269133 141 123 104
-0.15369529 -0.29357526 1.7269133 142 123 105
-0.15196837 -0.29357526 1.7269133 139 123 105
-0.15024145 -0.29357526 1.7269133 140 124 106
-0.14903454 -0.29460317 1.7329599 142 127 107
-0.14678763 -0.29357526 1.7269133 137 121 103
-0.14506072 -0.29357526 1.7269133 136 120 101
-0.14333381 -0.29357526 1.7269133 133 116 98
-0.1421027 -0.29460317 1.7329599 135 118 99
-0.14036976 -0.29460317 1.7329599 133 116 98
-0.13815306 -0.29357526 1.7269133 132 116 98
-0.13690382 -0.29460317 1.7329599 138 122 102
-0.13517086 -0.29460317 1.7329599 139 122 102
-0.13390677 -0.29563832 1.739049 134 118 99
-0.13216773 -0.29563832 1.739049 128 112 95
-0.12997198 -0.29460317 1.7329599 129 114 97
-0.1268181 -0.29133886 1.7137581 128 114 96
-0.122309186 -0.28482962 1.6754683 118 105 91
-0.117067024 -0.27640826 1.6259309 85 74 64
-0.11461275 -0.2744249 1.614264 78 65 60
-0.112193435 -0.2724698 1.6027634 76 65 61
-0.110590674 -0.2724698 1.6027634 69 58 57
-0.10898791 -0.2724698 1.6027634 73 63 63
-0.10738514 -0.2724698 1.6027634 68 59 59
-0.1053729 -0.27141505 1.5965592 65 56 56
-0.10377634 -0.27141505 1.5965592 67 57 56
-0.10257686 -0.2724698 1.6027634 67 59 58
-0.100583225 -0.27141505 1.5965592 64 55 55
-0.09898667 -0.27141505 1.5965592 69 60 60
-0.09739011 -0.27141505 1.5965592 68 59 59
-0.095793545 -0.27141505 1.5965592 68 57 58
-0.09419699 -0.27141505 1.5965592 64 54 55
-0.092243366 -0.27036846 1.5904028 65 55 56
-0.090652965 -0.27036846 1.5904028 60 51 51
-0.08940731 -0.27141505 1.5965592 63 56 55
-0.087472156 -0.27036846 1.5904028 61 53 52
-0.085881755 -0.27036846 1.5904028 63 55 54
-0.08402136 -0.26950246 1.5853087 64 55 56
-0.08270095 -0.27036846 1.5904028 61 53 52
-0.080850735 -0.26950246 1.5853087 64 56 55
-0.07926543 -0.26950246 1.5853087 62 56 53
-0.077680126 -0.26950246 1.5853087 61 53 52
-0.07580345 -0.26847056 1.5792385 61 54 52
-0.07422421 -0.26847056 1.5792385 60 53 51
-0.072924204 -0.26950246 1.5853087 62 56 54
-0.07133889 -0.26950246 1.5853087 62 56 54
-0.0694865 -0.26847056 1.5792385 61 52 52
-0.06764823 -0.2674465 1.5732148 61 52 52
-0.065574765 -0.26542166 1.561304 62 52 52
-0.063572265 -0.2635923 1.5505431 72 59 51
-0.06046834 -0.25699046 1.5117085 172 130 104
-0.05744762 -0.2504127 1.4730159 201 144 109
-0.055974606 -0.2504127 1.4730159 206 148 115
-0.054501586 -0.2504127 1.4730159 209 147 116
-0.053028572 -0.2504127 1.4730159 213 150 116
-0.05155556 -0.2504127 1.4730159 212 151 116
-0.050082542 -0.2504127 1.4730159 212 150 116
-0.048609525 -0.2504127 1.4730159 212 149 116
-0.047136508 -0.2504127 1.4730159 214 149 116
-0.045663495 -0.2504127 1.4730159 214 150 116
-0.044190474 -0.2504127 1.4730159 214 149 115
-0.04271746 -0.2504127 1.4730159 212 148 114
-0.041244447 -0.2504127 1.4730159 211 146 113
-0.03977143 -0.2504127 1.4730159 211 146 112
-0.038298413 -0.2504127 1.4730159 212 145 111
-0.036825396 -0.2504127 1.4730159 211 146 111
-0.035352383 -0.2504127 1.4730159 212 145 112
-0.033879366 -0.2504127 1.4730159 212 145 112
-0.03240635 -0.2504127 1.4730159 210 144 112
-0.030933334 -0.2504127 1.4730159 211 142 110
-0.029460318 -0.2504127 1.4730159 209 141 109
-0.027987303 -0.2504127 1.4730159 206 138 109
-0.026514286 -0.2504127 1.4730159 203 136 108
-0.025041271 -0.2504127 1.4730159 202 135 107
-0.023568254 -0.2504127 1.4730159 201 135 107
-0.022095237 -0.2504127 1.4730159 201 135 107
-0.020622224 -0.2504127 1.4730159 203 134 106
-0.019149207 -0.2504127 1.4730159 199 132 105
-0.017676191 -0.2504127 1.4730159 198 131 103
-0.016203174 -0.2504127 1.4730159 197 130 103
-0.014730159 -0.2504127 1.4730159 197 130 105
-0.013312613 -0.25146046 1.4791791 198 129 106
-0.011833433 -0.25146046 1.4791791 197 128 104
-0.010354253 -0.25146046 1.4791791 196 128 103
-0.008875075 -0.25146046 1.4791791 194 128 103
-0.007395896 -0.25146046 1.4791791 193 126 99
-0.0059167165 -0.25146046 1.4791791 191 125 99
-0.0044375374 -0.25146046 1.4791791 191 125 101
-0.0029797312 -0.25327715 1.4898655 188 124 102
-0.0015447357 -0.26260507 1.5447358 170 123 99
0.0 -0.28064933 1.6508784 109 91 76
0.0016811595 -0.28579712 1.6811595 107 90 76
0.0034016038 -0.28913632 1.7008018 112 94 80
0.00512 -0.29013333 1.7066667 113 95 83
0.0068550324 -0.29133886 1.7137581 108 90 78
0.008568791 -0.29133886 1.7137581 104 87 74
0.01024 -0.29013333 1.7066667 95 77 64
0.0119963065 -0.29133886 1.7137581 94 77 64
0.013653333 -0.29013333 1.7066667 92 75 62
0.015360001 -0.29013333 1.7066667 94 77 65
0.017066667 -0.29013333 1.7066667 97 81 69
0.018773334 -0.29013333 1.7066667 102 86 74
0.02048 -0.29013333 1.7066667 103 87 73
0.022186667 -0.29013333 1.7066667 106 90 77
0.023893334 -0.29013333 1.7066667 104 88 75
0.025600001 -0.29013333 1.7066667 105 89 76
0.027306667 -0.29013333 1.7066667 104 88 76
0.029013334 -0.29013333 1.7066667 102 86 74
0.030720001 -0.29013333 1.7066667 102 84 72
0.032426666 -0.29013333 1.7066667 103 87 75
0.034133334 -0.29013333 1.7066667 103 87 76
0.03584 -0.29013333 1.7066667 101 86 74
0.03754667 -0.29013333 1.7066667 97 82 70
0.039253335 -0.29013333 1.7066667 98 83 69
0.04096 -0.29013333 1.7066667 97 82 70
0.042666666 -0.29013333 1.7066667 93 78 66
0.044373333 -0.29013333 1.7066667 90 75 64
0.04608 -0.29013333 1.7066667 87 73 61
0.047786668 -0.29013333 1.7066667 89 74 63
0.049493335 -0.29013333 1.7066667 89 73 63
0.051200002 -0.29013333 1.7066667 89 75 64
0.05290667 -0.29013333 1.7066667 92 77 66
0.05484026 -0.29133886 1.7137581 89 74 63
0.05675052 -0.2923512 1.7197129 88 74 65
0.058267776 -0.29133886 1.7137581 86 72 62
0.059981532 -0.29133886 1.7137581 86 73 63
0.061695293 -0.29133886 1.7137581 82 70 60
0.06340905 -0.29133886 1.7137581 83 70 59
0.06534909 -0.2923512 1.7197129 78 65 54
0.066836566 -0.29133886 1.7137581 78 66 55
0.068550326 -0.29133886 1.7137581 75 63 53
0.070264086 -0.29133886 1.7137581 75 63 52
0.07197785 -0.29133886 1.7137581 77 64 54
0.0736916 -0.29133886 1.7137581 77 65 55
0.07540536 -0.29133886 1.7137581 79 67 57
0.07711912 -0.29133886 1.7137581 79 67 57
0.07883287 -0.29133886 1.7137581 78 66 56
0.08054663 -0.29133886 1.7137581 76 63 54
0.08226039 -0.29133886 1.7137581 72 60 51
0.08362667 -0.29013333 1.7066667 72 59 50
0.08533333 -0.29013333 1.7066667 73 62 53
0.08704 -0.29013333 1.7066667 71 60 51
0.0884417 -0.28913632 1.7008018 73 61 52
0.0901425 -0.28913632 1.7008018 74 62 53
0.09146612 -0.28794888 1.693817 72 60 51
0.0928422 -0.2869668 1.68804 70 56 49
0.09105213 -0.27640826 1.6259309 81 64 55
0.08707161 -0.25968724 1.527572 139 97 85
0.0864122 -0.25327715 1.4898655 158 106 90
0.08758569 -0.25236553 1.4845031 164 110 90
0.08875075 -0.25146046 1.4791791 170 115 92
0.09022993 -0.25146046 1.4791791 174 116 94
0.09132699 -0.2504127 1.4730159 178 120 98
0.093188286 -0.25146046 1.4791791 184 124 102
0.094273016 -0.2504127 1.4730159 190 129 105
0.09574603 -0.2504127 1.4730159 195 132 107
0.09721905 -0.2504127 1.4730159 199 136 108
0.09869206 -0.2504127 1.4730159 203 138 110
0.099808626 -0.24952155 1.4677739 208 141 112
0.1012764 -0.24952155 1.4677739 209 141 112
0.10274417 -0.24952155 1.4677739 209 141 113
0.10421194 -0.24952155 1.4677739 211 143 116
0.10530497 -0.24863674 1.462569 214 145 118
0.1071475 -0.24952155 1.4677739 215 147 120
0.1082301 -0.24863674 1.462569 218 149 123
0.10969267 -0.24863674 1.462569 219 151 125
0.11115524 -0.24863674 1.462569 219 152 126
0.11261781 -0.24863674 1.462569 220 150 125
0.114080384 -0.24863674 1.462569 220 150 125
0.115542956 -0.24863674 1.462569 218 151 123
0.11742191 -0.24952155 1.4677739 220 150 125
0.11888969 -0.24952155 1.4677739 220 151 127
0.12035746 -0.24952155 1.4677739 221 153 128
0.12182523 -0.24952155 1.4677739 221 153 128
0.123293005 -0.24952155 1.4677739 222 151 128
0.12520635 -0.2504127 1.4730159 222 152 128
0.12622856 -0.24952155 1.4677739 221 153 129
0.12815239 -0.2504127 1.4730159 223 153 129
0.12916411 -0.24952155 1.4677739 223 153 129
0.13109842 -0.2504127 1.4730159 223 153 129
0.13257143 -0.2504127 1.4730159 223 153 129
0.13404445 -0.2504127 1.4730159 225 154 130
0.13551746 -0.2504127 1.4730159 225 155 131
0.13699047 -0.2504127 1.4730159 224 156 129
0.1384635 -0.2504127 1.4730159 226 158 130
0.1399365 -0.2504127 1.4730159 225 156 130
0.14140953 -0.2504127 1.4730159 226 158 131
0.14288254 -0.2504127 1.4730159 228 156 132
0.14495955 -0.25146046 1.4791791 228 156 132
0.14643873 -0.25146046 1.4791791 227 156 132
0.14791791 -0.25146046 1.4791791 228 157 132
0.14993481 -0.25236553 1.4845031 226 158 132
0.15196627 -0.25327715 1.4898655 216 154 134
0.15345615 -0.25327715 1.4898655 189 139 131
0.15494601 -0.25327715 1.4898655 126 99 97
0.15814973 -0.25605193 1.5061879 114 94 93
0.16435756 -0.2635923 1.5505431 114 98 95
0.17272624 -0.2744249 1.614264 176 153 141
0.18230832 -0.2869668 1.68804 214 186 166
0.18823355 -0.29357526 1.7269133 204 179 160
0.19129539 -0.29563832 1.739049 199 180 159
0.19235855 -0.29460317 1.7329599 209 189 168
0.19629085 -0.29794148 1.7525969 210 189 169
0.19804344 -0.29794148 1.7525969 215 191 171
0.19909103 -0.29689014 1.7464126 217 185 160
0.20083745 -0.29689014 1.7464126 209 182 160
0.20258386 -0.29689014 1.7464126 211 186 167
0.20433028 -0.29689014 1.7464126 216 192 174
0.2060767 -0.29689014 1.7464126 209 186 165
0.2078231 -0.29689014 1.7464126 208 187 164
0.20956951 -0.29689014 1.7464126 216 191 172
0.21131593 -0.29689014 1.7464126 207 182 160
0.21306235 -0.29689014 1.7464126 198 176 153
0.21480876 -0.29689014 1.7464126 199 177 155
0.21655516 -0.29689014 1.7464126 204 181 157
0.21830158 -0.29689014 1.7464126 213 186 162
0.220048 -0.29689014 1.7464126 199 176 153
0.2217944 -0.29689014 1.7464126 207 182 162
0.22259827 -0.29563832 1.739049 211 190 168
0.22433731 -0.29563832 1.739049 212 187 167
0.22607636 -0.29563832 1.739049 204 181 159
0.22781542 -0.29563832 1.739049 206 183 162
0.22955446 -0.29563832 1.739049 199 177 157
0.23129351 -0.29563832 1.739049 214 188 169
0.23303257 -0.29563832 1.739049 207 185 165
0.23477161 -0.29563832 1.739049 204 183 163
0.23651065 -0.29563832 1.739049 202 180 161
0.2382497 -0.29563832 1.739049 208 185 164
0.23998876 -0.29563832 1.739049 205 182 162
0.2417278 -0.29563832 1.739049 189 166 147
0.24346685 -0.29563832 1.739049 179 159 142
0.24520591 -0.29563832 1.739049 201 179 159
0.24694495 -0.29563832 1.739049 211 188 169
0.248684 -0.29563832 1.739049 216 194 174
-0.24678117 -0.29305264 1.7137581 64 68 80
-0.24506742 -0.29305264 1.7137581 67 71 83
-0.24335365 -0.29305264 1.7137581 71 74 86
-0.2416399 -0.29305264 1.7137581 80 82 94
-0.23992613 -0.29305264 1.7137581 67 69 82
-0.23821238 -0.29305264 1.7137581 66 69 82
-0.23649862 -0.29305264 1.7137581 78 80 91
-0.23478487 -0.29305264 1.7137581 67 69 81
-0.2330711 -0.29305264 1.7137581 56 58 70
-0.23135735 -0.29305264 1.7137581 55 58 70
-0.22964358 -0.29305264 1.7137581 63 66 77
-0.22792983 -0.29305264 1.7137581 61 65 76
-0.22621606 -0.29305264 1.7137581 81 84 93
-0.22450233 -0.29305264 1.7137581 72 72 85
-0.22278856 -0.29305264 1.7137581 81 81 90
-0.2210748 -0.29305264 1.7137581 119 112 113
-0.21936104 -0.29305264 1.7137581 163 150 140
-0.21764728 -0.29305264 1.7137581 171 152 134
-0.21593352 -0.29305264 1.7137581 170 151 133
-0.21421976 -0.29305264 1.7137581 168 150 132
-0.21250601 -0.29305264 1.7137581 169 151 133
-0.21079226 -0.29305264 1.7137581 171 153 134
-0.20907849 -0.29305264 1.7137581 175 156 136
-0.20736474 -0.29305264 1.7137581 178 158 138
-0.20565097 -0.29305264 1.7137581 173 154 133
-0.20464583 -0.2940709 1.7197129 166 148 127
-0.20292611 -0.2940709 1.7197129 172 152 132
-0.2012064 -0.2940709 1.7197129 168 148 129
-0.19948669 -0.2940709 1.7197129 166 148 128
-0.19776699 -0.2940709 1.7197129 163 144 125
-0.19604728 -0.2940709 1.7197129 167 146 127
-0.19432755 -0.2940709 1.7197129 159 141 122
-0.19260783 -0.2940709 1.7197129 159 138 120
-0.19088812 -0.2940709 1.7197129 149 129 111
-0.18916841 -0.2940709 1.7197129 148 126 108
-0.1874487 -0.2940709 1.7197129 145 126 106
-0.18572898 -0.2940709 1.7197129 144 125 104
-0.18400928 -0.2940709 1.7197129 139 119 99
-0.18228957 -0.2940709 1.7197129 138 120 101
-0.18056986 -0.2940709 1.7197129 137 119 101
-0.17885014 -0.2940709 1.7197129 143 124 105
-0.17713042 -0.2940709 1.7197129 144 125 104
-0.1754107 -0.2940709 1.7197129 139 120 101
-0.17369099 -0.2940709 1.7197129 139 122 102
-0.17197128 -0.2940709 1.7197129 142 125 104
-0.17025158 -0.2940709 1.7197129 143 126 104
-0.16853186 -0.2940709 1.7197129 142 124 103
-0.16681215 -0.2940709 1.7197129 139 122 102
-0.16509244 -0.2940709 1.7197129 141 123 102
-0.16337273 -0.2940709 1.7197129 140 122 104
-0.16232985 -0.29530218 1.7269133 141 123 104
-0.15993328 -0.2940709 1.7197129 136 118 100
-0.15887602 -0.29530218 1.7269133 133 116 98
-0.1571491 -0.29530218 1.7269133 142 124 104
-0.1554222 -0.29530218 1.7269133 134 117 99
-0.15369529 -0.29530218 1.7269133 137 119 102
-0.15250048 -0.29633614 1.7329599 145 126 109
-0.1507675 -0.29633614 1.7329599 148 128 112
-0.14903454 -0.29633614 1.7329599 143 126 107
-0.14730158 -0.29633614 1.7329599 142 125 106
-0.14506072 -0.29530218 1.7269133 136 119 100
-0.14333381 -0.29530218 1.7269133 135 117 98
-0.1421027 -0.29633614 1.7329599 136 118 99
-0.14036976 -0.29633614 1.7329599 131 115 97
-0.13815306 -0.29530218 1.7269133 132 115 98
-0.13642615 -0.29530218 1.7269133 136 119 102
-0.13517086 -0.29633614 1.7329599 138 121 102
-0.13343792 -0.29633614 1.7329599 141 123 103
-0.13216773 -0.29737738 1.739049 133 116 98
-0.1295185 -0.29530218 1.7269133 129 114 96
-0.12585934 -0.29083714 1.7008018 128 112 95
-0.12091745 -0.283245 1.6564034 105 93 81
-0.11622701 -0.27603915 1.614264 83 72 66
-0.11461275 -0.27603915 1.614264 78 67 64
-0.112193435 -0.27407253 1.6027634 75 64 58
-0.110590674 -0.27407253 1.6027634 76 65 62
-0.10898791 -0.27407253 1.6027634 71 62 60
-0.10696947 -0.27301162 1.5965592 68 58 57
-0.1053729 -0.27301162 1.5965592 68 58 57
-0.10377634 -0.27301162 1.5965592 70 61 61
-0.10257686 -0.27407253 1.6027634 66 57 57
-0.100583225 -0.27301162 1.5965592 64 55 55
-0.09898667 -0.27301162 1.5965592 68 59 60
-0.09739011 -0.27301162 1.5965592 66 57 58
-0.095793545 -0.27301162 1.5965592 70 59 59
-0.093833774 -0.2719589 1.5904028 67 57 56
-0.092243366 -0.2719589 1.5904028 72 62 62
-0.090652965 -0.2719589 1.5904028 69 59 58
-0.089062564 -0.2719589 1.5904028 63 55 54
-0.087472156 -0.2719589 1.5904028 66 57 56
-0.085881755 -0.2719589 1.5904028 62 54 53
-0.084291354 -0.2719589 1.5904028 60 52 52
-0.08243605 -0.27108777 1.5853087 63 55 52
-0.080850735 -0.27108777 1.5853087 63 57 53
-0.07926543 -0.27108777 1.5853087 64 57 55
-0.077680126 -0.27108777 1.5853087 62 55 53
-0.07580345 -0.27004978 1.5792385 59 52 50
-0.07422421 -0.27004978 1.5792385 66 59 59
-0.07264497 -0.27004978 1.5792385 60 55 54
-0.07106573 -0.27004978 1.5792385 60 54 53
-0.06922145 -0.26901972 1.5732148 61 53 54
-0.06739117 -0.26799747 1.5672367 61 51 52
-0.06512281 -0.26514286 1.5505431 69 57 52
-0.06263045 -0.26121482 1.527572 148 115 96
-0.05959462 -0.254767 1.4898655 200 143 110
-0.057243183 -0.25098935 1.4677739 205 146 114
-0.055974606 -0.2518857 1.4730159 209 148 116
-0.054501586 -0.2518857 1.4730159 211 148 116
-0.053028572 -0.2518857 1.4730159 214 150 118
-0.05155556 -0.2518857 1.4730159 213 150 117
-0.050082542 -0.2518857 1.4730159 212 149 117
-0.048436537 -0.25098935 1.4677739 212 149 117
-0.047136508 -0.2518857 1.4730159 212 149 117
-0.045663495 -0.2518857 1.4730159 214 150 117
-0.044190474 -0.2518857 1.4730159 214 149 116
-0.04271746 -0.2518857 1.4730159 214 148 116
-0.041244447 -0.2518857 1.4730159 214 147 115
-0.03977143 -0.2518857 1.4730159 212 146 113
-0.03816212 -0.25098935 1.4677739 209 145 112
-0.036694348 -0.25098935 1.4677739 212 145 112
-0.035226572 -0.25098935 1.4677739 210 144 112
-0.0337588 -0.25098935 1.4677739 210 144 112
-0.03229103 -0.25098935 1.4677739 210 142 111
-0.030823251 -0.25098935 1.4677739 207 141 110
-0.029355478 -0.25098935 1.4677739 208 140 110
-0.027887706 -0.25098935 1.4677739 204 137 108
-0.02641993 -0.25098935 1.4677739 203 135 108
-0.025041271 -0.2518857 1.4730159 202 134 107
-0.023568254 -0.2518857 1.4730159 201 134 105
-0.022095237 -0.2518857 1.4730159 200 133 105
-0.020622224 -0.2518857 1.4730159 199 133 104
-0.019149207 -0.2518857 1.4730159 199 131 104
-0.017676191 -0.2518857 1.4730159 199 131 104
-0.016203174 -0.2518857 1.4730159 197 130 104
-0.014730159 -0.2518857 1.4730159 196 128 105
-0.013312613 -0.25293964 1.4791791 194 127 105
-0.011833433 -0.25293964 1.4791791 194 126 104
-0.010354253 -0.25293964 1.4791791 193 126 103
-0.008875075 -0.25293964 1.4791791 193 126 103
-0.007395896 -0.25293964 1.4791791 195 126 101
-0.0059167165 -0.25293964 1.4791791 190 124 98
-0.0044375374 -0.25293964 1.4791791 190 124 97
-0.0029690063 -0.25385004 1.4845031 188 123 99
-0.0015332508 -0.26218587 1.5332508 180 123 99
0.0 -0.27913457 1.632366 118 94 81
0.0016754683 -0.2865051 1.6754683 108 93 78
0.0034016038 -0.29083714 1.7008018 112 95 81
0.0051024053 -0.29083714 1.7008018 111 94 81
0.0068266666 -0.29184 1.7066667 106 89 76
0.008533333 -0.29184 1.7066667 102 86 73
0.01024 -0.29184 1.7066667 99 82 68
0.011905613 -0.29083714 1.7008018 96 79 66
0.013606415 -0.29083714 1.7008018 97 80 67
0.015307217 -0.29083714 1.7008018 96 80 67
0.017008018 -0.29083714 1.7008018 95 78 66
0.01870882 -0.29083714 1.7008018 103 86 75
0.020409621 -0.29083714 1.7008018 106 88 76
0.022110425 -0.29083714 1.7008018 105 88 75
0.023811227 -0.29083714 1.7008018 106 88 76
0.025512028 -0.29083714 1.7008018 106 88 75
0.02721283 -0.29083714 1.7008018 105 88 77
0.028913632 -0.29083714 1.7008018 104 88 77
0.030614434 -0.29083714 1.7008018 100 83 70
0.032315236 -0.29083714 1.7008018 102 87 73
0.034016035 -0.29083714 1.7008018 104 87 76
0.03571684 -0.29083714 1.7008018 102 86 74
0.03741764 -0.29083714 1.7008018 99 83 71
0.039118443 -0.29083714 1.7008018 95 79 68
0.040819243 -0.29083714 1.7008018 94 79 67
0.042520046 -0.29083714 1.7008018 92 78 66
0.04422085 -0.29083714 1.7008018 92 79 67
0.04573306 -0.2896427 1.693817 85 71 59
0.047426876 -0.2896427 1.693817 87 73 61
0.049120694 -0.2896427 1.693817 88 74 63
0.05081451 -0.2896427 1.693817 89 75 63
0.052508328 -0.2896427 1.693817 90 75 64
0.054613333 -0.29184 1.7066667 88 75 64
0.05632 -0.29184 1.7066667 89 73 64
0.058026668 -0.29184 1.7066667 88 74 64
0.059733335 -0.29184 1.7066667 89 74 65
0.061440002 -0.29184 1.7066667 85 72 62
0.063146666 -0.29184 1.7066667 85 72 62
0.06485333 -0.29184 1.7066667 81 68 58
0.06656001 -0.29184 1.7066667 76 63 53
0.06826667 -0.29184 1.7066667 73 62 51
0.069973335 -0.29184 1.7066667 75 63 53
0.07168 -0.29184 1.7066667 77 63 54
0.07338666 -0.29184 1.7066667 78 65 57
0.07540536 -0.29305264 1.7137581 80 67 58
0.07711912 -0.29305264 1.7137581 81 68 59
0.07883287 -0.29305264 1.7137581 76 64 55
0.08054663 -0.29305264 1.7137581 75 62 53
0.08192 -0.29184 1.7066667 75 63 53
0.0833393 -0.29083714 1.7008018 71 58 49
0.08504009 -0.29083714 1.7008018 73 60 51
0.08674089 -0.29083714 1.7008018 73 60 52
0.0884417 -0.29083714 1.7008018 74 62 53
0.0901425 -0.29083714 1.7008018 74 61 53
0.09146612 -0.2896427 1.693817 71 59 51
0.09246378 -0.28747827 1.6811595 71 56 49
0.09004635 -0.274963 1.6079706 88 66 58
0.08616738 -0.25850216 1.5117085 143 97 85
0.08610118 -0.25385004 1.4845031 154 104 88
0.08758569 -0.25385004 1.4845031 163 109 89
0.08875075 -0.25293964 1.4791791 169 113 90
0.08985397 -0.2518857 1.4730159 173 115 92
0.09170911 -0.25293964 1.4791791 177 119 97
0.092800006 -0.2518857 1.4730159 183 122 100
0.09393753 -0.25098935 1.4677739 187 126 104
0.0954053 -0.25098935 1.4677739 191 131 104
0.09721905 -0.2518857 1.4730159 198 133 106
0.098340854 -0.25098935 1.4677739 200 137 110
0.099808626 -0.25098935 1.4677739 205 139 111
0.10091726 -0.2500993 1.462569 207 141 113
0.10274417 -0.25098935 1.4677739 209 142 115
